ply
format ascii 1.0
comment Created by Open3D
element vertex 1351
property double x
property double y
property double z
property uchar red
property uchar green
property uchar blue
end_header
-7.99372 2.51641 3.05676 81 23 18
-0.140073 -0.550101 2.83664 255 164 127
-3.61203 3.67027 4.26256 120 72 53
0.709386 0.580719 9.29252 0 0 0
2.11054 3.52679 3.09832 151 88 82
-0.0641425 4.35778 1.69555 80 49 35
-0.805196 -0.635233 3.50014 176 116 89
2.67199 1.47798 2.7417 194 118 102
-2.01582 4.14235 2.98757 132 78 64
-5.93025 5.38807 2.25433 119 57 36
-1.75227 4.31827 2.07432 120 118 132
1.99001 0.0488042 4.78228 192 158 127
-0.0470393 -0.617853 2.75996 254 177 146
-1.01064 -0.916945 2.5194 188 165 148
1.75355 3.4221 5.81027 92 46 33
1.49381 3.62932 7.42973 70 44 38
2.04226 2.27992 3.4425 148 110 91
-1.07149 4.1583 1.37147 123 101 82
-0.149376 4.41599 1.41201 159 115 97
1.68007 0.714592 4.96732 119 68 54
2.3072 3.69074 5.18534 212 143 123
-1.96617 3.66577 1.94773 204 230 211
-1.95963 3.48647 2.00215 208 202 169
-0.607441 5.42155 7.02841 217 120 90
0.405481 -1.13726 2.75276 255 255 255
-1.49402 -0.787978 2.4079 255 255 255
2.30044 0.939441 2.93748 255 225 198
-5.64617 6.14171 3.89277 255 255 255
1.95059 -0.494039 1.97163 203 107 73
-6.5558 5.29646 2.4461 111 51 35
2.32288 2.43843 3.54966 136 102 82
2.36952 2.55605 3.97064 126 75 64
1.01366 -0.969713 2.49547 254 201 183
-0.171932 -0.672872 5.25229 121 83 60
1.74435 -0.434424 2.58033 255 255 234
1.88659 0.572405 2.18878 255 200 181
2.21925 2.43758 3.621 255 255 255
2.56829 2.72155 5.00593 123 85 66
0.890158 4.69908 7.35951 43 24 22
-1.73084 3.65369 2.42198 146 97 72
-3.3235 2.73672 7.87774 158 117 102
-2.32624 1.21482 5.47855 103 61 41
-1.46282 5.27785 7.09506 177 104 86
-5.04299 -0.968246 4.85549 136 85 64
1.786 -0.554569 1.79122 219 123 91
2.38807 3.27266 6.75162 255 255 255
-1.32642 0.0461803 2.69474 182 130 106
2.45748 1.21837 2.91895 209 139 112
-3.61185 2.93782 4.71212 199 153 138
0.117701 -0.414771 2.77269 231 140 111
-3.02856 2.44457 5.85211 96 57 42
-2.76868 2.23589 2.84657 172 116 101
-3.33049 2.75631 4.72065 100 58 48
0.901133 0.966043 5.2355 105 60 48
1.96632 1.228 4.52889 132 107 88
-2.76555 2.3747 2.3488 128 72 56
1.71091 0.924185 4.84174 83 36 25
0.252805 4.84644 2.82268 230 235 207
2.74627 3.02741 5.87822 137 94 79
-3.18978 1.06732 5.4385 77 36 30
1.45548 4.10831 7.89816 50 34 27
-0.422193 -0.831523 2.66422 251 179 138
2.79062 3.30104 5.09735 90 53 41
0.757949 -1.30348 2.23224 215 109 66
2.08256 2.77531 5.5972 103 59 48
-0.935566 3.8581 1.62193 146 108 93
2.41853 3.75422 3.81637 162 118 96
-1.68859 4.85896 7.48713 70 41 35
1.00074 0.623568 5.92679 139 96 77
1.05691 4.27114 3.95709 122 60 43
-1.88902 3.72136 2.02259 188 172 130
0.60439 3.81443 1.37619 167 168 150
-0.906187 3.93614 1.89735 157 139 109
-0.689644 4.14835 1.16803 154 131 104
0.264136 -0.433597 5.65405 125 72 62
-0.595757 -0.872681 2.78287 255 217 190
2.63729 3.97178 6.23302 243 237 212
1.09615 4.50563 1.39997 147 255 255
1.17052 0.707977 6.2284 132 92 73
1.5497 -0.823468 2.12674 239 141 119
-1.24695 4.99027 1.33361 211 162 122
-2.44742 1.30188 2.80964 179 134 109
-2.33557 1.47251 2.59412 214 181 150
-2.34341 1.50027 2.57513 224 192 161
-0.978349 -0.923885 2.57669 255 235 186
-3.11592 2.57526 6.49245 98 43 29
-1.95194 3.57588 2.37934 157 120 93
1.7463 3.62803 5.83912 109 68 55
-5.67852 6.14622 3.87967 255 255 255
2.53153 3.56301 2.99944 165 110 97
-6.00957 5.3 2.05716 76 31 0
-2.1092 0.500016 2.6464 132 75 59
1.8258 3.71585 6.24923 255 255 241
-0.969265 4.45599 1.69469 141 150 139
-6.31455 5.35466 2.61181 98 49 29
-2.90118 2.09833 5.35802 96 60 46
-0.887774 -0.288078 2.79225 227 142 113
-6.41968 5.18717 2.32523 100 31 16
1.99729 1.29886 5.17648 109 65 51
-3.4519 2.66221 3.19678 148 121 132
1.70178 3.49305 5.5026 104 56 45
-1.94579 3.54821 2.04955 197 155 128
-3.2677 2.82033 5.11387 93 59 44
0.359904 -0.613911 2.85552 249 157 122
-5.08795 -1.02764 4.81032 249 253 235
2.18629 2.4109 3.5597 255 255 255
1.71209 0.991499 5.20307 115 108 91
1.35165 0.63264 5.51394 97 56 44
-2.76876 1.75303 2.74207 140 102 85
-0.746266 0.125149 6.00771 107 59 44
-0.809229 -0.355629 2.8144 239 156 126
-1.83435 3.78819 2.06391 172 236 166
-3.78241 3.85667 8.01517 255 234 192
0.460491 -0.527939 2.94135 237 160 127
-2.83125 2.56542 3.17053 135 77 57
2.2012 2.45076 3.55909 255 255 255
2.13937 2.4132 3.67593 133 88 72
-2.41194 3.66032 2.73663 120 76 66
2.09624 1.40044 4.34829 134 84 71
-0.638892 -0.835796 5.28701 142 94 85
-0.890733 4.05078 1.12212 148 120 103
-7.13319 -0.68058 3.81474 103 32 15
2.13166 0.936825 4.57697 149 123 96
2.46674 2.65021 4.00744 122 73 53
2.19244 2.756 5.07462 106 60 48
-0.229162 4.8661 3.97557 141 83 68
-0.0341989 4.34271 2.55843 155 147 126
1.55621 0.649257 5.73302 111 68 55
0.0567958 5.53764 7.34328 250 116 74
-0.0967214 4.34521 1.61038 100 86 64
-3.07343 1.30115 8.50269 169 137 130
-0.427941 4.80847 6.15865 82 39 31
2.81036 3.08383 3.98755 104 42 35
0.447569 5.7511 4.85079 200 125 91
0.200805 -0.849621 4.58887 140 89 69
-3.09769 1.66757 4.29718 205 184 137
-0.159358 -0.618644 5.32315 102 53 44
-8.38029 3.11551 3.27032 78 22 14
1.43141 3.90728 5.59898 107 60 52
0.37086 1.58458 9.46096 81 49 40
2.70241 2.85199 7.58893 255 255 255
2.29648 1.95059 4.20209 144 82 66
2.20353 3.23121 6.49799 0 0 0
-0.145278 -0.42658 4.68839 137 95 74
-0.167501 5.17726 7.42793 255 155 113
-0.297251 -0.477461 5.81756 112 71 56
2.28968 2.56078 5.59251 107 62 47
1.66013 3.73597 3.29393 128 68 52
-2.63058 1.39548 5.20981 94 55 33
2.20175 2.46026 3.94102 134 91 70
2.47041 4.41963 4.94706 255 255 255
2.02046 -0.136258 2.25715 222 159 130
2.18806 0.825143 3.61252 255 175 138
1.9514 1.93953 2.9152 181 97 89
2.1857 2.06454 3.07821 239 180 173
2.0093 1.94196 2.93714 216 171 163
1.9961 1.92396 2.86831 247 214 203
1.84182 1.99431 2.69003 226 176 171
-0.887878 -1.05139 4.86373 137 68 53
-1.37805 -0.762997 2.52595 255 230 255
-1.30478 -0.82422 2.44961 235 167 147
1.90467 0.305458 4.5927 226 135 96
1.469 -0.591791 2.55212 255 173 154
2.40287 1.01463 2.82739 244 219 202
0.769379 -0.213068 2.69589 217 127 102
-6.02524 5.10792 1.93324 239 225 197
0.531594 6.07814 7.15208 255 255 255
2.25125 0.457772 2.59595 246 170 137
2.02925 2.87456 5.81185 86 50 42
2.18098 2.26188 5.50992 103 56 44
1.21842 -0.88159 2.57371 255 167 148
2.8946 2.90733 4.22089 255 255 255
-5.84658 5.22337 2.01611 116 48 33
2.40789 2.26578 4.36321 255 255 255
-0.837465 -0.487063 2.74897 255 230 198
-5.08745 -0.923281 4.92158 157 69 48
0.224215 -0.808195 2.61529 248 180 145
-2.82253 0.936508 6.89489 255 255 255
1.67865 -0.684969 2.00415 252 149 112
-6.29653 4.9935 3.56476 232 230 212
2.19817 2.37361 3.69889 132 91 71
1.51372 -0.806591 2.31239 220 95 60
-3.89188 2.98381 3.54175 157 128 110
2.26847 2.24724 4.012 136 89 71
2.05206 2.59658 5.24731 104 58 49
0.833952 0.811992 5.23507 115 64 55
-0.273301 5.55993 8.22454 255 162 131
2.78952 2.87703 7.449 255 255 255
1.59633 -0.849681 2.12192 255 173 141
-2.64006 3.78288 2.46853 101 50 37
2.65733 3.30822 7.45862 255 255 255
0.0548339 4.69075 1.6647 154 205 191
-0.702772 -0.452034 2.79243 253 156 126
2.50923 2.17345 3.81717 142 98 77
-2.84548 1.1461 4.7459 145 104 66
-1.68898 3.66264 1.89092 221 220 197
1.36066 3.9266 1.64643 161 185 176
2.46213 2.53564 3.68857 133 85 70
1.72881 0.869538 4.78173 123 68 57
2.23656 2.54025 3.81031 135 93 76
-0.477325 4.72981 3.86917 130 81 63
1.8574 1.84046 2.79113 186 111 94
-0.967578 5.30331 6.9774 53 37 35
2.13209 0.883531 3.45158 202 161 128
-3.51948 3.70156 6.9212 15 19 18
2.35822 2.51025 4.99847 141 99 84
1.96595 0.861352 3.05432 184 119 102
0.469877 5.92278 4.55548 255 255 255
-4.59368 5.37279 1.5194 123 50 32
1.29141 -0.529171 2.64368 241 117 117
0.355912 -1.21765 2.26915 238 142 104
-1.37843 5.18708 7.33698 81 42 33
2.10463 2.36918 4.07083 138 87 68
-0.796649 4.535 1.69028 144 152 140
2.34361 1.97403 5.02242 149 105 91
-0.807297 -0.294605 6.02671 110 67 54
2.04849 3.1391 5.426 102 50 41
1.85038 -0.490614 2.59521 224 151 126
-3.84339 3.08085 7.12823 255 226 187
-2.69334 1.74864 3.91355 129 89 54
-1.63888 5.0989 6.7398 72 39 35
-0.188054 -0.361269 4.68561 134 75 59
-0.487651 -0.380839 5.11962 114 72 58
0.535898 4.30633 3.38171 155 97 82
2.11247 1.40193 4.01496 145 93 74
-0.811231 -0.963086 5.08185 159 171 141
0.21305 4.2654 1.6917 128 66 53
1.5245 4.24796 6.99847 62 41 36
1.22721 3.91365 1.56909 131 62 52
0.62484 -0.893827 4.558 156 99 76
-2.78489 3.1518 3.90647 78 47 39
-0.861878 4.86111 3.72407 125 65 48
-1.23822 3.72091 1.10597 222 254 214
0.997323 -0.415628 3.44296 191 90 59
-1.01418 -0.362493 2.72415 255 187 158
-2.91664 2.12109 5.24327 103 60 42
1.06118 5.4358 8.5748 255 156 100
1.21824 0.0447883 3.13176 191 139 111
-2.47915 1.73621 3.08631 132 98 75
2.0799 2.12981 4.3166 135 86 70
-3.31429 2.56925 5.64709 89 49 44
0.284236 1.5464 9.44606 63 40 30
-0.280934 -0.686359 4.4326 148 87 74
0.899191 -0.559794 2.71471 255 162 131
-2.68767 0.932479 6.00705 120 86 70
1.95909 0.863114 4.23492 138 87 70
2.12916 3.55522 5.15315 91 57 51
-1.19662 5.39108 7.65412 68 31 28
0.38654 4.95212 6.81641 54 37 31
2.09905 3.38809 5.02335 124 77 60
-0.868319 -0.430819 2.7454 245 180 146
1.12868 -0.608241 3.06834 227 56 37
-1.09133 4.43376 2.44839 228 255 253
-1.2938 4.37641 3.2794 203 255 236
1.12757 4.46766 4.20977 255 255 239
-1.35073 -0.920114 2.45724 247 148 132
-1.51917 -0.808846 2.4069 255 255 221
0.741242 -1.35427 1.71347 195 105 76
2.25006 2.35495 6.38845 255 255 255
2.00858 -0.156959 3.20777 255 255 255
2.23002 1.63761 4.14861 141 88 70
-2.09222 4.06198 2.03356 233 255 255
1.44843 -0.881281 2.29102 255 213 200
-6.06716 5.56811 3.33955 241 234 202
-3.69055 2.18591 4.98109 241 177 178
0.838131 6.15413 7.10449 255 255 255
-5.65447 6.11161 3.87664 255 255 255
1.47202 4.13413 4.75311 98 36 29
2.11984 3.08405 6.17963 87 51 44
1.94205 -0.431502 1.90088 217 112 80
-6.10464 5.09698 3.62148 250 255 254
-1.00676 0.214674 6.05855 255 255 255
2.18105 0.261741 4.46227 202 215 163
2.11175 -0.00688212 3.01037 255 255 255
-6.08158 5.09177 3.69058 255 255 255
-4.90794 -1.05826 5.10852 152 72 52
-2.9629 1.45428 4.92902 103 63 34
-5.22954 -0.90992 4.85245 255 255 255
-2.43314 2.1812 3.10386 96 58 44
1.03717 -0.262333 2.83757 210 136 115
2.29913 3.66479 6.49341 107 72 68
0.0298395 -0.444372 2.80278 234 155 129
-0.46519 -0.499382 2.71862 236 140 109
2.03422 -0.105183 3.08935 255 255 255
-6.33322 5.02136 3.59899 243 241 227
0.463975 -0.485046 2.94008 229 129 101
-4.3947 3.15612 4.79732 146 131 99
-2.74662 2.34646 2.39154 159 104 58
0.962612 -1.00623 2.37153 212 133 122
-1.24531 5.10042 6.48196 68 43 37
2.29212 2.45907 3.61329 255 255 255
-1.67778 2.84761 2.08684 162 133 93
-5.0316 -1.05168 4.82389 137 87 65
-0.907083 5.14687 6.33038 71 33 25
2.15712 3.71931 5.38701 164 134 107
1.62057 -0.169195 2.7146 177 90 63
3.08065 3.78194 3.35187 235 165 138
-2.34438 1.57304 3.07238 130 77 74
-2.06285 3.2409 2.18491 156 121 95
-3.33402 3.13804 5.21613 89 57 48
-2.49254 0.977154 4.58846 81 39 34
-2.50547 1.08014 4.8625 110 75 44
2.24595 1.31255 3.08657 167 97 73
0.747069 -0.400569 2.81059 174 118 95
-0.802912 -0.395709 2.84153 135 60 44
1.73702 2.33983 6.92972 78 46 40
2.17296 2.38412 3.67389 142 96 78
-3.82475 2.61312 4.14918 250 173 143
0.394082 -0.408751 2.967 151 74 69
1.70093 3.32319 1.46112 111 86 69
-1.88656 -0.0651915 4.54676 147 93 63
-0.494973 -0.814779 4.33105 149 91 78
0.49243 4.04352 1.72726 151 83 62
2.01959 1.75015 4.2409 150 142 130
2.37348 0.991647 3.85227 115 67 52
0.22388 4.38949 1.59201 113 87 71
2.38929 3.45989 4.7131 131 81 67
1.30522 4.3874 8.15942 52 37 37
2.24615 4.38032 5.77991 165 102 81
0.662859 -0.661697 5.34011 124 66 50
-0.15581 -0.938506 4.46443 172 105 94
1.93283 3.68818 3.68668 137 70 56
-0.934644 4.83907 1.69083 0 0 0
0.654258 4.27827 1.66207 93 49 50
-0.449977 -0.55949 2.81682 252 157 119
0.786687 0.862735 10.7769 0 0 0
2.56126 3.01312 8.95492 255 255 245
0.908357 4.57398 7.50678 58 30 25
0.506331 5.32879 6.75422 51 36 34
-2.70862 1.80534 5.48973 101 64 45
1.07974 4.50706 3.73425 129 90 69
1.31346 4.0131 3.00288 113 0 0
2.01807 1.41709 4.68746 104 50 42
1.71371 4.01044 2.91861 148 105 84
2.23678 2.1642 4.14505 133 82 62
1.73586 0.873409 4.642 135 93 77
2.3882 3.26893 3.50187 119 62 55
2.43867 3.24907 3.4164 96 55 36
1.8702 0.407163 2.90242 221 124 113
2.5473 1.68933 3.1886 156 67 55
2.18098 2.42931 3.49975 143 95 73
-7.27978 4.26443 2.54239 89 26 10
0.321857 0.851008 9.42207 104 51 37
-0.0880628 -0.772164 5.16495 137 79 62
-1.02741 -0.711964 2.63772 245 175 146
-3.6015 3.26288 6.75341 0 0 0
2.38407 2.14108 6.4116 94 57 51
-1.941 4.04634 1.97557 43 0 0
0.281841 4.99677 5.04463 105 57 46
-0.473054 -0.758473 2.6235 253 205 170
3.64729 3.59244 7.11108 255 255 255
1.75787 1.21428 5.25809 119 73 59
-4.90609 2.84786 5.60308 255 255 226
-2.94753 2.5805 5.16572 99 59 42
-2.56644 1.39157 2.92095 191 141 115
0.702104 4.18266 4.60837 99 60 49
1.94297 0.725464 3.51282 204 151 114
-1.2254 5.04676 5.99677 86 47 37
-1.96957 0.25081 2.97587 197 161 137
2.2914 2.8095 4.27374 142 97 78
-2.71501 1.11696 3.87844 203 177 108
1.27091 3.79436 4.59576 109 54 43
2.12096 3.84617 3.768 132 74 66
0.099583 2.37422 12.7703 29 44 47
-1.44656 3.24083 2.1751 157 129 105
-1.85192 2.86465 2.09499 232 190 140
-1.94094 2.888 2.00125 237 201 147
-1.31998 3.19468 1.51087 226 177 136
-1.24246 3.12645 1.74076 211 162 128
-1.25692 3.00235 1.78252 215 175 141
-1.41195 3.17654 1.69286 233 223 174
-1.67093 3.19815 2.36983 139 91 68
-1.50728 -0.82673 2.38095 243 255 221
1.6375 -0.349343 1.90216 255 226 200
-1.58832 0.585517 6.47798 83 48 38
0.413551 -0.757356 3.39196 255 255 255
2.07173 0.183119 2.90635 255 255 255
-2.88798 2.41793 4.63637 106 67 49
-1.19543 0.186189 6.25413 145 84 67
-1.2748 0.255244 6.01895 105 66 55
0.710455 -0.324683 3.05352 176 106 89
2.10456 -0.121267 3.00372 255 255 255
1.29158 -0.87316 2.33073 207 75 51
2.25941 2.81422 4.27503 140 95 77
0.521644 -0.944516 3.08491 255 255 255
-3.90401 2.8798 3.54885 157 129 122
0.394211 0.669526 6.80075 87 51 41
-0.942144 -0.788403 2.61594 255 169 139
-3.88764 3.32498 5.85425 0 0 0
0.473634 0.841362 7.46571 87 43 33
3.0447 2.41546 4.1773 255 255 255
-2.51789 2.85068 2.17858 162 105 98
-2.33225 0.908037 2.83404 183 147 121
2.494 3.09438 5.2106 102 60 44
-1.08871 -0.253187 2.73316 255 172 143
1.37404 3.94915 3.73266 134 85 68
0.736146 -0.337483 2.74154 242 155 114
0.793728 0.77177 5.21858 100 59 47
2.21977 2.46696 3.98796 133 85 70
1.34466 0.611595 5.51026 102 63 50
2.21027 0.747121 3.44981 214 172 130
0.146979 -0.740329 2.77043 255 173 151
-3.42489 2.5229 8.09152 153 109 98
-2.78488 2.09029 3.91568 130 73 63
1.73766 -0.330033 2.54525 232 125 104
2.15624 0.0248537 3.07823 255 255 255
-0.958426 0.220819 6.02025 255 255 255
-1.00735 0.266945 5.91665 255 255 255
0.142655 -0.458402 2.8282 241 162 135
-1.71355 2.89524 2.03781 182 128 80
-3.34401 3.0898 5.37189 81 43 33
-0.579591 -0.46567 2.77885 245 161 124
1.90685 1.25471 4.52537 129 96 75
-2.68166 1.55919 6.299 84 48 30
-1.20263 5.21869 6.73239 73 43 33
-3.38702 3.71381 5.54693 83 59 51
1.80255 2.67613 6.49529 96 55 43
-1.9867 3.54039 2.41887 240 188 136
-1.30394 3.22234 1.23201 215 152 138
-1.17812 2.94221 1.67199 204 153 113
-1.22432 4.01337 2.37814 145 93 73
0.417841 -0.873212 2.68634 227 192 147
2.60011 2.81863 5.18753 116 69 51
-0.849847 4.04223 2.56862 129 79 65
-2.82095 1.22638 9.79607 255 255 255
0.654319 -1.06795 2.39545 254 167 141
-0.912928 3.9541 1.27378 134 134 118
2.3828 3.51938 4.7841 64 9 0
-3.25172 2.70175 4.35605 102 63 38
2.07728 1.76569 4.84226 138 87 71
-0.60996 5.51163 8.39951 61 37 31
-1.13468 5.18273 7.40423 59 34 26
1.30737 3.76596 1.91711 174 170 149
-1.91986 -0.0134471 4.55241 127 86 61
0.308666 0.650446 9.71133 30 13 11
-1.61833 0.85169 7.08682 74 35 25
1.69819 0.931784 4.7453 119 66 54
1.99139 1.87963 4.6465 140 90 71
-2.21193 0.936186 5.7106 101 61 48
1.81495 1.05475 4.63302 115 63 51
-3.11359 1.91245 4.50983 90 43 12
2.15502 2.37132 4.17024 136 90 81
-2.74543 0.911435 5.04387 71 28 29
1.46757 3.51393 4.83434 106 54 43
2.12649 0.966706 3.08293 178 119 104
-4.08941 3.15993 3.5523 195 187 155
-3.1736 2.0702 4.38709 100 63 44
1.51126 0.320093 3.06984 204 136 104
0.639152 3.98854 1.71531 152 102 78
-0.533058 4.02089 2.44178 161 139 114
-3.98333 3.09436 3.29987 144 136 121
1.78227 1.60511 4.87144 131 86 72
2.72932 3.28631 5.1098 80 46 36
-3.30176 2.69114 4.18246 96 63 49
-0.914681 5.07381 3.79847 195 179 149
-3.97817 2.41986 5.40185 195 219 200
1.721 4.17288 5.00787 59 4 1
-3.30883 2.60405 3.98436 80 56 45
-1.49569 4.06024 1.73352 35 37 111
1.96049 1.31379 4.50769 139 94 79
1.86459 1.24357 4.45404 133 85 70
1.03633 -0.555359 2.67525 251 180 141
1.17989 3.12916 13.0817 0 0 0
1.60929 0.407658 5.35898 112 69 53
-1.29832 4.20647 1.22542 214 151 127
-2.54385 0.545117 5.82733 96 56 40
2.41329 2.83602 3.98701 132 85 67
-3.76284 3.35275 3.24009 79 44 28
-2.64802 1.17609 3.5943 237 141 121
-2.94744 3.66052 6.89877 78 47 37
-1.81603 0.761198 7.13401 81 47 36
-3.54314 2.56413 4.14876 156 141 126
1.18279 4.0834 6.5873 70 46 39
1.91835 2.06909 5.85538 101 53 46
1.80626 -0.221294 2.76093 189 126 107
1.55909 2.63759 7.56938 74 41 34
0.555586 3.98444 1.8325 160 139 116
0.590392 4.30911 2.6292 148 141 120
2.12678 2.25111 4.07808 145 122 108
-3.87754 3.01107 3.40932 143 115 95
-3.0313 2.61177 6.28473 70 46 34
2.01259 2.03658 4.275 140 92 69
0.787905 4.30319 3.57871 127 72 57
1.72917 0.306033 4.72901 110 63 55
-1.53946 -0.412609 3.9616 150 74 52
1.69577 0.86044 4.40209 134 82 66
-1.90971 3.717 2.59358 242 207 130
-2.31306 2.43232 2.44386 112 68 56
0.985557 3.35944 1.58532 233 222 182
1.07679 3.41556 1.5097 246 246 204
0.86513 3.1298 1.59094 227 207 161
1.03848 3.36771 1.48756 233 233 193
0.984953 3.38083 1.48465 236 218 181
1.03744 3.3894 1.5054 231 230 189
-1.17014 4.2652 2.36582 157 170 157
1.03303 3.39325 1.49597 236 236 205
1.03435 3.58409 1.49881 231 230 196
1.05045 3.38181 1.54611 241 244 203
1.05842 3.27806 1.59409 228 222 180
1.05919 3.3672 1.60389 235 237 200
1.10311 3.28887 1.59283 231 225 187
1.10384 3.31179 1.59257 236 239 203
1.04376 3.49916 1.50323 251 239 207
1.07033 3.39615 1.55859 249 255 218
1.10663 3.31579 1.59585 234 243 203
1.04473 3.38473 1.5525 240 241 202
1.08614 3.38929 1.60742 246 255 219
1.07225 3.14922 1.596 223 213 168
1.04088 3.35638 1.62482 233 236 198
1.07052 3.36058 1.62592 235 241 204
1.22789 3.22369 1.79693 235 242 206
1.11203 3.30855 1.60277 242 247 209
1.05911 3.26978 1.61423 226 227 184
1.24272 3.20901 1.82526 230 240 197
1.05728 3.20939 1.62455 203 170 134
1.22301 3.22488 1.80909 230 233 193
-1.37477 4.10567 2.59247 193 137 113
1.26067 3.26733 1.84579 236 245 202
1.22018 3.20916 1.82315 228 228 179
1.00538 3.18856 1.75369 219 223 176
1.26401 3.24781 1.83402 241 250 205
1.21948 3.23529 1.78819 232 224 170
0.965987 3.20269 1.63476 218 218 167
0.975428 3.2452 1.60605 227 229 179
1.15714 3.18132 1.98373 225 220 169
1.15505 3.19498 1.96148 227 224 169
1.24634 3.2938 1.78788 233 241 198
1.12904 3.15246 2.01166 196 151 102
1.31125 3.26068 2.08963 255 205 136
1.19762 3.14067 2.08204 226 178 116
1.35657 3.10349 2.14034 252 235 161
1.25207 3.109 2.10227 237 237 182
1.41159 3.05868 2.09039 236 229 172
2.41412 1.33433 6.08993 95 94 81
-0.452308 -1.32013 2.2395 211 188 158
2.34417 0.951316 2.92039 255 253 231
1.68776 4.35523 5.25278 91 43 37
0.211567 5.18341 7.85519 65 34 28
1.79558 -0.240906 2.59485 255 255 255
1.89828 0.624398 2.39164 246 196 164
3.11952 3.23211 5.75152 255 255 255
2.25316 1.55917 3.97162 143 97 75
-2.78615 1.94906 4.08587 116 76 51
2.56009 1.16635 2.78351 221 166 142
2.43668 1.86171 3.19456 198 109 84
0.0462549 -1.08229 2.55965 255 255 255
0.6316 -0.880675 2.5928 255 255 255
-0.934591 0.269529 5.88259 99 56 44
-2.13214 3.93338 2.367 41 0 0
0.565933 -0.941732 2.74096 252 163 132
-1.3049 3.912 2.13986 173 146 111
1.5087 -0.578626 2.62811 204 127 118
2.10488 0.618076 2.85416 160 95 78
0.532943 -0.966614 2.58899 255 255 255
-0.880391 5.12788 6.68211 74 38 31
1.79437 -0.765271 2.25096 217 115 75
2.35264 3.11183 6.06092 89 46 26
-2.64219 2.68185 3.30773 146 103 75
-0.755749 -0.44948 2.73455 255 153 123
-4.14251 3.00372 4.6681 152 129 101
-0.0752412 4.38191 1.61059 108 63 61
-1.81271 3.75955 1.99921 194 215 194
0.554588 4.50643 5.31483 102 61 46
-2.73992 1.32998 7.47653 53 31 23
-1.90377 3.52255 2.0122 201 169 133
0.753952 3.64791 1.32348 161 159 141
1.98752 1.71188 5.7407 97 53 42
1.21842 -0.246932 2.69188 252 179 144
0.990546 0.899158 5.56069 147 101 80
-0.622562 4.03837 2.58738 167 197 182
0.869306 0.936606 5.17398 111 66 52
1.08226 1.01596 5.59646 130 81 67
-2.21113 1.73107 2.30994 162 132 100
1.68845 0.982293 4.7273 114 69 59
0.830296 0.764298 5.29618 194 123 88
-0.852142 -0.433447 2.74605 253 242 204
-2.52089 1.83561 2.28967 167 121 100
-1.82937 3.78721 1.852 212 255 214
-2.46763 2.0822 2.23597 165 142 111
1.84975 0.789159 3.0846 183 118 100
-3.7273 3.37789 7.58764 46 25 22
0.0444283 4.17341 1.68891 137 79 59
2.23566 1.67626 4.53089 154 155 138
2.16125 2.58492 4.84767 108 62 49
2.73855 1.25482 2.70186 197 135 112
-1.59219 3.36777 2.44546 144 100 75
-0.599222 -0.454569 2.80994 245 155 121
-1.32257 3.66101 2.63585 149 83 67
-1.91145 3.00025 2.16027 179 144 107
0.9007 -0.961604 2.56886 255 255 255
1.02637 -0.298965 3.15065 159 137 91
2.02617 1.81232 4.21415 148 134 120
2.25672 3.39647 5.27284 142 83 67
-2.93648 1.64838 7.55656 83 42 33
0.853415 4.0984 3.50083 130 88 70
-0.989167 4.17649 1.91822 179 138 110
-3.83269 3.21457 6.27264 113 76 63
2.23736 1.76111 4.47089 116 90 75
-1.7372 3.30102 2.36152 246 226 158
-2.1214 3.32359 2.15528 230 198 140
-1.64476 3.23813 2.5929 141 93 75
-1.46291 2.93668 1.9006 237 223 159
-1.13148 -0.692494 2.53636 255 255 255
-2.22421 0.0032855 5.00098 82 43 24
-1.3412 0.52251 6.93732 255 255 255
-3.25209 3.27546 4.07349 56 26 0
1.13004 0.913117 5.87346 124 72 62
-2.3261 2.91779 2.31998 168 120 102
0.703466 -0.443497 2.82928 251 152 119
-1.44219 3.43295 1.66026 200 169 139
-1.00755 3.93745 2.70141 140 104 89
1.0334 -0.435037 2.65828 235 196 163
-3.29516 1.84124 6.50675 104 58 38
1.74533 1.42891 5.12119 119 72 59
-3.45196 2.64909 4.09344 103 71 40
1.24252 1.55777 3.61003 128 86 73
2.10191 2.2438 4.04939 125 97 86
1.00361 3.37749 1.4948 231 225 183
0.900001 3.3076 1.59088 223 197 153
1.00337 3.39322 1.50003 232 228 187
1.14139 3.48687 1.51592 234 238 207
0.972575 3.2881 1.71515 183 156 113
1.08238 3.19186 2.03303 175 113 77
2.76618 2.81787 3.82106 122 67 56
1.63318 -0.0264431 2.74063 210 94 63
0.114869 4.48971 2.31572 149 147 123
-2.96162 3.00382 3.70706 128 85 69
0.460012 4.40459 4.50977 97 50 41
1.78985 0.605286 3.21389 215 154 128
1.84879 3.80965 5.14007 98 56 48
0.0430668 4.11425 2.58097 143 132 105
1.44384 3.4367 1.64083 146 89 71
2.36195 1.38264 3.40324 191 108 86
-1.27898 3.84886 2.2174 177 157 113
-0.48491 5.20495 8.84917 52 27 22
-2.61302 1.4735 3.74608 114 70 48
-2.40918 1.29083 3.27984 183 122 89
2.42002 1.09057 6.30746 158 191 181
1.90914 1.14276 5.26191 124 121 111
1.98982 0.327986 4.50247 207 121 104
-3.05008 3.89667 2.65832 156 135 104
-0.467148 -0.937034 2.57627 242 134 96
-0.821376 4.47406 0.96003 134 201 187
-1.71841 3.52625 1.76178 205 212 185
1.49767 4.00684 2.13146 122 64 54
-0.086656 4.32491 1.68504 144 168 149
2.25334 3.93026 3.73587 138 80 69
1.12602 4.35754 3.08882 115 54 45
-2.71132 2.41968 2.37635 135 74 42
1.64576 3.4875 5.55682 101 54 44
0.831198 4.73892 4.86551 87 42 31
1.28859 3.97108 2.49037 165 154 139
0.535756 4.26633 3.33643 137 91 74
-2.95533 1.09566 4.60642 50 29 0
-1.24703 4.25859 1.27378 202 135 110
-1.05614 3.66197 1.54284 150 104 85
-4.29539 3.21242 4.94305 49 0 0
1.43316 1.52229 3.63171 132 109 88
-0.0539185 -0.600556 2.82091 248 178 150
1.11153 4.16465 4.61306 115 62 46
0.621422 -0.74561 4.98961 93 51 50
-2.15457 0.842299 5.93442 94 52 38
-0.817822 -0.592141 5.3336 101 62 48
2.3175 3.6818 4.15599 138 91 73
2.31693 1.67686 3.12507 120 71 56
1.62181 1.07095 4.55065 119 71 63
-2.1116 0.394039 3.06759 160 84 55
0.966641 3.38467 1.53686 234 201 164
-1.34297 4.25649 3.30966 142 109 92
-2.99234 3.64255 3.48129 116 68 60
-0.710279 4.57333 1.80161 149 127 114
-0.871261 5.42335 7.44001 86 47 35
2.24238 3.52096 2.25701 143 71 59
2.7996 2.99485 2.63313 119 32 32
2.67198 1.02724 2.70033 159 86 66
3.55266 3.34811 4.26921 159 143 107
1.65606 4.01161 3.70788 145 78 62
-2.49293 1.51805 5.67141 101 59 39
2.80839 3.07069 2.30193 106 31 22
1.75177 3.00668 1.71378 150 85 69
2.44481 3.30541 3.52558 167 203 170
-1.22405 3.87411 2.0847 158 145 122
-0.709096 4.67607 1.03242 113 161 154
-1.51121 3.51492 1.66666 251 194 150
-1.95872 0.163523 2.83484 189 183 158
2.05558 1.10654 3.16967 177 113 96
2.85146 2.8689 3.85536 130 68 62
-3.22356 4.16837 6.64566 0 0 0
2.16475 1.67512 3.04915 161 97 78
0.44809 4.35397 2.2815 169 178 155
2.45815 1.4636 2.64731 152 86 68
-2.65696 2.19985 4.59824 97 60 43
0.884128 -0.212442 2.61702 247 147 104
1.39403 1.05117 6.46911 117 62 50
2.15118 3.295 5.00335 92 55 47
0.191039 4.23409 3.42814 127 76 56
1.07656 3.90653 3.07411 139 77 61
-0.980494 3.95309 2.24919 156 141 97
2.34834 3.07859 7.97103 128 79 68
-3.21725 3.10001 3.9385 103 62 49
2.05759 1.38687 2.98965 137 77 61
-1.98942 0.424393 2.59684 229 143 123
1.67489 0.666008 4.13017 110 65 60
1.66581 0.960516 4.4671 140 86 72
-0.225165 -0.666177 5.20786 103 64 53
1.94351 0.695563 2.92848 177 116 98
-2.39679 1.35915 5.18457 112 64 48
-1.4654 0.34062 5.96694 96 57 44
-3.55558 3.19814 4.06935 52 21 15
-0.110845 4.25493 1.60839 151 97 81
-0.200922 -0.507492 5.16919 114 68 55
2.53837 1.38891 2.88148 140 66 48
-1.3235 3.8716 1.97586 165 137 106
0.896562 -0.312651 2.85134 255 255 227
-2.27898 0.694467 2.77656 190 122 89
0.959822 3.32693 1.60866 228 197 160
-1.01801 -0.938494 2.47659 255 255 242
2.36383 1.00285 2.86383 255 215 204
-0.693239 -0.626237 2.63994 253 186 163
0.928002 4.31388 6.26819 88 54 43
1.69194 2.82934 5.89868 87 46 39
1.92055 2.53878 6.67942 97 55 46
-3.11032 2.87921 6.27045 83 52 41
-3.34518 2.22507 5.59968 105 53 37
2.37121 0.850132 2.8196 255 236 211
-1.21285 0.283484 6.14429 88 47 35
0.615207 0.740137 8.79973 141 66 51
-3.14748 3.27814 3.88981 100 64 56
1.24952 -0.848984 2.39161 255 114 98
-3.00869 2.51421 5.63297 98 60 45
-0.831842 -0.0415305 6.51907 255 237 212
1.28363 -1.15104 1.84828 208 124 92
-2.15526 0.461758 2.97065 189 132 109
2.71301 1.03754 2.62522 206 131 105
1.74315 3.42687 1.58652 153 107 87
-1.40901 5.04523 6.76948 90 44 38
1.89841 3.29701 5.11634 111 58 48
1.83794 0.526402 2.19538 247 212 179
0.616208 -0.816176 2.63455 255 255 255
-0.1364 0.495361 8.674 209 117 100
-0.541049 -0.384303 2.83669 115 56 25
2.27849 2.88464 5.26989 100 56 49
0.414751 4.78157 7.06433 83 47 41
-2.71248 0.56675 3.90413 124 83 50
-3.16947 2.54721 4.24155 139 75 57
-1.28328 4.39429 1.95735 154 217 242
1.52258 -0.515274 2.56192 241 123 95
-3.68179 3.03121 5.65166 127 90 71
-1.21013 -0.249454 5.4234 97 57 47
-0.189096 4.44963 1.54619 31 31 0
1.8209 1.18191 5.1046 114 81 68
-0.35125 -0.549269 2.83566 255 163 126
3.13545 3.55315 2.62131 231 255 241
-2.39576 2.42412 3.01535 142 85 69
0.810873 3.88253 1.6266 157 83 63
2.29427 2.45693 3.67729 255 255 255
-1.47101 5.34141 7.10716 183 125 119
-0.962888 -0.259576 2.7176 131 64 38
-0.91452 4.21591 1.27765 142 101 97
-3.18594 2.90326 4.84555 78 51 42
0.939228 4.13149 5.75958 97 62 51
0.679326 4.42037 3.39513 97 27 15
2.52189 2.78074 2.3643 146 88 73
-0.863242 5.25256 8.14097 56 34 30
-0.799726 0.115735 6.00108 103 61 48
-0.0378062 4.27321 2.5525 151 157 129
-2.12849 3.94093 2.55039 164 107 92
1.80064 0.713398 5.48723 114 58 45
-0.0582241 4.25898 1.62988 92 90 74
-0.743973 4.47579 1.96871 152 163 148
1.66713 4.58263 4.29528 224 142 109
-0.658832 -0.925424 2.64218 254 182 144
-2.66727 0.946444 5.24462 106 75 46
2.13368 2.06993 3.063 235 173 157
2.00102 2.86314 5.71215 96 59 45
2.0419 2.63941 5.2381 105 64 52
-0.707957 -0.38827 2.81447 255 141 111
-2.77598 1.08129 4.7957 142 94 58
2.31555 2.61683 3.78127 133 87 72
2.0346 0.913443 3.05111 183 118 100
-3.21313 3.74245 4.72425 45 19 14
-0.185434 -0.499829 5.13444 116 68 57
2.07057 0.761847 3.96633 139 91 74
-3.17324 2.88417 7.37325 103 70 51
1.70636 2.9614 6.59484 79 45 42
0.980255 2.58568 9.37484 62 39 34
-2.78025 1.35686 4.37729 122 83 54
-0.691362 -0.37702 2.85367 112 45 23
-0.603231 4.82854 3.63237 160 109 80
2.34876 3.47969 4.59946 106 68 62
2.47879 2.94215 2.75363 177 123 92
-2.98526 1.78364 4.81983 125 78 42
-3.40008 2.85763 4.05808 81 45 35
2.28506 2.09042 3.33682 139 101 81
1.51908 3.82938 2.91965 140 96 73
1.81912 1.17839 5.30966 124 63 49
-3.10359 2.59658 4.49812 102 65 53
0.382187 4.42664 2.48304 153 153 130
-1.2483 3.60741 2.3337 155 119 95
-1.74572 3.44352 2.44536 255 223 152
-3.53732 3.29216 5.031 102 57 50
-1.45969 3.22038 1.60917 255 209 155
-1.59913 3.24189 2.46923 149 104 89
1.65836 -0.0367064 1.88889 249 221 193
-1.3385 0.353267 6.00676 102 63 50
-0.398976 4.71294 1.80213 126 219 195
-1.07001 -0.1332 2.38668 255 174 140
-2.83407 1.77456 4.31814 117 76 53
-2.76872 1.1931 4.89884 105 69 34
2.77853 2.64236 4.05248 255 255 255
-2.5406 2.51159 2.23924 167 110 97
-1.57714 -0.176782 2.9735 255 255 255
-1.25497 5.25642 6.72835 99 60 47
-3.01637 1.91235 4.8011 111 65 47
-1.22812 3.51595 1.67365 221 157 109
0.832928 0.786647 10.0374 0 0 0
-1.65772 -0.221958 4.05802 133 68 47
-0.742999 4.23843 1.1969 134 137 122
0.476754 4.98149 6.54628 81 44 34
-2.6211 1.96569 3.80899 113 73 55
1.19308 1.37914 7.06596 82 44 36
-4.32444 1.74172 6.25332 255 255 255
-2.9245 2.38595 4.25955 119 74 53
-2.62699 1.62466 3.95269 103 60 40
-0.933757 4.09167 1.33518 120 133 125
-1.37391 4.05469 1.6847 65 47 87
1.49732 -0.200081 2.63914 255 144 114
1.46884 0.0890483 3.30603 202 138 100
1.00457 3.89809 4.47562 104 59 50
1.83732 2.18292 3.99521 128 98 82
1.77847 0.635098 4.21478 129 78 62
1.8927 1.85173 4.59862 133 86 68
1.7236 0.868776 4.50363 139 80 67
0.999549 3.36894 1.57907 215 206 166
0.857568 3.34586 1.49691 226 203 158
1.02279 3.40629 1.49166 227 222 182
0.993113 3.40297 1.50333 232 212 175
0.995908 3.16278 1.77102 171 135 100
2.47527 2.13219 3.07182 177 125 105
-2.01985 3.82704 2.51427 53 0 0
1.06321 4.07954 5.22517 104 56 46
-2.95785 1.93672 5.79042 105 61 41
-0.800516 3.87811 2.54813 182 195 164
-1.2171 5.20999 7.28091 73 37 28
1.0381 4.07847 3.35933 134 85 67
-1.92235 3.10682 2.24167 227 207 155
-2.33337 2.21376 2.11969 130 76 44
-1.76681 3.87541 1.8782 38 39 84
-2.7959 3.12557 3.70834 124 83 71
0.156958 4.06101 2.55911 154 115 92
-1.56216 3.6541 2.35101 156 114 97
-0.258183 4.08499 2.04641 147 150 127
-2.21748 2.0642 3.35144 122 74 63
-1.04554 3.82653 1.31705 153 107 87
2.50812 1.4031 2.79498 136 77 62
1.3639 1.50796 3.82255 131 84 72
-2.77273 0.966385 4.62101 116 83 47
-2.63408 1.63086 5.47711 104 64 46
-0.419846 4.63086 1.68075 128 228 228
-1.49234 3.4878 1.70013 238 214 143
1.90024 3.36219 1.76323 95 17 21
2.44947 1.52288 2.72042 158 92 75
0.569778 4.61449 3.12921 108 50 37
-1.14841 -0.706545 2.58139 246 255 255
1.76904 1.15231 2.98795 139 72 60
1.73515 0.55123 4.15329 110 63 56
-1.67822 0.216428 5.84324 97 55 42
0.869562 3.37824 1.63385 218 184 146
2.80739 1.85724 2.81187 162 109 84
-1.15673 0.0683421 6.51943 164 115 96
1.62052 3.94824 3.81633 147 89 75
0.801863 -0.885454 2.51726 252 183 166
2.08238 0.97212 5.21942 110 62 52
-1.54067 3.73802 1.62698 174 112 115
-0.477368 5.24424 8.47946 52 29 24
-2.58989 1.92213 3.21896 155 104 87
-1.43266 3.69931 2.57589 150 89 71
0.933625 4.21656 6.95871 61 35 28
-2.89536 2.37682 6.11217 91 52 33
2.59631 3.47846 7.0153 255 255 255
-2.33053 0.0725526 4.36325 154 106 81
-2.18527 4.01871 2.9186 73 0 0
-1.53027 5.23119 8.04918 65 42 35
1.78599 3.22157 5.00611 106 60 49
-0.16702 -0.853781 4.41979 135 73 56
-1.43853 5.131 7.50824 47 34 32
-0.978036 4.10719 1.50826 121 96 79
-2.04247 0.170878 4.64478 123 82 58
1.6718 3.77086 5.18483 118 66 51
2.13043 3.33905 5.28715 126 63 49
-0.575408 -0.842642 5.79934 255 237 195
-0.548412 1.05516 10.8436 173 126 112
2.35438 1.27101 2.85049 159 88 69
1.47753 3.96117 2.60875 165 155 130
-0.0886766 4.40965 3.78704 157 86 62
-1.51314 4.97078 6.48153 72 44 39
-2.89941 1.09952 4.83766 62 24 33
-1.81555 3.01129 2.16834 255 244 181
-0.895695 5.27242 7.0601 87 52 40
-0.0758481 5.06306 7.72744 51 25 22
-1.18018 0.516851 6.5673 96 61 52
-1.57177 0.171067 2.34603 245 139 111
-0.232902 5.15884 7.9883 49 31 26
-2.73639 1.80151 6.42145 93 56 34
-2.24476 1.16089 3.45065 128 76 62
-0.159439 -0.901979 5.53813 83 56 51
-0.787516 -0.429628 5.74445 116 75 62
-3.12623 2.57011 6.5615 77 42 27
1.59309 3.25387 6.56671 84 46 36
2.00785 3.11738 1.78925 139 93 75
1.86674 3.22856 7.78066 68 35 25
-2.88224 2.09834 4.90436 86 48 32
-3.12874 0.660516 6.99101 255 255 255
0.963502 1.09665 5.20567 105 60 49
-1.20889 3.97123 2.09625 153 147 130
0.815982 5.22822 4.57357 227 182 138
-0.527923 4.16226 2.16185 150 130 101
-2.97829 2.49333 3.82098 115 78 56
-2.6943 2.3518 2.95544 120 81 60
-0.132451 4.59594 1.71275 161 230 213
1.38048 4.36295 4.19727 183 134 103
-3.53288 2.79232 4.9112 68 36 35
1.38306 4.19842 6.21443 87 60 45
-2.88515 2.72553 6.65507 67 38 28
2.07091 2.39839 4.6089 111 61 47
2.02933 3.44089 4.92083 110 59 49
-1.39082 3.15808 1.78043 210 187 158
0.177063 4.92007 5.98499 92 53 51
1.36364 -0.889632 2.39862 206 79 60
-0.12019 4.33332 2.21065 162 127 115
0.230166 -0.509411 5.18817 144 87 65
-1.63664 3.217 2.33957 111 75 60
0.670229 1.04874 1.8226 191 119 100
1.23075 -0.132301 2.64431 252 173 146
6.08039 4.51759 6.08594 249 255 255
1.84283 4.13738 5.36317 107 57 46
2.78354 1.56066 2.77382 145 76 53
1.71462 1.01659 4.19304 142 116 96
-1.769 -0.012604 4.65119 102 54 47
-1.3671 3.96252 2.03885 150 136 118
2.38332 3.32047 3.5495 132 80 64
-0.529145 -0.250006 5.52114 101 54 39
1.78244 1.78171 4.64683 138 88 72
1.74163 0.719655 3.13095 172 116 84
2.48227 0.762422 2.69482 181 110 104
1.43772 3.52556 2.1885 101 35 39
-2.31673 1.81741 2.93111 126 82 69
-4.16812 3.94688 4.63588 0 0 0
1.93673 1.70086 4.20331 138 97 78
0.132027 -0.51192 2.96187 255 165 132
0.377879 2.57398 13.2845 30 5 15
3.15547 3.45665 2.77628 255 255 255
5.2651 4.44752 5.53474 231 255 255
1.84745 2.40335 5.37976 95 53 43
0.137733 -1.00421 2.79422 255 255 255
-2.66845 0.534732 6.10278 124 97 100
-1.42004 -0.824912 2.46188 0 0 0
-1.33582 -0.659051 2.48423 244 154 123
-1.17108 0.0943477 6.35013 178 123 103
1.9331 2.15698 4.42726 119 72 54
1.93998 3.48229 5.05768 111 51 42
-1.32956 4.23601 2.49629 162 154 117
-2.16833 1.38682 8.6967 66 43 34
-1.18973 3.9792 2.60867 134 78 61
-1.27567 4.88773 6.71068 70 42 34
2.64818 3.39733 6.88673 255 255 255
-0.662058 -0.184873 5.93094 109 62 50
-0.741568 -0.668854 2.63382 255 198 161
-1.4395 3.5816 2.32893 150 125 100
1.98225 3.7381 2.80973 155 109 89
2.00437 0.678568 3.89473 125 70 54
-2.3141 1.31906 8.34976 72 49 40
0.499335 2.25001 10.0293 77 44 30
1.2591 3.73275 1.6329 158 95 78
2.19238 3.51424 4.39539 137 98 80
-2.16256 1.43567 8.43578 80 55 48
1.99867 3.36589 4.91756 97 60 50
-1.38357 3.63447 2.33961 179 124 95
2.22008 1.60913 3.6762 138 108 83
-0.142376 -0.916458 5.49525 255 193 156
2.28118 1.33404 2.73464 149 75 49
-2.44341 0.721627 4.12764 116 66 50
2.12324 1.5627 4.40666 137 94 83
-0.688141 -0.980817 4.6336 133 74 65
-2.15303 3.58075 2.39941 230 240 177
1.72191 0.937833 6.04867 108 55 40
-0.837265 4.68659 3.92161 110 65 49
-1.34605 5.11363 6.61117 69 46 39
0.224959 0.890571 8.21781 72 38 34
-1.83556 3.07089 2.2611 255 255 188
1.92507 2.04444 4.27705 129 85 65
-2.77878 2.23198 6.24305 88 51 33
-0.663925 4.65356 1.80921 137 182 172
-2.76171 1.95454 6.38528 97 64 42
-0.970059 0.421543 6.52161 100 60 50
1.34815 1.24054 3.43702 148 112 98
-0.800529 4.70112 5.6506 102 59 46
1.76891 3.29644 6.46225 75 38 33
2.03492 3.14813 1.72033 132 95 73
1.64394 3.89459 2.58674 154 168 132
-3.27607 0.58098 7.00671 255 255 255
-1.98116 3.6552 1.98869 227 230 182
-1.44337 3.82256 1.99681 150 132 127
1.78317 3.17682 5.69109 96 54 44
0.749503 0.912794 4.89413 106 57 42
-3.05752 2.42985 3.74603 152 102 87
-1.36965 3.79797 2.32164 153 124 108
-0.454617 4.45954 1.77091 137 208 175
-1.91578 3.1715 2.30118 245 247 173
2.37855 2.30656 3.3488 141 108 85
1.51795 3.40476 7.67912 70 39 32
1.26367 3.99289 3.26142 135 80 62
0.869889 1.03003 7.73388 106 52 37
-1.85586 0.859431 2.26882 136 24 19
1.17501 2.51362 9.03384 75 40 34
-0.530581 0.639312 9.28216 86 61 52
2.81772 2.9319 2.42608 101 0 0
-1.463 3.35018 1.80589 199 165 135
2.30525 3.07867 4.24547 128 80 63
0.0599196 4.42744 2.22951 147 148 139
0.826943 -0.258226 5.46784 155 104 92
0.870297 0.891307 1.71817 145 67 52
-3.17261 1.87997 3.90391 73 40 33
2.29977 3.25661 4.28458 123 63 52
1.32992 3.86157 2.72085 143 109 90
2.78759 1.53742 2.78503 140 71 49
1.58032 1.75368 4.30279 127 79 63
2.29061 3.23785 3.49718 116 74 60
-0.377935 -0.455391 5.18498 110 67 52
0.799881 4.77864 7.8769 52 29 27
1.38547 3.25027 1.54887 153 78 65
-0.0881891 4.40139 1.84308 138 208 191
1.91362 0.528133 2.94737 179 114 94
2.33919 1.79115 3.93085 143 94 76
1.4874 3.36629 2.0946 101 41 42
-0.933549 4.04652 2.69622 144 105 81
1.9217 1.83072 4.08311 135 93 75
-0.707598 4.01404 1.49957 149 103 86
-2.78474 1.80808 4.37322 107 58 38
1.92763 3.35654 4.22014 136 78 67
-2.65816 0.702398 5.61838 86 48 33
-0.64783 4.04234 2.084 161 136 120
-1.05147 4.66647 3.90113 100 60 47
-0.253672 3.91488 2.12906 255 172 139
0.0418839 3.96996 2.34826 203 172 147
-0.002232 4.31127 2.12133 255 198 166
0.241507 4.31007 2.28929 235 186 161
0.067077 3.72592 1.98311 236 121 86
-0.49043 -0.0390976 6.47571 133 79 60
-0.844097 -0.439147 5.89661 136 92 74
2.0456 2.48622 2.55467 216 120 96
2.03124 2.43969 2.63828 196 111 90
2.186 2.366 2.77559 211 123 101
2.06969 2.49914 2.47533 218 116 94
2.10829 2.39871 2.72427 195 114 91
2.10491 2.29059 2.72743 203 119 97
2.15025 2.39317 2.77308 202 113 89
2.11978 2.02705 3.05321 180 102 79
2.07217 2.21314 2.87669 205 114 90
2.189 2.14558 3.12127 193 110 89
2.15088 2.04773 2.86804 198 110 87
2.07703 2.11419 2.56281 210 117 97
2.08581 2.06776 2.58659 193 119 95
2.17547 2.12022 2.48673 206 118 95
2.45313 1.55253 3.64019 119 70 52
2.1446 1.72845 3.47447 145 106 82
2.12715 1.9864 2.68737 193 113 92
2.34635 1.33874 3.54145 103 50 36
2.37734 1.37256 3.47149 120 67 50
2.35479 1.72376 3.38461 180 106 80
2.38944 1.27398 3.59637 106 54 39
2.15816 1.76379 2.56069 210 114 89
2.15112 1.24483 3.64465 109 54 41
2.26614 1.77853 3.04083 185 104 82
1.99965 1.98901 2.67426 205 119 96
2.37547 1.63179 3.24584 196 122 100
2.19244 1.82628 2.44978 204 114 91
2.14177 1.81355 2.80087 192 111 87
2.11213 2.10344 2.4294 205 117 95
2.40723 1.63524 2.97124 185 108 86
1.22888 -0.963513 2.13637 245 153 113
1.49837 -0.342464 1.90846 255 211 170
2.00561 0.539279 6.84262 112 0 0
2.34304 0.668136 2.55864 221 138 112
-1.18113 2.58883 12.8906 0 0 0
-2.84241 2.70054 8.08454 59 37 33
2.30041 2.93406 5.5108 91 48 37
2.37748 2.89699 5.96645 96 50 35
-0.575021 -0.826453 5.2996 97 57 45
-1.85758 -0.150244 2.85764 186 146 121
-1.15686 5.22503 7.54664 52 31 25
-0.583182 6.52373 12.6933 0 0 0
-9.80913 3.10639 4.7835 85 21 7
2.49036 0.529807 3.80533 255 255 255
2.93054 3.90955 6.17821 175 160 151
2.13721 4.04678 5.50877 91 50 41
2.75212 3.11332 5.28506 84 44 36
-6.29685 6.08878 2.25591 136 51 32
0.457342 5.46624 8.29351 0 0 0
-8.68323 2.19143 5.27782 133 55 38
-5.78097 -0.662529 5.11447 161 68 44
-7.55322 -0.352067 4.80034 139 57 39
-0.186215 -1.305 5.19146 0 0 0
-3.44733 3.20746 6.24116 113 73 61
0.664645 -1.38263 2.30735 252 169 137
-0.852373 1.70202 16.7779 0 0 0
-7.7623 -0.592818 3.66296 109 38 24
-3.898 2.60337 12.8172 0 0 0
1.36378 3.6031 8.94535 43 35 34
-1.12737 4.53808 1.85984 157 172 173
1.29835 3.96217 8.48465 43 26 24
-0.664715 -0.535006 5.37565 120 70 56
2.28649 3.36892 7.50768 255 255 255
-5.87915 5.20455 3.88446 136 90 63
-1.83504 4.52069 2.15985 165 168 141
-6.29668 -0.849101 3.58937 109 41 22
-6.49769 5.73612 3.44107 136 66 43
-6.57184 5.22797 2.51 111 49 31
-6.6365 0.286217 5.29656 130 41 19
-4.46564 5.4612 1.42375 127 57 37
-3.40068 -0.860562 7.64958 117 81 82
2.77374 2.45063 2.82095 166 112 85
-0.163671 -1.16757 2.66515 255 165 147
-0.391974 -1.58233 2.14608 233 167 129
2.18406 3.01797 5.83421 95 60 45
-6.6609 -0.690782 4.08493 137 53 34
-7.40925 0.963968 5.22128 134 49 31
-8.13582 0.448724 3.70636 100 37 16
-8.31683 1.37976 3.64729 95 30 17
-6.43294 6.11463 2.96447 119 49 29
-5.42848 5.4861 1.77138 113 46 23
-1.40939 4.95698 4.90632 129 87 75
1.28297 3.92702 8.90795 41 30 30
0.996735 0.976211 6.95559 86 50 41
-5.88451 -0.718722 4.30252 145 62 43
0.381244 -0.590639 5.28506 115 63 49
0.62255 4.87776 8.23384 53 31 22
-6.35345 -0.6644 4.76246 145 57 37
-3.96742 1.73245 5.8265 197 121 63
-5.95586 -0.358988 4.8649 138 56 33
-7.55573 5.15282 3.3011 110 39 18
-7.37589 -0.382746 3.37772 100 33 18
0.746695 -0.916193 2.47358 248 184 157
-0.791083 0.0161618 6.28801 255 248 224
-0.971144 4.2322 2.4111 150 122 97
-6.58642 -0.16685 5.23494 135 50 29
0.467825 7.06964 10.3931 0 0 63
-5.23343 5.72657 1.66868 118 45 23
0.102099 -0.533312 14.3103 0 0 0
2.18931 0.481765 3.02347 164 104 77
-7.40583 0.0407194 4.21964 122 43 25
-3.50391 2.7713 10.4197 48 28 21
0.827595 -0.699626 2.69197 255 170 134
-4.35272 3.37925 5.85267 255 198 123
-0.899902 4.3786 1.10674 135 143 130
-2.58938 3.5731 2.66396 116 73 62
-7.65625 -0.0326862 4.57664 144 57 44
-7.21675 -0.664957 3.45487 114 39 25
1.12969 1.01341 6.65083 107 54 44
-6.66972 -0.771095 3.38602 106 35 21
1.9528 0.860141 6.13864 102 50 35
-9.88476 3.15908 5.1414 98 33 20
1.20086 1.04933 7.48398 108 57 49
-8.04087 2.18848 5.54545 126 41 20
0.719303 4.67604 8.95286 32 25 15
0.482261 -0.879583 2.54284 255 255 255
0.655311 0.129188 6.152 105 64 50
-9.53193 4.15911 4.04164 107 40 22
-6.74116 0.441649 5.8171 146 58 45
-1.27293 5.64139 7.26162 84 52 42
2.41593 3.80472 4.07468 144 101 76
1.05057 4.9921 3.29372 255 131 100
1.41 4.00108 5.36593 94 61 50
-1.65845 1.04657 8.81885 73 38 32
-7.88046 4.21595 2.93783 99 36 18
1.27227 4.11638 7.69749 54 35 28
-7.81296 5.31378 3.13795 106 34 18
-9.39531 4.36372 4.47002 110 37 23
-8.57917 1.1507 3.96466 98 30 13
-6.28761 -0.518623 5.19226 146 59 32
0.0575127 4.54064 9.42866 45 27 18
-5.60364 -0.546434 5.1157 156 72 42
0.882995 2.04778 9.41043 61 26 17
-6.92008 5.45113 3.01688 102 51 34
4.19594 3.97086 6.26264 0 0 0
0.393179 -0.546358 5.63343 132 80 61
-8.79909 3.85958 4.18766 97 29 16
-7.85092 5.32218 3.08985 111 35 26
-8.44748 3.24357 3.27106 87 29 20
-7.10994 5.37022 2.77562 103 38 22
-9.40726 3.47351 4.39605 92 32 17
-8.25571 0.209169 3.8926 103 37 17
-1.76299 3.59558 2.35063 158 124 101
-2.11271 4.85434 7.43559 63 34 27
-0.25498 1.6088 14.6838 0 0 0
-6.17669 -0.357642 5.12757 148 57 32
-0.0118559 2.03704 13.7833 0 0 0
2.50213 1.48728 2.95683 207 123 106
-0.408263 1.78679 11.549 62 47 41
-6.2293 5.31156 3.47471 154 90 70
-0.411104 0.727243 8.14479 64 40 33
0.734991 4.7661 8.51033 57 39 32
2.05161 1.52189 5.10531 113 69 56
-3.39516 3.97106 4.82993 16 0 0
0.0469497 -0.728625 2.79558 249 187 147
-6.94596 0.307491 4.97329 128 46 24
2.37553 0.63174 5.55497 64 0 0
2.65713 1.81891 3.14658 140 61 48
-8.4587 6.1257 3.37009 127 55 41
0.038575 2.90642 18.4232 0 0 0
-0.589161 -1.04874 2.48395 242 129 92
0.927641 3.95516 9.26629 46 32 29
-1.44358 5.26558 7.09993 57 24 22
-8.43452 1.32638 4.68517 116 39 22
-3.69638 3.06517 3.71077 122 81 69
-1.10191 1.56063 11.6299 59 44 33
2.22819 1.47192 5.52976 135 69 50
-0.248081 -0.800165 5.42382 210 170 148
-1.91254 3.83698 2.25081 152 117 95
-3.1607 4.87684 7.45779 214 150 107
-2.86326 4.85731 7.39866 146 115 88
1.79546 0.711252 6.56191 99 78 63
-3.30234 3.54358 6.54688 76 54 45
-1.42131 4.39739 3.32795 188 141 116
-0.104437 0.173741 6.77158 92 59 48
-0.954657 4.42288 2.5012 175 114 87
1.56071 3.94976 2.55081 141 122 98
-6.55172 -0.295978 4.92869 136 55 32
-6.04631 5.80155 2.2449 130 45 26
-0.423547 4.725 1.33725 132 119 93
-1.3891 4.26862 2.46616 171 138 99
-7.71785 -0.731729 3.89344 121 43 19
0.983394 3.72093 11.1798 255 248 220
0.248694 4.56079 4.83123 105 53 41
1.1775 3.94625 8.92035 50 42 37
-1.36863 -0.389259 7.84485 255 255 255
-1.97988 4.13798 3.08944 137 85 68
-1.16642 0.646331 7.17315 91 56 43
-6.04355 -0.422951 5.36298 151 62 33
0.289443 3.26235 19.5716 0 0 0
-1.901 5.08912 7.75604 72 44 35
3.38969 3.45009 7.84676 0 0 0
0.909708 3.38541 9.57205 49 30 24
-6.5766 -0.647646 4.24899 141 61 39
1.57401 3.42755 1.75309 149 93 76
2.08706 0.808285 3.11514 175 110 88
-8.3775 3.57617 3.39645 90 29 20
-8.77219 3.33485 3.52516 92 30 24
-8.28387 0.71267 3.7801 102 38 18
-7.92193 -0.049881 4.02502 106 34 14
3.39284 1.2731 8.043 42 0 0
-0.148032 3.20675 17.9676 0 0 0
-2.17674 3.36635 13.6471 43 39 45
-1.40818 2.80526 13.724 28 13 0
-0.44048 3.84822 11.2425 22 17 13
-3.30726 3.66278 5.97499 92 52 45
-3.52367 3.46285 3.2612 95 54 44
2.3443 2.02919 2.75146 166 120 97
-3.68451 1.8078 7.18367 151 115 94
-0.776858 -0.242293 2.7158 127 49 26
-1.30765 4.03235 1.34328 176 132 106
2.055 0.95626 4.42161 139 86 67
-1.06223 -0.205197 2.46536 255 191 161
-0.051865 -0.499466 5.34043 114 62 49
-0.841779 -1.03567 3.09592 240 166 129
-0.312702 4.75465 5.64625 98 50 43
-2.30026 1.13761 16.5327 0 0 0
0.117332 -0.552727 5.85473 120 90 72
0.348959 2.11722 9.38295 23 17 14
-1.25897 5.87716 1.15917 112 147 145
-0.135445 1.30225 11.1239 68 30 0
0.532729 -0.710732 5.68706 127 68 59
-0.838602 4.94607 0.970946 255 228 188
2.37264 2.68676 5.19046 115 65 52
-0.935954 4.28147 1.2809 177 160 129
-0.00148118 4.37119 2.40336 175 90 66
-1.79566 0.577694 7.85874 135 91 75
1.29215 -0.20259 2.58774 247 173 138
-1.37843 3.48656 1.34368 196 140 118
0.438455 -0.273474 5.66896 122 64 51
0.529272 4.2147 2.75528 141 127 105
0.260964 4.35455 2.29268 157 163 144
-10.3252 5.1293 4.65297 125 39 18
-3.11461 1.98024 14.9124 0 0 0
-1.52664 4.11986 2.01642 143 136 124
-3.06058 3.90146 7.04042 71 45 36
0.831925 0.0994369 5.76605 111 65 52
-3.11473 2.52722 7.41467 84 54 47
-2.96039 2.15304 7.74646 80 46 38
1.55932 1.65555 6.77315 97 49 40
-3.35293 1.52355 4.68001 64 0 35
2.51922 2.27862 5.41589 93 41 28
0.926273 -1.01322 2.30848 241 150 114
-0.847799 4.72957 4.80073 113 61 47
-1.61109 4.31572 1.97231 79 111 142
2.20185 2.96001 5.09216 104 61 49
1.74678 2.26298 6.91944 87 51 42
2.03138 3.81706 2.93385 154 93 82
-1.09744 5.06965 4.81113 86 39 30
-0.610871 -0.960988 5.28018 132 114 96
-3.78478 0.990164 4.50299 255 255 176
-3.17266 3.82677 3.25891 119 68 59
1.98986 1.08001 3.74714 139 100 78
0.93608 4.48971 7.12785 66 39 33
-2.69962 2.9587 12.785 255 184 151
0.46571 0.317062 6.585 99 58 48
-0.57396 5.54472 7.2981 193 98 64
-8.84798 4.46163 3.86001 107 38 27
-4.47872 2.55025 8.09088 0 0 0
-1.05542 1.22179 9.3059 71 39 32
1.51369 -0.151918 5.39513 116 60 47
-7.37744 0.0195214 4.95023 131 53 31
-1.05546 1.85966 15.7569 0 0 0
1.25236 4.00203 5.51398 107 63 51
3.64599 5.19702 4.07624 255 255 255
-0.345346 5.28512 9.31655 52 35 29
-6.4163 6.99779 3.24598 146 68 26
2.97894 3.17003 4.12493 112 48 35
5.1979 6.32614 11.8874 0 0 0
-2.18424 3.78628 2.77314 124 74 62
2.15652 0.987991 3.67306 141 88 71
-8.99625 3.27279 3.92353 89 30 16
-4.6166 5.73172 1.58337 124 47 30
-8.20479 3.75757 3.15238 94 31 21
-3.64385 3.54671 3.43199 86 46 37
-1.97458 -0.0955606 4.21582 170 117 86
-9.73922 4.28497 4.78508 129 53 41
1.90138 3.93363 2.10742 166 98 78
-1.78971 3.62543 1.8966 209 208 184
0.793665 0.50239 6.48791 93 55 44
-6.98507 0.172985 4.89173 132 52 30
-2.24428 4.90981 7.4716 60 38 36
-1.01849 2.55398 22.8454 0 0 0
-0.602687 5.39307 9.60524 73 41 38
-8.86251 -0.0168914 4.99664 141 56 14
3.87517 5.69508 4.38074 255 255 255
-2.4417 0.830793 5.54048 113 75 69
-0.427684 -1.08444 5.50267 100 48 43
-5.94281 6.28789 2.95677 122 46 30
-1.37402 1.45616 11.676 47 36 33
-1.26921 -1.11125 5.43478 176 78 46
-0.955582 4.29758 1.70177 152 169 148
-0.884572 5.84239 8.64053 115 67 60
1.45688 0.224992 2.81498 237 151 117
-0.635259 -0.911089 5.48918 109 71 68
-0.917035 -0.37303 5.55438 105 61 50
2.33429 1.65106 3.9847 144 108 86
1.72261 0.653858 6.37773 179 133 109
-2.22248 0.39617 3.30863 161 83 62
0.59819 -0.841604 3.63598 159 107 61
2.52954 2.84024 3.98426 129 85 70
