ply
format ascii 1.0
comment Created by Open3D
element vertex 1342
property double x
property double y
property double z
property uchar red
property uchar green
property uchar blue
end_header
2.519 0.252961 20.442 0 0 0
5.15687 -1.15283 1.88977 255 151 135
3.18296 -3.07594 5.50132 255 255 139
2.76447 2.43494 5.46815 116 52 26
2.00934 -1.60874 7.01932 165 97 68
-2.78747 1.99495 3.39501 184 112 81
3.30268 0.873862 4.56537 247 130 80
3.97703 0.312273 1.51762 238 124 88
2.59275 -1.39776 0.394053 214 144 83
2.31194 -1.34836 0.31531 224 140 87
2.57807 -1.2964 0.424642 218 144 77
2.90414 -1.1424 0.800797 208 122 85
3.11633 -1.18558 0.744128 160 87 66
2.57874 -1.4524 0.534531 220 165 115
3.00136 -0.881451 0.600469 218 131 107
2.88207 -0.860465 0.535588 255 166 92
2.9826 -1.07015 0.714597 192 122 84
2.938 -1.1161 0.760014 200 137 105
2.65741 -1.90842 0.620606 179 103 29
2.89325 -1.16015 0.676763 196 125 94
2.65324 -1.3858 0.720462 209 132 79
2.56549 -1.52789 0.519485 247 151 108
3.10895 -1.29071 0.909499 236 176 96
2.68615 -1.6007 0.506843 196 118 48
2.47333 -1.75652 0.716065 155 100 27
2.71217 -1.60388 0.563309 201 160 69
4.03592 1.76351 2.03474 84 46 23
2.47387 -1.47231 0.630352 254 174 124
3.97051 0.558148 1.88312 155 81 56
2.51528 -1.80134 0.573866 253 181 113
3.90231 0.64863 1.88554 180 90 87
2.48242 -1.67262 0.413184 252 184 143
2.8171 -1.29548 0.911047 230 155 106
2.51678 -1.4767 0.602847 249 175 115
2.77019 -1.69725 0.95069 247 174 101
2.8203 -1.65123 0.601193 157 90 51
2.86266 -1.30698 0.852357 189 102 58
3.0126 -1.76649 0.837469 102 0 17
2.52226 -1.39483 0.595939 238 160 114
3.39435 -1.16939 1.44723 229 148 107
3.79122 1.38058 2.8219 113 56 14
3.9122 1.74739 2.64412 109 56 32
3.90929 1.70903 2.06271 146 102 72
2.95948 -1.44416 0.916073 250 185 133
3.70072 1.19715 2.85453 160 60 36
3.81376 0.882128 2.89282 130 63 44
4.14514 1.43202 2.74335 214 78 53
3.86865 1.17168 2.92687 125 13 0
2.60922 -1.70326 1.01115 243 168 125
4.15198 -0.0133259 2.22851 134 27 0
3.72502 1.2732 3.07068 129 47 12
2.50438 -1.8369 0.683572 231 176 100
3.98367 1.24403 3.0287 118 25 0
3.73406 1.29173 2.94683 181 121 95
3.59158 -1.54494 1.25478 113 8 17
2.55572 -1.72136 1.09597 248 167 118
3.94518 -0.161745 1.75211 180 105 71
3.73615 -0.163862 2.57172 110 62 47
3.0228 -1.64247 0.957775 239 173 106
3.81559 0.857069 2.95085 149 63 25
3.3923 -0.717789 2.70103 200 111 78
3.0758 -1.56143 1.03308 251 222 173
2.73037 -1.6325 1.32175 225 137 101
2.56447 -1.65295 1.34115 241 171 131
3.59571 -0.832251 2.23362 182 107 76
2.40049 -1.87068 0.999557 227 142 82
3.71146 0.491065 2.9515 160 75 44
2.21602 -1.96695 1.00312 241 169 122
2.09634 -2.0322 1.0792 255 181 123
2.88606 -1.67414 0.919148 209 149 87
3.74343 1.43052 2.96156 115 49 24
3.76586 0.794574 2.89425 164 81 46
3.55585 2.507 3.36558 110 50 55
2.61832 -1.90897 1.0004 202 141 90
3.64701 2.06599 3.1727 86 55 49
3.51566 -0.35375 2.71664 190 101 63
2.7715 -1.70817 1.21869 212 123 85
3.48038 -0.386761 2.78704 191 85 52
2.63094 -1.65834 0.961861 242 174 135
3.6728 2.31681 3.27904 77 42 52
3.54923 2.47481 4.14217 124 64 20
2.26495 -1.96346 0.873146 250 178 126
3.66534 2.3866 3.55437 111 77 84
3.49828 -0.426015 2.80059 169 86 50
2.36637 -1.91423 0.988093 255 183 121
3.48299 -0.343083 2.76029 159 84 42
2.31107 -2.0667 1.07356 178 94 67
3.4576 -0.622969 2.75922 206 111 71
3.55095 -0.353795 2.79673 150 75 35
3.44709 -0.388142 2.75551 183 111 72
3.58762 2.45561 3.66196 151 99 106
2.73668 -1.73024 1.74271 255 201 168
3.26999 -1.12448 1.73232 196 126 82
3.81983 1.93062 3.50773 116 78 63
2.29916 -2.12838 1.10288 255 184 127
3.44578 -0.339458 2.75137 183 96 69
1.99224 -2.02594 1.16288 252 169 116
3.48932 2.45881 4.12615 58 55 29
3.21331 2.71078 4.30682 126 53 55
2.10045 -2.16944 1.21384 252 173 127
3.62712 2.46884 3.70649 162 116 118
3.57971 2.60915 4.20876 12 3 0
3.38573 2.51042 4.08224 120 53 27
2.19768 -2.13371 1.98423 186 96 72
2.97468 2.0683 4.79 191 95 65
3.51043 2.69399 4.13247 69 24 14
3.24866 2.49976 4.07207 135 85 90
3.50417 2.29575 3.9542 67 33 37
3.08691 1.70126 5.07279 98 58 34
3.3346 2.72022 3.9891 101 31 7
3.45748 2.74516 4.40366 89 44 97
2.55351 -1.89728 1.85123 169 122 93
3.64609 2.32864 4.10816 100 29 0
3.57698 2.38033 4.05432 132 59 19
3.18861 2.74802 4.27905 112 49 57
3.44599 1.6924 4.50612 109 106 81
3.29932 2.52952 4.34836 159 71 38
3.32712 2.60811 4.48386 144 38 31
2.54093 -1.82403 1.99962 179 97 58
2.55245 -1.97349 1.4175 233 152 109
2.82546 1.90085 4.96905 60 33 50
2.86782 -1.6801 1.96509 198 154 120
2.96166 1.94702 4.9283 59 28 25
2.52117 -1.88692 1.91165 170 92 70
3.09681 1.92616 5.15805 63 27 0
3.26607 1.5133 5.00263 39 21 5
2.26841 -1.97088 1.90785 212 115 99
3.14023 1.90358 4.85535 100 101 92
3.12988 1.67692 4.91841 81 38 32
2.31999 -2.00992 2.18977 183 78 56
2.19297 -1.97615 2.13596 193 111 63
2.56124 2.64522 5.46656 69 21 15
2.42012 -2.14465 2.16757 136 12 0
2.37243 -2.38614 2.44526 112 24 21
2.5335 2.42051 5.55439 76 43 37
2.52718 2.69295 5.50548 63 6 0
2.3924 -2.07942 2.18185 175 84 46
2.70556 2.24315 5.60486 78 69 61
2.55893 2.66943 5.63426 76 47 37
2.26276 3.11246 5.6691 13 16 0
3.29931 0.350658 10.0352 0 0 0
2.01493 2.89329 6.88016 56 26 0
2.57828 1.3895 10.9604 0 0 27
2.71267 1.4628 11.2987 0 0 7
2.31686 0.759037 10.8521 0 0 0
1.19247 -2.7158 3.17384 177 103 41
3.24429 0.306607 11.5173 0 0 0
2.35489 -0.272696 10.4934 0 0 0
2.52321 1.21119 10.4637 0 52 50
2.7402 1.20452 11.1687 0 0 0
2.0605 0.840771 11.3224 0 0 0
2.16386 0.729168 10.8219 0 32 37
1.68954 -2.41758 2.14143 253 142 108
1.6602 0.0204361 10.8473 0 30 0
2.08616 -0.244852 10.6956 0 26 13
1.65175 0.210158 11.0176 35 32 28
1.45194 -0.202293 10.921 0 19 0
1.54083 0.404587 10.9723 0 27 17
0.940317 -1.47076 10.1772 0 0 0
1.11991 -1.49331 10.3138 43 49 44
0.502475 -1.58002 10.1755 0 35 0
0.177765 -0.798263 10.4574 0 0 0
0.415914 -1.56575 9.43774 70 53 47
-1.46799 -0.505171 7.9048 255 255 202
-2.32342 2.43071 6.00446 255 255 255
-1.58005 -0.383508 7.18938 44 20 0
-1.29948 -2.21867 3.2269 255 255 255
-1.57444 -1.99641 3.70018 184 107 81
-1.09784 -1.35243 0.997972 226 101 32
-2.08046 -1.42413 3.64526 255 255 242
1.15992 -2.06511 5.96099 123 80 61
-2.23061 -1.76156 1.07572 255 255 196
-1.4074 -1.45844 0.702185 214 79 27
-2.51335 -0.0351709 2.38929 227 119 87
0.745861 -2.22423 6.16516 133 74 56
0.656483 4.39213 2.49288 248 146 90
0.165698 4.30903 2.82258 255 114 48
-2.31954 -2.47575 1.83216 255 255 219
-1.54148 0.0777341 7.17329 105 66 57
-1.35348 -0.837431 0.353475 239 157 64
-1.4281 -1.3876 0.855936 220 67 0
-1.18574 3.5751 3.30514 255 171 124
0.615583 3.9303 2.17482 219 133 93
-1.469 -1.77569 1.22966 230 164 90
-1.13535 3.50513 3.47373 235 164 171
0.194572 -2.17441 7.53641 98 61 50
-1.79798 -1.28377 1.69666 255 148 92
-2.18738 -1.26727 1.37081 231 172 131
-1.56999 -0.790984 0.450683 243 124 42
-1.94157 -0.49754 1.09337 235 163 117
-0.543752 3.5909 3.3092 184 104 73
-1.2654 3.16649 3.33532 195 106 90
-0.845769 -1.55569 0.599404 226 114 33
-1.4735 -0.524959 7.46638 255 255 211
-2.45098 -0.835643 1.94703 255 165 121
-2.97255 1.85091 3.99471 150 79 52
-1.49556 0.225577 7.80103 130 82 61
-0.171935 -1.84837 0.893081 235 102 50
-2.07541 -0.561593 1.08567 235 170 123
-2.70893 2.02136 3.92774 232 160 101
1.62879 4.235 2.08095 195 88 44
-2.09927 -0.916746 1.71013 241 138 104
0.99489 -1.9412 1.13111 184 75 40
-1.48107 0.989075 7.617 84 61 56
3.14786 -0.762973 7.33256 153 61 53
-0.183783 -1.46672 0.553875 255 131 53
-2.52555 -0.459306 2.17352 221 129 103
-1.33244 3.08796 3.23455 176 120 67
1.73046 4.14803 1.56027 215 108 75
0.266164 4.1108 1.97159 255 132 34
-0.596418 -1.253 0.403104 255 228 123
-0.306223 -1.33603 0.429871 255 200 102
-0.658809 -1.22494 0.699428 255 189 96
-1.71248 -1.14339 1.04995 243 152 85
-0.60064 -1.20918 0.389694 255 246 136
-0.440204 -1.47091 0.621942 255 153 69
-0.54653 3.54062 3.3725 177 102 74
2.58002 2.39063 0.608808 218 140 113
2.7766 2.42853 0.996539 207 132 92
-2.55206 1.30619 2.86434 208 178 102
-2.01501 -1.37616 3.5932 255 255 255
-0.521945 3.58342 3.35402 182 106 70
-2.60238 0.53674 4.18988 181 134 142
2.00756 2.47439 0.72348 252 147 114
-3.17269 1.97045 3.82 142 255 255
-2.55288 1.74552 3.21456 176 255 255
-1.62505 -2.4741 1.94522 253 158 61
2.51672 -1.3005 3.56402 210 103 76
-1.62926 -1.13053 1.25017 233 145 96
-2.34964 -1.50482 1.19404 255 255 180
-1.56548 -1.0909 0.459558 229 91 36
-0.899854 -2.03916 0.850324 198 102 28
-0.771376 -0.95839 0.70339 255 151 69
-0.630437 -1.36855 0.448734 255 206 102
-0.386899 -1.5651 0.48153 255 146 60
-1.25811 2.89153 2.84822 217 142 107
-2.28183 -0.674103 1.53145 194 138 109
-0.628837 -1.31126 0.394144 255 216 111
0.56865 3.65599 2.234 226 148 109
-0.933803 -1.82738 1.38875 204 132 66
1.42376 2.12038 7.36843 97 70 49
-3.07049 -1.5875 4.21108 255 255 255
-1.94944 -0.337441 0.947521 219 187 135
-0.20722 2.778 6.91368 101 93 60
-0.47971 -1.43552 0.656459 255 148 64
-2.13269 -0.920342 1.7478 247 141 103
-0.473051 -1.46833 0.911537 255 118 60
-0.335953 -1.74367 0.921863 255 129 71
2.0034 -1.44755 7.38384 104 65 51
1.22732 3.72198 2.72009 166 127 87
0.0215916 -1.30146 9.70175 65 45 42
2.91419 2.15394 2.11577 188 131 97
-2.64215 -0.374217 1.7141 221 144 109
-1.87616 -1.01583 1.03206 240 124 73
-2.72034 -0.388075 1.82947 220 124 96
1.97942 1.90655 6.88096 123 91 67
2.5628 -1.04364 0.433955 218 139 87
2.58298 -1.45046 0.498853 221 150 88
3.55974 -0.381949 2.68585 200 114 78
1.3331 -2.47128 2.83952 208 127 84
-0.585042 -1.23289 0.492036 255 220 114
-0.836675 -1.18457 0.579947 255 217 95
-2.71332 1.82739 3.31031 179 255 255
-1.58528 2.90962 3.56963 198 136 93
-1.00021 3.26701 3.0948 186 121 95
-2.08651 -0.177732 1.08058 234 186 134
-0.54648 -1.38138 0.715125 255 151 81
0.135565 -2.7018 3.14314 183 53 45
-2.4071 -0.397655 2.51588 241 255 187
1.02654 -2.32658 1.27148 196 78 44
-2.58027 -0.343578 1.71093 226 161 125
-2.57806 -0.336009 1.70223 226 142 110
0.0792682 -2.21721 6.58531 128 72 51
-0.594228 -2.23407 1.41392 190 70 38
1.18755 -2.76763 3.37876 129 76 42
-2.17834 -0.995849 3.46477 155 76 45
3.68546 0.672626 2.91068 206 113 80
-2.26844 -0.090848 1.65512 228 144 112
-2.6411 2.29943 3.23584 173 101 82
1.36685 -0.197621 10.4741 69 44 44
-0.0941581 -2.95388 4.35119 142 80 60
2.394 -1.5602 4.99231 137 83 53
1.99102 -1.7825 5.70816 117 60 48
-3.37897 1.56201 6.05412 0 0 0
-1.51468 -1.48594 1.27709 235 138 107
3.82281 1.59947 2.64389 228 109 78
-4.00384 -1.0137 2.18499 255 255 255
2.2676 -0.0567152 10.4522 76 44 34
0.821762 -2.13892 6.08995 131 79 60
-0.434051 -1.58716 8.65819 186 130 110
3.41672 0.593191 16.1099 0 0 0
0.9767 -2.13037 6.30145 115 62 49
-0.405373 -3.96285 1.87645 97 0 0
0.841283 -1.97926 6.86654 102 60 45
-1.9733 -0.197579 1.19715 255 191 142
0.255622 3.83629 2.97316 244 148 104
-0.447003 -1.8455 8.34989 255 210 174
-2.71395 -0.472052 1.77863 246 194 142
-1.11694 -4.94574 2.04783 255 90 0
-1.47474 -1.28488 0.861942 223 77 28
-3.20273 -0.265211 2.32458 189 100 101
0.877533 -2.06098 1.18256 177 66 36
-3.34372 -0.539729 1.93795 178 80 73
-1.41478 -2.18267 1.33578 254 160 103
0.870921 3.47094 2.38729 225 159 122
1.42379 -1.01533 9.85915 67 49 40
-2.07338 -0.913489 1.70002 177 112 102
-2.50406 -0.441741 1.55194 253 181 132
1.35561 -1.15074 21.1466 0 0 0
-1.86683 2.00132 5.23902 136 92 71
0.844348 4.46273 3.40475 244 117 62
0.615627 4.0516 2.47795 217 127 76
3.18029 -0.389733 3.22979 215 141 121
-2.84071 1.61706 4.3441 181 98 72
1.63899 -1.66714 5.96336 103 56 44
-2.02058 2.22239 6.78234 255 255 255
3.79775 1.37853 3.21996 161 56 0
3.93903 0.294853 1.84338 229 140 91
3.19472 -1.09231 1.42049 214 123 92
4.04592 0.763378 1.24479 255 171 120
3.74786 1.43331 3.04583 174 125 101
3.5928 -0.102716 2.6101 201 131 86
3.92862 1.346 1.61952 250 151 108
3.84558 1.32936 2.6609 198 120 80
2.28354 -1.89315 0.952219 246 170 114
3.18139 0.163751 6.43575 169 83 66
-0.76492 -2.35286 9.92419 0 0 0
-3.16857 1.79958 4.75169 152 113 98
2.69885 2.94679 3.51319 39 18 24
2.85786 2.25496 5.97903 255 255 255
-0.304794 -4.538 2.62454 0 0 0
3.86765 2.27728 1.90072 235 161 125
3.71956 0.694322 3.15131 173 89 14
1.07944 -1.94567 6.27252 100 58 41
2.41467 -1.31517 0.531449 236 155 103
2.9006 -1.03992 0.582075 206 122 80
-1.63413 -0.817708 1.16611 230 138 97
-0.640419 -1.19085 0.572925 255 175 84
-2.00678 -0.69744 0.981131 234 148 111
-1.92237 -0.679054 0.946784 255 166 115
-2.34908 1.69419 5.03243 82 30 19
-1.84357 -1.74998 3.56339 123 25 0
-1.10725 -5.23689 2.26939 0 0 0
-2.47855 -0.27422 2.84254 221 125 91
-2.31502 0.548884 3.91927 182 132 115
-1.69065 0.47467 6.27569 116 73 57
4.12043 0.715828 1.53375 255 201 127
0.132622 -0.842857 9.86256 77 50 38
-1.32274 -1.56607 1.18378 249 165 91
1.72174 1.93411 7.88286 118 76 45
3.91922 0.106885 0.570458 254 140 103
3.83563 -0.492058 2.5844 209 100 49
2.68384 2.43815 1.71051 209 126 83
3.29285 0.195741 2.89408 245 147 117
3.21303 1.88566 0.936101 229 138 102
0.186561 -4.12297 2.40674 118 0 0
3.64345 -0.553877 2.68924 204 108 76
-3.09347 0.778775 2.93095 195 139 110
5.61948 -0.919084 1.21813 255 126 112
-0.607515 -2.70662 1.77585 147 86 62
2.80026 2.97804 4.96068 161 134 106
1.08842 -2.0825 5.90855 147 84 64
0.975145 -2.85729 3.48899 101 0 0
0.958264 -0.91186 10.3175 27 13 12
-1.94531 0.568319 7.93111 78 49 50
1.98228 0.158277 10.5129 60 36 24
-0.255055 -1.64096 0.651014 255 114 52
1.78322 -2.47943 1.81669 252 157 110
3.73877 -0.565896 18.1494 0 0 0
3.00602 3.2426 10.3117 0 0 0
3.34921 -0.774238 5.32024 223 112 56
3.50711 1.96377 1.7623 200 124 87
3.86418 1.20876 2.85991 169 76 51
2.31437 2.78689 0.713302 232 123 110
3.7339 1.47083 3.24171 225 122 77
-1.07213 -1.99439 3.12599 187 118 94
0.178023 3.2441 5.95142 84 53 42
3.04686 -1.61529 0.985136 217 136 67
0.854636 -2.15991 6.21215 135 80 58
-2.21045 1.34698 4.00085 144 84 59
3.78411 -0.394831 14.6775 0 0 0
0.0877784 3.88823 5.70275 123 100 95
0.130554 5.15709 10.0849 0 0 0
-2.97072 1.49438 3.69912 168 46 73
-1.35023 -1.79308 2.8136 177 114 88
2.92156 0.326963 4.96321 182 106 81
3.29242 0.37592 5.00661 255 158 62
1.14346 -0.457657 10.6932 48 59 64
3.92822 0.113682 0.713198 217 117 99
0.869062 -2.61517 3.39201 144 50 0
2.14565 -2.12482 5.00371 133 68 44
0.269785 0.501718 10.4518 48 52 48
-2.04002 0.0225426 4.07832 188 122 88
1.84331 0.384517 11.2782 67 46 43
3.17532 0.573053 4.83401 219 137 104
1.57821 1.19236 9.96384 69 47 39
2.37467 2.24939 0.529273 224 139 94
2.30314 -1.47466 5.78645 131 77 66
2.13483 -1.90036 5.55756 120 65 44
2.36545 -1.69905 5.64365 46 0 0
2.8379 -1.54929 1.31282 223 153 107
4.10575 1.81949 3.54501 218 111 55
2.44047 2.79983 0.714852 212 118 89
1.67363 -3.39322 3.1719 255 255 155
4.03662 0.0745417 2.43167 144 70 60
1.64265 0.293193 10.9369 104 37 37
-2.64684 1.71078 4.0199 169 80 85
2.69626 -1.53424 0.986113 210 147 91
0.219789 4.9407 9.94211 0 0 0
2.43092 -1.93278 1.64918 231 161 114
-2.57691 -0.12094 2.39962 249 203 150
2.52007 -1.31704 5.84831 121 67 51
-2.75206 1.01848 3.81382 168 102 81
3.14109 -1.7307 1.03022 184 96 39
3.72523 1.15129 13.4749 0 0 0
4.23494 1.83542 2.40158 226 117 75
-1.13216 -1.61824 1.10684 240 119 49
4.08973 1.33363 1.6999 255 208 147
-1.71212 0.432128 19.3088 0 0 0
-2.52795 0.163756 2.86145 224 131 82
-1.34662 2.20264 5.69323 133 65 44
1.89569 1.13229 9.98542 65 42 36
-2.09314 -0.0834305 4.00071 176 96 71
0.521458 3.61491 7.72041 255 160 128
4.09371 2.0903 3.23841 0 0 0
2.05473 -1.6044 5.62438 139 63 43
-0.487726 -3.72513 2.00417 105 24 0
-2.09504 -0.37959 1.29204 255 169 122
-3.2829 -0.456137 2.35084 212 111 95
-1.61003 -1.28818 1.63785 180 114 97
-3.62589 -0.725402 2.30127 255 255 255
2.15108 -0.290615 10.3417 54 25 19
-0.724335 -3.76473 1.94933 144 36 0
-2.49893 -0.387755 1.69587 255 182 133
0.679934 4.15925 1.6545 255 172 85
0.751575 4.14028 2.49343 208 118 77
-2.63602 -0.350015 1.72428 252 186 129
3.9397 0.298939 17.4441 0 0 0
-2.61277 1.53279 4.16143 152 66 52
2.61544 -1.33451 6.24448 156 108 48
-3.47441 -0.602718 1.9573 189 110 111
-3.07492 -0.563527 2.72766 200 110 119
2.9751 2.14581 5.7721 96 69 57
-1.58864 -1.97707 1.30293 236 163 86
0.683535 3.88789 2.42946 232 157 92
0.554522 4.03223 2.48278 252 127 50
-1.49183 -1.36654 5.77681 150 99 82
-2.54138 -0.421244 1.20228 247 188 142
-1.87106 -0.826245 6.45031 131 83 68
0.708692 4.38179 4.05682 213 161 130
1.42933 -1.82124 20.6182 0 0 0
0.2225 4.43196 3.39897 242 105 51
-1.7005 -1.16637 1.0173 238 148 90
-3.75743 2.13965 5.68537 34 6 0
3.87508 1.42118 1.25927 179 96 75
3.79701 1.24658 2.31294 182 97 70
3.68692 1.23666 2.8057 196 115 86
4.2004 0.454795 1.5286 255 206 158
3.7212 1.94449 2.71529 150 93 77
3.81186 -0.072102 2.49412 176 91 53
-1.22587 0.590826 8.09639 197 128 90
3.89174 0.309072 2.17838 223 112 79
2.30247 -0.152567 10.3443 46 26 22
3.43928 -1.03263 14.614 0 0 0
3.6058 -0.267299 6.97493 177 88 69
1.01198 -2.2475 6.06002 131 81 55
-3.34931 1.85893 4.80706 144 66 118
-0.919324 -1.92668 7.69347 255 223 173
-2.57516 -0.419611 1.67948 229 141 120
-2.46523 -2.10126 3.31903 255 255 144
-1.49613 -0.807404 16.9607 0 0 0
-2.22424 -0.408977 4.25904 78 78 84
0.69333 -0.125667 10.5292 52 38 34
2.39215 2.6925 5.94864 108 63 45
4.27723 2.51402 13.3223 0 0 0
2.43236 -1.25554 0.440396 227 157 103
1.02135 3.70259 2.37616 221 148 102
-2.22708 -0.660968 1.06765 224 160 117
1.85061 0.665815 10.1859 61 37 30
1.78038 -1.86563 6.75372 164 102 76
2.54605 1.18454 7.20444 82 40 25
2.77219 -1.41847 1.24219 219 137 94
1.9148 -2.1049 2.12115 202 128 93
2.31764 -1.97469 0.934822 244 175 127
-1.06381 3.35927 3.3232 180 102 81
3.49139 1.48124 12.3853 0 0 0
0.472869 -2.33388 6.31737 119 76 60
-1.32855 -1.70423 14.4287 0 0 0
-0.335461 -1.29499 9.00274 55 33 32
-0.0148838 -2.91155 5.03296 237 140 119
1.40936 2.48725 7.84886 67 48 35
2.64709 1.37912 6.85476 109 69 45
-4.60605 0.352704 6.22101 255 255 255
-2.53988 -0.636604 2.88515 255 187 126
-2.30604 -0.25373 2.86728 214 134 102
-4.54712 1.96188 6.45001 0 133 245
4.31289 0.00592115 1.93966 255 255 198
3.57385 2.20705 2.78378 198 102 76
-1.82556 -1.20317 3.35898 183 111 85
5.37473 -1.04937 1.09191 255 107 92
-2.4399 -0.33216 3.21333 233 142 107
-1.54943 -1.89591 15.8228 0 0 0
2.59151 2.99778 3.37346 94 45 39
0.434731 3.75551 7.21419 80 47 70
2.57615 3.05688 4.80779 135 116 105
-0.477813 0.424013 10.9802 26 28 36
3.48951 -0.338219 2.75399 164 98 54
2.88559 3.29164 10.5183 0 0 0
0.0626077 -2.59907 5.85508 204 96 53
3.48321 2.48835 4.22567 161 76 45
3.41979 2.23183 4.71959 182 71 50
3.89949 1.76563 1.2586 255 155 108
3.10062 0.883285 4.16982 198 108 78
-1.40923 -2.08531 3.42793 199 117 89
-2.75823 1.11729 3.74587 181 84 68
1.74248 -1.51324 6.16557 98 59 46
-0.145721 5.03346 10.1996 0 0 0
1.42163 -2.91564 3.00023 161 102 57
-2.64787 1.7869 3.49657 164 86 50
0.513751 4.13561 4.6658 74 39 44
-1.81278 1.93578 5.16274 170 109 87
-1.8704 -1.05423 2.93748 201 118 96
0.677217 -0.387931 10.3106 59 54 45
2.42863 -1.86801 5.59953 107 63 50
-2.07359 0.292253 4.04875 205 129 91
-2.86183 0.196226 2.90089 215 158 150
1.03723 -2.15522 6.52274 104 60 42
-2.65597 1.67101 6.2913 255 255 255
1.1736 -2.82198 3.3936 230 166 75
2.57191 -2.15047 6.83213 255 255 255
1.76316 -2.04881 5.77254 63 47 62
1.51981 -1.78027 6.31519 97 53 41
2.6125 2.55809 9.06472 226 123 103
-2.40377 3.19455 5.01516 87 69 76
-0.636634 -4.17754 5.11832 255 194 153
-2.81981 1.55916 4.62447 152 109 78
3.7109 2.08456 2.41784 140 74 60
1.3926 -2.79299 5.96846 255 255 255
2.80932 -1.63927 1.36704 215 124 89
-3.31746 -0.0366749 2.05854 221 64 0
-0.227946 -2.8674 2.64763 154 94 73
0.583656 -0.304258 10.4109 36 24 25
-2.60141 -0.210888 2.81935 222 199 193
-2.60514 0.709783 3.96791 185 118 82
-1.65571 -0.761801 7.80632 255 255 255
1.55024 -0.0709531 10.8233 65 52 53
0.118334 -2.40605 2.98269 214 97 79
2.39685 -2.08345 1.6513 248 165 110
2.84023 2.01441 6.08133 170 93 80
0.532051 0.155739 10.3767 53 38 31
-2.1666 1.36942 3.9885 135 82 61
-1.94905 3.25128 5.11209 115 80 54
3.65069 0.676365 2.92613 202 114 85
4.17689 0.730205 1.64994 255 184 136
3.82271 2.35399 3.31206 44 0 0
-2.61301 0.331412 3.46819 203 131 101
3.38294 -0.32441 19.204 0 0 0
1.45969 -3.27604 5.12943 105 50 35
-2.63654 0.11115 2.96648 238 184 142
-0.176208 2.71775 11.2114 60 59 55
-2.50439 0.26491 2.92344 255 139 102
3.89624 2.29718 3.43352 84 69 49
3.49327 2.52816 3.99761 35 0 0
0.0669995 -2.5447 5.37561 145 71 58
-1.4356 -1.98414 1.1444 255 222 111
-1.53702 -1.12611 0.81378 219 84 27
-1.85864 -0.826329 0.657666 244 125 28
-2.16209 -0.740001 0.774783 255 125 0
2.59524 -1.31311 7.92048 255 241 174
-1.75425 -2.18645 1.18543 255 216 162
-0.439485 -3.38707 4.58296 255 190 149
-0.678331 -1.3703 0.451907 255 255 148
-1.45117 -1.10368 0.540064 233 110 32
-1.95843 -1.90938 1.30246 255 255 188
2.39929 -1.49701 5.12612 142 84 50
-1.37322 -1.41046 0.755615 220 76 23
-1.32764 -1.96176 3.11818 201 126 98
-1.5869 -0.901384 0.430149 252 132 52
3.89744 0.572013 7.23806 32 0 0
-2.727 0.477109 3.434 207 132 91
-1.47378 -0.519296 7.75222 255 255 253
-1.55313 -2.15239 1.68535 224 0 0
-0.7793 -3.3695 1.5089 170 52 9
-1.55707 2.76412 3.38956 233 159 104
-1.2125 -1.91156 3.17693 182 120 96
-1.4437 -0.72048 0.374965 246 151 59
1.34818 -1.95031 6.64476 120 70 52
0.96245 -1.89259 7.66806 135 81 58
-1.15846 -1.02679 0.519301 239 127 50
0.0764971 -2.15129 6.35914 118 75 58
-1.90929 -0.41412 1.13285 244 163 118
-1.53397 -0.696389 0.375361 248 148 60
-2.97968 1.82936 3.71642 202 84 40
0.0891369 -1.83913 1.0039 224 87 42
-2.43876 -1.05286 2.13584 248 175 153
-0.235496 -1.64278 1.00291 244 105 48
-1.18123 -1.56733 0.772647 201 75 23
-1.3835 -1.11583 0.524861 238 103 29
0.822699 -2.12826 6.55906 104 61 45
2.65843 -1.11516 7.31956 98 55 41
-2.65966 -0.419454 1.7999 204 129 98
-0.317287 -1.69578 0.717638 255 210 77
-2.38487 1.54514 4.35425 188 115 78
0.672492 -2.1566 6.15308 131 83 63
-0.737443 -1.35796 0.383977 255 209 105
-1.36664 3.09127 3.26697 198 114 95
-0.557614 -1.46904 0.539918 255 211 82
1.98273 -1.72757 8.3488 118 67 49
0.959924 -1.92262 7.75236 89 49 46
-1.21885 -7.41224 3.19771 0 0 0
-2.5595 1.47553 4.18802 169 96 58
3.84757 1.73983 2.0637 150 77 58
0.19965 -3.20402 2.72814 110 38 0
-1.5632 -0.601097 7.85291 255 255 255
-2.74081 1.48119 3.34103 185 0 16
-1.77846 -0.847725 0.870562 243 172 107
-3.29223 2.14043 3.88334 171 255 255
-2.74076 1.56166 3.21887 193 255 255
-1.89966 -0.698731 0.828599 255 183 124
3.96813 0.907599 1.36004 232 140 110
3.35526 -1.53331 2.02098 187 190 168
2.55284 -0.97503 5.37689 255 160 69
-0.552211 -2.52282 1.47251 193 64 16
-0.857868 -1.29726 0.416421 255 197 101
-2.46411 -0.296508 1.84391 255 187 119
-0.580001 -1.38635 0.616367 255 144 65
-0.590737 -1.45364 0.408651 255 202 98
-0.496556 -1.5454 0.685837 255 129 66
-1.53052 -0.288086 7.48976 138 84 72
-0.17297 -1.68607 0.55675 246 99 40
-1.86375 -0.447672 1.07364 240 152 111
-0.637841 -1.36914 0.357085 255 215 107
-2.06117 -0.360848 0.966354 217 189 138
-0.248472 -1.59198 0.754935 255 107 41
2.45991 -0.497657 5.18094 146 84 61
1.22317 -1.50871 10.1678 53 41 47
-2.06977 -0.0742301 1.09964 238 192 134
-0.292509 -1.71429 0.890611 255 115 56
2.16191 2.37771 2.07725 216 128 94
-2.38081 1.83007 3.66367 163 94 87
-1.56699 -1.391 1.15432 229 128 73
-1.1999 -1.87793 1.32491 192 144 99
2.35877 -1.5168 0.601657 253 182 115
0.901354 -2.8041 3.33274 200 148 75
-0.346564 -1.62106 0.46124 255 132 77
1.09683 -2.12754 1.37439 203 91 54
3.04042 -0.724371 7.05985 158 81 41
3.99765 0.963087 1.03986 183 95 66
2.8645 2.52029 0.778772 198 127 92
2.7034 2.63345 1.14844 211 134 92
-1.70699 -1.41263 0.791717 229 129 76
-1.93708 -1.99682 4.04149 255 255 255
-2.75404 -0.423749 1.81489 189 132 118
-0.0145999 -2.12822 5.50059 105 62 45
-1.27965 3.18097 3.31188 189 114 91
-2.11213 -1.309 2.56539 197 123 92
2.74334 0.82162 5.3661 144 94 82
0.0747156 -1.82341 0.772189 227 93 43
-2.86093 -0.191453 1.98966 199 129 102
-2.15882 -0.146191 1.57956 227 155 124
-1.35078 3.2292 3.22007 173 96 87
3.51603 -0.812453 2.16048 210 111 72
-1.35976 -1.26615 0.996821 231 133 65
2.07382 -0.114579 10.5944 85 36 20
-1.50957 -1.26726 0.90342 217 83 13
-1.84719 -0.989356 0.965995 220 115 25
-2.2282 -1.74809 0.989987 255 242 170
-1.82513 -1.82703 3.81534 255 231 141
-1.80478 -0.54523 0.632226 249 138 51
-1.68793 -1.25221 0.635388 239 71 0
-0.37169 3.78137 3.19761 197 121 86
-2.07989 -0.611982 1.1227 225 143 99
-0.605061 -1.28437 0.702148 255 151 64
-1.34348 -0.355987 7.75292 130 89 72
-0.930982 -1.95263 0.721418 194 98 25
-2.44524 -0.383798 2.65238 242 169 118
-1.64018 -1.05934 1.61025 187 124 101
2.93522 2.20725 1.3219 219 147 105
-2.55725 -0.339458 1.44172 223 149 101
-2.07323 0.153022 3.92275 197 136 99
-1.85528 -0.99551 1.07874 236 118 74
-2.26086 -0.0783748 1.68649 216 134 98
-2.02284 -0.379671 1.25845 249 157 113
-0.464465 -1.25663 0.54898 255 173 80
2.57236 1.11446 7.42728 96 53 42
-2.65084 1.01935 3.6604 180 110 85
-0.437626 -3.3744 5.17448 255 255 255
-1.3355 -1.36095 0.838721 228 129 63
2.76737 -1.46646 0.838265 227 155 92
-2.73604 1.03042 3.78805 160 88 65
-1.12896 -1.51929 1.08853 220 119 63
-2.09905 -0.433849 1.28006 255 174 129
-3.21085 -0.229572 2.29681 197 134 114
-1.36954 -1.9954 3.10308 195 118 86
-1.72259 -1.14613 1.05924 243 144 82
2.18657 -0.455841 10.3184 62 27 23
-2.9523 0.272043 2.8494 206 166 162
2.51244 1.29731 7.11948 109 71 51
2.64741 -1.55857 0.813735 234 157 93
-0.983577 3.35022 3.45073 184 122 106
-2.63775 0.141122 2.91265 239 132 89
-1.29131 -0.28587 8.33142 99 58 50
3.63991 -0.848034 1.86118 212 130 98
-2.01676 -1.05828 2.88377 199 121 92
-2.97014 0.17423 2.95689 210 159 164
1.47409 -1.91119 6.48801 118 68 47
-2.8316 -0.450153 2.79448 157 44 41
1.34475 -1.68959 7.61705 90 52 45
-2.16993 -0.890216 3.03837 198 118 89
-2.86305 0.749281 3.98552 209 119 103
-0.634523 -4.44603 4.47203 255 255 192
-1.07427 -2.85429 5.30587 255 209 156
-1.87437 -0.299499 1.23343 253 181 133
3.37017 -3.4131 5.66494 162 152 110
3.71217 1.96948 2.53178 157 101 77
2.31004 -1.76402 5.82254 82 53 27
-4.33013 -0.177826 2.60047 197 42 0
5.04856 -0.377441 13.8727 0 0 0
1.86413 -2.0011 5.73147 134 91 66
-1.39417 -1.30375 0.893673 219 90 29
3.20854 0.406859 5.0958 242 109 35
3.86663 3.3559 2.67846 167 76 59
-1.69947 -4.17893 4.36399 153 129 128
0.950645 -3.1915 6.151 255 255 255
3.26413 2.44572 4.71192 117 71 54
-2.50971 0.989404 3.38058 213 153 115
-1.66224 0.910126 6.42503 103 54 41
-2.15593 -0.619427 1.05786 214 183 128
-0.281403 -2.65134 4.64689 255 255 255
-3.24305 0.138088 2.27403 171 82 95
-2.01444 -1.07792 2.85656 245 160 114
0.742363 4.26969 2.54966 219 131 88
-2.55028 0.307308 3.42413 204 125 87
-2.41955 1.7438 4.97627 83 38 32
2.20563 -2.13246 1.11672 251 171 119
-2.58253 0.525717 3.55816 207 124 97
-2.40768 0.711559 5.08747 144 64 51
3.30539 0.580698 5.16336 255 136 58
2.13767 -1.39778 3.47996 87 46 34
2.45713 -1.89233 1.66545 220 149 105
4.09537 1.05288 2.06679 255 231 187
3.31151 -0.988751 1.02585 198 109 77
2.55078 -1.86178 1.47857 222 156 113
3.61741 -0.484896 1.17246 194 109 79
3.96445 1.50124 2.81069 204 109 82
3.17178 1.67931 1.0571 223 135 97
2.47081 -3.15871 6.08593 158 112 80
3.02462 0.63286 4.31268 158 102 100
2.44948 -3.17542 5.59349 106 62 54
-2.33605 -1.10569 6.28323 255 255 255
-2.74956 0.558784 2.96476 215 150 108
-1.89233 2.40535 5.99847 255 255 255
2.38075 3.4751 4.79106 133 62 29
3.80832 1.92681 3.49028 209 108 92
1.50614 -1.81766 10.8465 55 39 0
2.9135 -1.32298 1.10729 210 132 87
3.05751 -1.56885 1.1955 183 114 81
-2.39085 2.08155 4.24308 95 57 51
-1.33184 -2.37597 2.72881 186 105 81
-2.52238 0.486337 3.16598 219 139 89
-2.59359 0.297169 3.50861 194 120 84
3.55302 -0.728385 2.6064 187 92 45
0.230783 -4.52484 2.21081 34 0 0
4.14941 1.77991 2.20916 255 216 180
3.21611 1.769 11.2285 0 0 0
-1.70169 -0.413982 1.01632 240 176 122
0.665155 -2.97384 6.27906 85 36 24
3.63552 -0.661904 2.16927 202 84 50
3.5719 -1.01742 1.20367 184 127 104
-1.29187 3.04269 3.32706 188 99 72
1.76559 -4.52808 2.60657 0 0 0
-2.60147 0.352926 3.54577 201 119 87
-0.981461 -2.12867 1.51968 245 175 113
-2.50546 1.97505 3.66744 146 96 83
3.57395 -0.154254 2.87073 152 76 38
3.69859 -0.713936 2.54995 187 104 54
3.64727 1.80788 2.72769 199 120 89
2.81115 2.98291 4.55248 160 96 100
2.4967 3.06846 5.31636 115 73 64
1.30422 -2.1198 8.51369 103 69 53
3.49709 0.0723934 2.82819 190 92 50
3.76279 2.42109 3.28768 80 55 62
3.53825 0.235819 10.5261 0 0 0
2.13723 -2.59181 6.89625 255 255 255
2.40862 -1.89595 1.71133 208 148 105
3.58955 1.99603 1.68776 150 97 72
2.0893 2.691 6.22585 116 65 37
3.33309 -1.55014 0.938938 215 144 107
2.64964 -1.58282 0.857418 222 147 88
-2.1235 2.83222 6.44594 255 219 100
-1.05417 -2.3347 1.48636 199 72 0
-0.460801 -3.26328 5.23523 255 255 255
3.60316 0.874385 4.35344 135 78 50
2.64494 0.099309 20.3612 0 0 0
0.298516 -0.743583 9.78348 73 49 44
4.36632 1.16092 1.80237 255 255 174
-2.79345 1.79998 3.33778 182 255 255
3.0716 -0.916504 0.755279 179 104 67
4.34847 -0.0793668 14.8564 0 0 0
-1.23217 -1.3733 6.23631 127 74 57
3.14699 0.0618078 5.44884 234 141 86
-3.23112 0.952251 4.23784 120 85 70
3.71695 -1.29058 2.54455 0 0 0
3.37077 -1.25754 1.86003 196 112 78
3.63695 -0.292765 2.79479 178 103 65
-0.907317 -1.92397 1.3619 199 97 47
0.00908672 -2.56928 5.03564 153 86 73
3.74568 2.19121 1.86952 220 134 97
3.46165 -0.879093 2.64868 169 97 53
1.77931 3.29298 5.66593 123 83 67
-2.96179 2.23074 4.52505 135 90 71
3.73168 1.57113 13.2386 0 0 0
3.76196 -0.621297 2.61069 187 93 51
2.65002 -0.177578 4.44367 182 111 89
-0.875851 3.73229 3.07455 255 247 160
-2.33946 -0.187273 1.80032 241 141 93
3.37857 1.70584 0.818059 210 154 105
3.34109 1.68646 1.18563 217 135 99
-2.08403 -2.24835 5.49735 255 255 255
-2.74626 1.65023 3.63192 186 91 79
-2.53739 -0.168078 2.94245 199 149 152
1.12416 -2.19204 6.40775 126 67 50
3.84378 2.26278 12.8579 0 0 0
3.51792 0.113445 2.54009 217 121 86
-0.445913 -3.02074 5.38913 255 255 255
2.90598 -1.75469 0.90752 236 168 100
-1.03673 -2.58189 2.46313 162 103 81
-2.89299 1.85194 4.76966 192 150 117
-2.13377 -0.519149 5.63883 149 95 72
2.44802 -0.329345 10.3311 38 39 31
0.950945 -2.16858 5.95138 111 73 58
2.42199 -2.44179 6.84265 255 255 255
2.6731 3.09338 3.94393 57 6 21
3.66525 2.29696 4.13551 190 83 49
1.62433 3.4292 4.98728 77 26 7
3.86061 2.28098 1.05481 96 59 62
0.201959 -2.04607 2.68049 136 78 64
4.11436 1.11312 2.20426 184 115 62
-0.560152 -2.17996 1.52101 144 86 60
2.26751 0.274777 10.5426 65 35 33
-0.760649 -2.99438 3.50963 233 142 99
-1.01528 2.77583 6.97387 133 108 82
0.917783 2.80596 6.74124 143 75 52
2.82352 3.09979 1.68933 255 136 82
-2.53231 2.10033 3.14713 178 255 243
2.1259 0.537849 10.7464 54 51 47
-2.60869 0.551977 10.4629 78 0 0
1.92372 -1.51254 3.22902 216 84 39
3.98949 1.3901 1.32366 255 180 138
2.63029 -1.80139 1.43559 228 157 108
3.0097 3.14855 4.47173 95 51 31
2.57698 3.5455 4.64411 10 0 0
1.39943 1.19992 10.198 57 39 34
3.22029 3.22648 4.29204 95 49 64
-3.14163 0.79101 4.20651 164 114 98
-2.6802 1.44798 2.55146 183 233 184
-2.71768 1.83576 4.03469 200 114 89
3.21276 -0.591968 3.78032 170 81 36
0.990357 -2.08619 5.96497 123 74 55
0.216158 3.71745 7.13878 53 30 0
2.13471 -1.5532 5.97939 126 73 54
-1.57254 -1.6916 5.5846 115 87 68
0.209548 3.81941 6.92992 97 67 54
4.03108 -0.0348937 14.7494 0 0 0
3.76103 0.233655 0.939844 194 119 88
2.49176 -1.93333 1.53172 241 163 109
3.16427 1.13706 2.88283 217 148 118
2.40994 3.14151 5.11864 183 85 31
2.50524 -2.44661 6.39361 255 255 255
-2.05491 2.71028 5.09629 110 70 53
-0.00564543 -2.02685 2.73517 132 88 68
2.48596 -1.87758 0.956071 228 168 102
2.86127 2.51258 5.41797 158 133 101
-3.68958 -0.904392 5.58905 94 72 42
-1.16287 -1.32399 1.02337 233 133 70
1.5168 2.87428 6.78834 84 46 40
2.51254 -1.64455 5.73527 86 57 51
3.43266 -0.304012 2.65355 215 123 85
-2.84376 1.44398 3.12205 197 254 221
4.6026 -1.76014 1.35267 112 28 0
3.7717 0.1398 1.9527 200 124 85
-2.02786 -0.148698 3.86934 208 138 109
4.54491 -3.05664 4.14469 77 0 0
2.62237 2.85115 5.25795 114 59 44
0.0954945 0.677574 10.493 62 42 42
3.58121 -0.708483 2.88799 186 129 94
0.958838 -2.34719 6.65559 255 255 255
-1.21194 -2.94006 1.30098 183 66 0
0.127891 -2.63091 12.1601 0 0 0
-2.93036 0.889365 3.88088 193 123 90
2.72675 -1.83612 18.9576 0 0 0
-1.45168 -2.27838 1.01182 193 59 0
-1.14813 -2.39602 5.7949 255 255 234
-2.1468 -1.66097 3.11492 207 0 0
3.72603 0.495556 12.6382 0 0 0
0.949686 -2.88201 5.67768 133 77 62
1.79623 -2.27389 5.63489 70 34 45
0.051053 -1.03128 9.68423 65 46 44
-1.69772 -0.354899 1.08767 252 154 112
-0.96146 -3.98606 4.05424 195 179 158
-1.80298 -1.24079 1.67732 211 131 95
-1.9822 -2.1989 2.12275 249 0 0
1.45809 -1.85348 6.49704 97 56 45
-1.12512 -1.80134 0.623588 221 73 26
2.57223 -3.60881 6.42968 87 0 0
-2.1417 -0.621862 1.14997 236 167 124
-2.84647 -0.252961 2.25208 187 92 88
3.23942 2.91858 4.52754 86 45 43
-2.51048 0.720045 3.82056 182 117 97
-3.07398 0.884417 3.93953 160 80 30
3.92758 1.55331 1.82383 255 166 106
3.70519 0.017423 2.42739 209 122 88
2.41783 -1.90612 1.68008 238 172 132
4.25108 1.37116 1.91834 255 174 128
4.04132 1.02769 2.25552 176 84 56
4.00678 0.476549 1.62029 213 125 86
0.972657 -0.766855 10.0795 62 40 36
1.93054 -1.46412 6.2132 102 67 48
-1.16255 -1.9286 1.49085 169 96 64
0.784368 0.86786 11.0772 0 27 29
1.41299 -1.90567 6.36811 112 61 47
-1.76512 -0.854944 0.813542 255 177 118
-2.58903 0.100059 3.13446 207 128 93
-1.96973 -0.536109 5.49363 149 89 70
-2.48629 2.04666 2.5261 168 110 91
1.81811 -1.99989 5.53974 107 49 35
0.0415634 -1.62313 9.55096 57 37 34
-2.7958 -0.0218431 2.11929 204 124 104
3.76541 2.11601 3.37796 184 107 90
3.43474 2.38981 4.50039 204 120 102
0.150166 2.56602 8.68015 77 59 55
2.81289 -1.40612 0.789811 231 162 96
2.70478 -1.60539 0.867036 222 147 89
-0.645372 -2.80653 1.55229 190 68 0
2.72766 2.16711 1.63168 233 146 91
-0.0400566 2.25044 10.0639 39 35 35
-2.44168 -0.00728554 3.74866 234 166 127
2.33629 -0.498342 12.7325 0 0 0
-1.77425 -0.24317 1.25367 255 171 120
1.04912 -1.03194 9.95424 63 53 50
-2.40889 0.629251 3.1381 215 123 78
-1.35843 -1.52744 0.955973 255 146 89
1.52012 -1.7212 6.93896 99 60 51
2.77916 0.94652 4.8525 182 100 65
3.49934 1.49564 0.777646 197 119 88
-3.21806 1.92709 3.78296 131 255 255
-1.11123 -1.94696 1.3265 255 150 82
-2.61457 -0.544462 4.4706 139 118 49
3.63333 -0.401027 2.7769 152 109 77
3.89728 1.59189 2.60831 185 123 102
3.66429 2.32322 3.23699 134 88 78
2.46984 3.07081 4.90327 218 170 135
2.50705 2.83866 4.63284 163 125 125
1.57005 -2.59118 2.9873 151 111 85
2.38375 -1.92072 1.69019 235 148 91
0.376306 -0.793351 9.85112 65 49 44
2.44107 2.91869 5.47792 126 75 51
4.38426 0.186068 14.8491 0 0 0
-3.17762 -0.231778 2.10172 198 89 87
-0.527231 1.77679 9.68273 33 23 27
-2.57435 1.65468 4.31641 172 104 74
-0.915843 3.43235 3.35906 161 91 73
3.38982 -3.47398 6.66864 93 0 0
3.84255 0.527304 2.42611 211 112 71
2.59918 -1.56975 0.929009 230 153 95
-2.55732 -0.0987936 2.82628 244 210 182
2.57018 0.00447643 20.4591 0 0 0
-1.43156 3.03765 6.13408 144 37 16
0.438724 -1.35842 10.0437 75 40 44
4.50928 1.06057 1.62484 255 249 189
-1.13404 2.37088 7.42073 71 46 35
-2.30605 -0.296095 4.02404 227 154 109
3.79025 1.82787 13.5211 0 0 0
0.707754 -3.02379 16.7794 0 0 0
3.8586 1.32466 13.6574 0 0 0
1.61672 -2.94201 6.21906 82 41 24
4.48298 0.3098 14.8688 0 0 0
-3.22488 0.750415 4.33061 126 91 62
3.84489 2.10611 1.96786 195 140 113
0.696521 3.32821 6.35571 115 70 56
3.84263 -1.48966 2.46976 0 0 0
3.07305 -0.238866 4.72749 255 148 86
3.64861 0.375394 2.49164 211 104 69
3.67879 -0.657399 2.68361 178 92 62
1.61973 -0.343877 10.5076 77 58 44
1.27774 3.70218 5.16953 107 56 35
3.74777 1.173 13.1847 0 0 0
3.6238 -1.69568 1.0983 255 255 222
3.70152 0.0100868 2.4833 179 106 74
3.45222 2.73927 4.86144 52 16 18
-0.932841 -2.43134 2.8706 181 114 88
-2.98908 0.77143 3.81319 181 119 79
-2.51232 -0.0650918 2.41279 234 178 133
-2.47815 -0.205394 2.58619 218 124 92
3.62216 1.43348 1.09754 215 132 97
2.55708 0.997979 7.44888 89 53 42
3.5946 1.62178 1.1865 221 142 100
2.56189 -1.54719 0.521518 231 160 97
-1.31165 -1.93695 3.00231 191 123 97
-2.68541 1.46453 3.65957 197 110 95
2.79009 -3.11319 6.58287 157 55 0
-2.75152 0.196518 3.02203 229 177 180
4.22846 2.45732 12.9208 0 0 0
3.50267 2.35498 2.37486 176 90 69
2.69198 0.105657 10.1128 69 39 27
2.71187 -1.45673 0.856054 227 158 95
2.75255 -1.68213 0.894625 226 158 97
3.63429 1.22322 2.19452 190 109 79
2.45909 2.9748 5.35052 144 61 41
2.54519 -1.99819 1.73307 255 255 227
1.66983 -1.72815 5.81693 112 61 44
0.356227 3.54219 6.8559 83 40 36
3.00212 -1.672 0.797591 201 96 54
3.67423 2.59686 3.74404 62 37 89
0.437214 -3.85824 2.87276 155 65 24
-2.72118 0.502778 5.22204 65 33 24
4.08306 0.83465 1.274 171 101 80
2.70205 3.21719 3.77579 57 47 34
4.12257 1.01444 2.23876 176 95 68
3.48289 2.38945 4.67662 149 63 57
-2.881 0.989922 3.78452 170 97 66
2.60427 2.62127 5.41307 20 0 0
1.47126 1.09946 10.2347 65 46 41
1.535 -2.7791 6.39629 255 255 255
-2.70199 0.0971329 2.78489 222 167 138
-2.41473 -0.126264 3.76936 230 169 129
-0.195277 0.530267 10.3767 45 36 37
-2.00551 -1.06044 2.9245 195 121 93
-2.56341 1.30606 2.88051 229 224 132
2.27973 -0.103024 10.4172 91 57 52
3.53496 -0.829985 2.17702 207 116 84
2.95075 -0.0670678 5.40546 255 153 48
1.53971 0.329936 10.8782 26 19 0
-1.4557 0.484407 19.6495 0 0 0
1.76184 -1.68942 3.71768 191 87 49
-2.78386 1.55457 3.11949 203 255 255
2.40983 -1.89007 1.69191 221 147 111
2.7363 -0.408348 5.58807 235 145 85
-1.3645 2.43036 5.98571 112 63 37
1.41259 1.23746 10.2029 55 37 39
-3.42841 0.563915 4.32973 148 114 85
-2.85412 1.55339 2.85987 168 225 186
-2.22061 -1.39256 2.46022 195 86 61
-2.79871 1.59135 4.398 191 113 91
4.12555 -0.362505 3.50463 94 0 0
4.25218 1.87883 2.19075 230 103 95
3.77526 2.98992 3.19684 204 132 98
0.694245 3.69337 5.48291 102 64 58
1.16155 -2.13701 5.90317 105 62 54
-2.26807 -1.69239 4.95175 99 61 44
2.45628 3.60888 4.57851 72 56 56
3.56994 1.70479 4.4652 207 106 59
3.74917 -0.648324 9.0115 151 94 84
2.10944 1.73799 6.83173 140 87 62
3.81953 -0.708007 1.8865 204 115 79
3.21849 -1.34444 1.31069 207 128 96
-2.53898 0.483005 3.93199 190 109 85
3.75522 -1.01048 2.55783 175 101 67
2.39722 -1.89703 1.70539 213 144 105
3.79426 1.61589 2.08873 172 105 74
3.77134 0.495732 2.21118 198 118 88
2.7193 -1.95398 6.01186 193 133 111
5.18154 1.77301 1.65144 126 111 113
2.76723 0.133332 5.12389 181 89 42
4.08526 0.135476 14.7926 0 0 0
2.53362 3.03149 5.13852 143 74 55
-2.43627 -0.5107 3.3073 208 131 106
1.39502 0.656656 10.6393 35 35 30
0.57761 1.17142 10.28 71 49 43
-2.07014 0.411959 5.80948 162 92 69
1.77836 -2.26818 5.25619 122 74 41
-0.0914588 0.367542 10.3555 49 26 29
-1.15325 2.38366 7.11813 174 94 72
0.888185 0.52105 10.6295 45 33 27
-0.908393 -3.52825 1.77965 189 56 0
0.171883 0.805544 10.5408 48 41 39
2.37704 -1.52808 5.77241 119 67 49
0.746537 2.88708 6.48865 121 65 42
3.80718 2.27183 3.13901 140 82 65
3.43491 -0.288593 4.96039 255 129 42
-1.23274 -1.84821 1.63342 150 89 69
3.51143 -0.341465 1.33205 201 116 92
3.94109 1.27339 1.60647 255 217 159
2.51066 3.59827 4.48804 0 0 0
-1.74796 -0.891399 18.5987 0 0 0
3.34162 2.87464 4.34914 48 0 17
4.15663 0.851842 0.862312 132 61 59
3.2334 1.89854 1.12313 205 111 85
3.31897 2.01339 1.02436 140 106 104
2.84364 -1.11135 0.605038 213 140 102
3.10628 -0.933767 0.716496 183 103 73
3.20482 -1.23913 0.756385 125 46 56
3.43208 2.01319 1.29891 114 85 94
2.93709 -1.13566 0.684061 239 112 49
3.02184 -1.101 0.685505 211 106 0
3.44601 2.0605 1.08973 155 122 72
2.75954 -1.20666 0.837504 212 138 92
3.79933 -0.434877 1.03344 227 138 92
3.05755 -1.16777 0.643691 173 74 28
3.44514 -0.958286 0.941839 200 132 95
3.38849 2.06918 1.62983 176 127 135
3.57968 2.07565 1.33625 152 118 112
3.7723 0.916668 1.49454 203 119 81
2.59206 -1.57716 0.367412 238 157 108
4.07729 0.491648 1.5082 225 161 119
2.9247 -1.13961 0.825799 189 125 84
3.31933 1.96083 1.42586 207 130 104
3.11981 2.58288 1.40792 128 75 93
3.83569 0.0745841 1.27316 172 93 74
3.39747 2.48781 1.24929 149 119 116
3.11305 -1.19865 0.791927 193 144 112
3.38564 2.30209 1.34852 146 117 92
3.20508 -0.996709 0.778517 223 134 103
3.44523 2.15159 1.59012 111 114 92
2.7263 -1.09031 0.610668 208 119 79
3.72627 1.65299 1.49754 137 89 73
3.3847 -0.723268 1.37032 226 128 91
3.74246 -0.283088 1.34945 226 140 97
2.82572 -1.56016 0.491761 205 111 52
3.33161 -0.983209 0.629214 255 162 121
3.79861 0.217315 1.30001 208 123 85
3.52056 -0.976251 0.993633 204 101 68
2.88895 -1.67133 0.964582 177 87 28
2.93044 -1.60762 0.548417 203 125 75
3.70994 -0.445733 1.64391 197 110 80
3.29693 2.16221 1.47018 190 122 96
3.50092 -0.865344 1.09312 185 114 92
3.20413 2.31436 2.00917 131 108 89
3.55337 -1.08579 1.01867 177 130 105
3.8187 -0.244205 1.37657 250 136 94
2.42461 -1.87027 0.761448 182 132 67
3.59401 1.79589 1.58652 212 126 101
3.71859 -0.226623 1.28956 239 118 86
3.17728 2.33116 1.86092 117 98 83
2.94056 -1.55028 0.951369 186 128 62
3.05661 -1.69765 1.23046 157 36 15
3.24269 2.11607 1.70303 184 116 93
2.78065 -1.68981 0.93815 185 125 31
2.84827 -1.30027 1.44602 226 144 105
3.60343 -0.938042 1.32399 255 173 154
2.43607 -1.73385 0.670529 254 206 124
3.86544 1.68802 2.07797 133 82 48
3.90329 0.0470324 2.14498 247 138 84
3.89638 0.738005 1.92544 203 120 81
3.87892 0.75355 1.91628 188 111 80
3.55503 -0.420912 1.24707 192 117 92
3.25121 -1.27584 1.19916 226 142 101
3.97046 0.389861 1.92666 212 129 78
4.045 0.923162 1.55984 187 113 86
3.91687 -0.985284 1.51341 244 119 91
3.99288 -0.137439 1.9508 248 155 104
3.26117 2.56078 1.59377 116 88 94
3.39493 -1.13895 1.27791 238 129 98
4.09026 0.397927 1.58656 240 120 95
3.91419 1.81765 1.86121 158 91 58
3.99455 1.76319 1.97076 143 81 58
4.04143 1.68545 2.23768 255 174 127
3.39098 2.26012 2.25126 229 174 122
3.92363 0.53852 2.18814 209 121 85
2.98174 -1.5092 1.00728 219 169 113
3.89313 1.40092 1.72202 222 151 112
3.37878 2.25133 2.1814 220 173 130
3.44461 2.26245 2.22102 193 133 93
2.89291 -1.57655 1.31412 211 100 66
3.85562 -0.507296 1.81874 205 122 88
2.80847 -1.68164 0.866737 250 175 120
3.81984 -0.301018 1.69972 215 143 111
3.96147 1.03924 2.24655 179 99 76
3.31856 -0.965922 1.40622 215 125 87
4.07656 0.426736 1.80632 250 133 89
3.88462 -1.07862 1.58719 255 155 139
3.90494 0.854244 2.04948 204 124 94
3.79164 -0.763904 1.72417 235 143 102
2.80923 -1.74903 1.02342 191 128 74
3.0689 -1.6373 1.08686 189 73 29
3.99622 0.999016 2.45491 240 134 97
4.13407 0.219843 1.48917 255 145 93
3.75894 -0.711587 1.97168 239 118 94
3.15262 -1.39845 1.35846 209 140 103
4.1961 0.505793 2.18577 209 101 68
3.27143 -1.12183 1.66951 212 149 107
3.80473 -0.300807 1.54927 222 93 65
3.65949 -1.30074 1.36563 238 137 93
3.93151 1.44703 2.15433 250 136 97
3.13964 -1.57994 1.05938 255 255 200
2.90213 -1.46056 1.41821 254 155 96
3.52518 2.25437 2.36429 192 119 98
3.55726 -1.0021 1.6936 210 132 84
3.90394 2.20279 2.30201 179 81 112
2.75871 -1.72124 0.95765 255 151 110
2.79436 -1.66779 1.33479 255 144 67
3.35404 -1.26621 1.58809 187 110 89
3.09434 -1.4507 1.37825 226 150 137
3.82382 -0.212078 2.13916 230 109 96
4.01121 0.012484 2.35677 217 155 99
4.06132 0.932642 2.40802 243 126 75
3.97224 0.665588 2.32219 237 169 114
3.79787 1.18727 2.59693 187 102 70
2.91366 -1.53066 1.23808 226 162 128
2.92153 -1.61413 1.33503 242 188 123
3.96015 -0.324165 2.42231 192 124 80
2.86994 -1.6559 1.42088 232 117 86
2.815 -1.68303 1.62363 198 142 102
2.91476 -1.85944 1.17637 80 37 53
3.97021 0.368294 2.25575 246 121 67
3.85947 1.09864 2.8592 168 80 51
3.58131 1.73407 2.75168 166 106 76
2.97431 -1.53036 1.29649 206 101 69
3.00533 -1.64977 1.62928 225 173 133
3.45507 -0.488817 2.85979 164 80 55
3.33299 -1.12877 1.91826 202 116 79
2.99813 -1.6075 1.20233 169 85 59
3.1468 -1.75583 1.56452 203 162 140
3.92985 0.319048 2.27303 219 120 85
3.48353 1.78365 2.94463 178 94 61
2.90845 -1.47694 1.35777 154 110 62
4.1666 1.52176 1.83152 216 125 72
2.97746 -1.64966 1.35335 255 214 187
3.9638 -0.329732 2.14269 187 99 92
3.09542 -1.7525 1.63866 206 152 128
3.67714 -0.557582 2.59687 204 106 56
3.51363 1.93731 2.81227 169 97 78
3.18483 -1.20847 1.80146 201 123 89
3.2562 2.31709 2.79668 232 113 78
3.75305 1.45383 2.95114 177 104 91
3.56162 -0.938983 1.64476 215 108 65
4.0209 -0.266072 1.95853 237 121 88
3.91542 0.498167 2.42983 255 142 94
3.74427 0.868259 2.92791 137 45 38
3.70211 1.48426 2.95277 205 128 97
3.63179 1.97822 2.77461 220 117 94
3.66634 0.217647 2.71472 178 54 0
3.52608 1.97587 2.93606 195 117 88
3.49053 -1.02072 1.67003 201 137 87
3.55185 -0.965419 2.38101 188 133 67
3.66355 -0.059172 2.52553 203 116 98
3.56993 -0.955378 1.66236 196 122 79
2.99632 -1.77614 1.62932 227 194 164
3.55854 -1.001 2.37174 169 71 44
3.59884 1.69162 2.70743 199 101 70
3.58764 2.36607 2.94969 174 95 75
3.58432 0.890673 3.04859 121 86 69
3.4973 -0.797523 2.17014 201 109 77
3.54531 -0.703557 2.55292 188 125 73
3.45115 2.51529 2.97851 201 83 49
2.57425 -1.75059 1.93289 176 92 70
3.28187 2.76636 3.28204 147 98 76
2.42401 -1.87944 1.70808 182 114 98
2.69852 -1.71208 1.615 214 142 96
2.46346 -1.91562 1.71249 246 161 115
3.02506 -1.71246 1.66283 255 246 210
3.55007 2.31539 3.26583 138 71 64
3.66171 1.27325 3.25866 185 90 55
2.98043 -1.65943 1.62832 255 171 146
3.73847 0.812105 2.90015 156 70 33
3.39611 2.5123 3.34722 111 75 65
3.77057 1.23205 2.84055 173 75 30
3.01232 -1.83019 1.73641 228 229 208
2.94624 -1.63195 1.60901 255 174 162
3.46096 -0.839834 2.74366 165 70 41
3.22005 -1.70639 1.84618 216 164 111
3.62547 1.90191 2.98665 233 154 111
2.92909 -1.72881 1.69584 199 85 58
3.50786 -0.658342 2.60357 172 87 53
3.31612 3.15168 3.31798 130 98 76
2.73844 3.18691 3.44281 163 127 98
2.66136 -1.92487 1.70272 255 246 212
2.8191 3.04438 3.60269 106 78 77
2.64235 -1.69052 1.65352 206 152 115
2.80636 3.16587 3.39882 147 86 68
2.5449 -1.95459 1.48953 251 176 101
3.14426 -0.0288768 3.46404 197 109 48
3.47056 0.724241 4.03936 189 89 42
2.8241 -1.74407 2.07352 165 199 165
3.46974 -0.660509 2.66226 198 88 46
3.41177 0.699898 4.18849 183 97 78
2.66556 -1.48152 2.06291 234 113 83
3.03482 2.6152 4.29297 176 65 48
2.38455 -2.09299 2.10602 249 186 141
3.09539 0.50611 4.22846 179 111 71
2.57213 -2.0003 1.75802 255 193 80
3.3939 0.784675 4.02143 184 93 65
2.41326 -2.0569 2.02953 255 179 123
3.38761 2.57933 4.11701 79 42 59
3.51638 0.868783 4.28439 186 92 67
2.41149 -1.94356 2.1509 127 98 65
3.6082 0.815289 4.26301 77 34 27
3.52093 2.38011 4.14811 153 83 50
3.12482 -0.176549 4.04959 228 127 114
3.45861 2.4111 4.10537 158 73 42
2.60008 -2.0916 1.86556 255 201 128
3.05969 0.64715 4.18741 177 98 92
3.30772 -0.155696 3.83288 224 156 102
3.01519 2.54386 4.42607 163 98 55
2.38099 -1.99539 2.00907 182 93 77
2.49594 -1.98352 2.04959 207 86 0
2.86413 0.651744 4.64663 162 78 67
2.71868 2.6764 5.20872 91 33 24
2.37914 -2.58264 2.45347 73 15 0
2.65914 0.845648 4.84341 172 101 61
2.54707 -0.415883 3.72334 214 127 107
2.34495 -2.09812 1.93544 223 134 101
2.20069 -1.88295 2.28149 163 168 129
2.27389 -2.08387 2.08156 225 95 67
2.33028 -1.98585 1.96869 226 119 77
2.31046 -2.0385 2.06318 182 90 60
2.66356 -0.59787 3.71455 209 119 71
2.77909 1.03708 5.04151 226 129 97
2.59989 2.85169 5.26554 117 53 42
1.35809 -2.50468 2.87378 208 115 74
2.36072 -1.99592 2.12373 181 79 65
2.34317 -2.03391 1.97543 248 124 78
1.32307 -2.39488 2.78304 201 139 91
2.24381 -2.0042 2.60155 255 126 0
2.51121 -1.86681 1.98839 148 107 62
2.01882 2.5449 6.32508 178 127 100
2.41202 -0.340907 4.65388 199 127 126
2.51946 2.70872 5.62213 106 55 24
2.54721 2.88786 5.31011 124 52 40
4.19808 0.210127 8.55217 88 33 15
2.34399 3.00938 5.44239 110 18 0
1.81726 -2.58993 1.99949 187 107 68
1.79194 -2.53828 2.65384 163 90 65
3.517 0.0919805 10.7226 0 36 47
3.60785 0.0997836 10.6196 0 26 35
1.56415 -2.50314 3.04528 107 57 90
1.54934 -2.48846 2.98591 125 80 87
1.84819 2.681 6.49435 123 73 50
2.70193 -0.0597803 10.5485 0 0 0
2.53269 0.900468 10.3906 24 33 26
2.00385 2.96816 6.1091 132 89 71
1.30388 -2.47857 2.86185 218 132 90
2.97981 0.823782 9.87802 49 40 46
1.59472 -2.52416 3.01193 136 94 81
1.70964 -2.54649 2.7757 137 77 57
1.44763 -2.5317 2.97693 167 89 37
1.55525 -2.51916 2.98392 146 101 102
1.74616 -2.39671 2.93925 88 60 53
1.59798 -2.53159 3.01144 124 87 99
1.47762 -2.43355 2.87712 152 88 47
1.65111 -2.47941 2.64576 132 88 66
2.27539 -1.69856 8.812 189 115 72
