ply
format ascii 1.0
comment Created by Open3D
element vertex 1323
property double x
property double y
property double z
property uchar red
property uchar green
property uchar blue
end_header
0.725924 -3.52396 10.4152 61 28 19
1.33272 -0.0963759 12.1689 39 34 31
-0.25005 -4.55681 5.36748 156 72 51
0.653113 -3.63707 10.458 63 37 24
1.21732 -0.310702 12.1271 55 31 26
1.46351 -0.713005 11.0962 47 34 27
2.44998 -1.56847 1.79641 167 93 71
-1.99919 -0.924725 1.47659 247 183 137
-0.554886 -2.547 5.07529 115 67 48
-0.794721 -2.09168 5.52299 140 78 55
-1.92695 -0.939245 6.26897 117 77 45
1.81102 -1.16653 0.969842 231 147 80
1.34052 -1.60665 0.925143 223 147 83
1.2431 -1.4755 0.922828 229 156 98
1.15545 -1.10566 0.723624 242 163 95
1.57272 -1.64933 0.698062 235 194 109
1.10797 -1.40134 0.969165 223 152 88
1.30401 -1.42544 1.16638 237 130 84
0.858758 -1.93398 1.08242 243 226 164
1.75213 -1.44888 0.948466 224 153 83
1.52356 -1.9443 0.706348 219 183 106
1.09131 -1.73127 1.05103 227 131 64
3.59285 -0.148422 3.38353 147 52 59
0.662794 -1.95638 1.09253 250 166 119
0.86479 -2.64356 1.54974 200 106 78
0.756798 -2.6531 1.42227 188 81 63
1.73815 -2.34445 1.35532 231 164 92
1.17539 -1.88546 1.50687 253 132 58
1.51212 -1.4296 1.1242 228 125 77
0.715604 -1.92258 1.06482 228 244 203
0.753061 -1.77754 1.09113 230 223 155
1.55633 -1.55998 0.675242 172 87 3
0.787859 -1.91332 1.08713 230 212 165
0.985667 -3.17808 10.4781 0 0 0
-1.54718 -0.970294 5.9604 115 61 48
1.18563 -2.60008 1.6546 216 116 80
1.51156 -1.08932 0.801192 227 133 71
2.35399 -1.73254 1.03255 255 255 204
1.4316 -1.12261 0.807334 222 138 73
2.15962 1.00127 0.677506 234 150 73
2.31428 0.612868 1.05287 221 111 59
2.17801 0.895554 0.846823 235 130 69
2.19463 0.714081 0.915115 229 127 68
2.23409 0.890261 0.770653 241 136 62
2.51058 1.07467 0.747818 243 116 55
2.77158 0.207532 1.05348 207 95 61
0.849992 -2.46168 5.88463 89 41 30
1.58755 -2.02088 9.55301 58 34 28
1.88171 -2.43914 1.018 255 255 238
0.784877 -1.66526 0.944241 226 252 185
2.19353 0.768203 0.50385 224 164 86
1.35704 -1.56241 0.899304 225 160 98
1.05411 -1.24291 0.679801 241 189 127
1.31281 -2.59903 1.27428 191 137 101
-1.38069 -1.47583 5.66751 120 75 56
1.92918 -2.32176 7.1564 144 71 49
1.29593 -1.35174 0.58422 189 102 22
1.78169 -1.82458 9.73083 64 39 29
0.520599 -2.59044 6.72559 86 48 34
1.72354 -1.10695 1.0725 223 145 94
3.51701 -0.234596 3.13855 147 77 55
4.08491 0.21425 2.80821 255 255 255
-1.47758 -1.71545 6.03246 162 104 80
-0.434294 -2.5183 5.0779 137 79 56
2.32353 -2.12018 1.13043 255 196 175
0.655345 -4.3031 3.83308 202 130 106
0.621326 -1.453 0.806808 227 186 116
0.562837 -1.37396 1.18649 211 115 79
0.376349 -1.97292 8.74035 64 43 37
1.43287 -1.53336 0.852902 210 154 87
1.73928 -1.32095 1.11024 231 154 107
0.60843 -2.08518 1.1561 255 246 134
1.37341 -1.63759 0.923169 244 232 189
0.780213 -1.84758 1.0874 227 200 143
2.12091 0.897674 0.740044 234 128 57
1.64245 -2.49074 9.02903 40 19 15
1.20403 -1.25621 0.811269 227 144 77
2.49335 -1.31588 7.70557 57 27 19
-1.30689 -1.4671 1.32251 233 149 101
-1.34331 -1.42084 1.35627 211 157 109
3.64649 1.51396 6.23764 118 76 43
1.6176 -1.30752 1.04416 222 121 73
2.10309 0.532534 0.860314 234 135 70
0.863698 -1.60067 0.991514 221 115 44
-1.60483 -1.18761 1.27158 255 170 127
-0.397321 -2.47687 1.68579 211 83 27
2.63007 -0.848787 6.11658 37 45 38
-1.58455 -1.47238 1.69745 250 135 86
-1.83375 -1.08064 1.67924 232 147 106
1.60443 -1.25751 1.22485 255 175 116
1.75473 -2.76187 1.05819 255 255 222
1.46496 -1.49158 0.825403 225 168 95
1.71455 -1.61642 1.4306 215 128 98
2.37413 -2.25213 0.780273 255 216 137
1.11306 -2.5043 9.2066 57 37 35
1.03963 -1.28625 0.665291 210 133 69
0.391118 -2.19883 8.78777 61 37 32
-1.93653 -0.697624 5.47138 129 76 60
3.06795 2.49875 0.859563 168 91 67
-1.79536 -1.35788 1.86979 240 136 78
0.941596 -1.27031 0.796427 233 183 118
3.19227 0.104132 6.21809 141 79 60
3.12682 0.114295 5.76502 134 86 66
2.23256 -1.4903 6.13488 168 97 68
3.41439 1.71619 6.74068 144 97 66
2.85173 1.00382 6.40061 0 0 0
3.04797 1.66926 4.91794 0 0 0
3.50811 1.38099 5.38409 59 0 0
2.46052 1.45934 7.22483 0 0 0
3.49291 0.250355 5.43938 92 51 45
0.511854 -2.28491 8.4086 67 45 38
0.809298 -1.416 0.834481 219 171 105
3.52923 0.637821 2.22799 134 69 56
1.60055 -1.08104 0.81642 240 145 84
1.88907 -2.6218 0.999736 255 253 136
0.694451 -2.22595 8.66659 60 39 33
1.03325 -0.976582 0.93183 255 214 147
1.61969 -1.63706 1.30843 218 139 98
2.95852 0.859567 1.30091 166 72 54
-1.33244 -1.69484 1.66246 227 105 39
-1.32126 -1.38085 1.52157 215 133 99
-0.267103 -2.64378 1.78163 233 129 79
-1.15387 -1.72725 1.5813 255 109 47
2.62342 1.16247 1.3347 180 93 63
-0.422054 -2.7191 4.44262 120 67 49
3.28635 1.01342 5.78513 64 0 0
3.20176 1.46807 7.01071 110 62 46
1.92877 1.57739 8.50209 61 32 33
3.02831 -0.82283 5.96748 50 27 0
-2.64578 1.62352 2.32839 194 135 83
-2.70144 1.78258 2.42503 190 127 76
-2.39422 -0.51486 3.11989 192 122 81
-3.02036 -0.40174 3.48212 219 249 232
-0.455578 -2.82208 1.95202 233 126 75
-0.77703 -2.30838 2.27608 252 157 57
1.43916 -1.13146 0.795479 223 143 75
1.29937 -2.10307 1.08741 220 117 48
3.17969 1.25963 5.3322 71 0 0
2.27009 -1.57752 1.26632 132 87 66
-1.75315 -1.1287 1.00235 255 221 178
2.44117 -2.23267 0.976701 255 218 147
0.820879 -2.26225 9.7751 54 33 29
-2.13913 2.47071 3.74879 243 106 51
-3.06472 0.959592 2.5552 241 136 62
-0.122145 -1.76479 8.82535 67 34 27
2.75955 -2.46586 1.22045 255 230 182
-1.72399 -1.19871 1.48149 235 144 106
-1.08481 -2.17659 1.40018 240 102 56
4.41126 0.723364 6.95268 0 0 0
3.67006 1.3479 6.29487 31 0 0
1.74066 -2.43497 10.2351 38 28 25
1.85517 -0.948278 0.989624 187 99 68
2.38631 0.891197 1.10025 213 102 57
2.85943 1.0437 1.22527 184 80 54
2.31151 1.17972 7.18066 43 45 40
-0.747929 -2.60372 1.69072 221 130 76
-1.36327 -2.16752 2.52417 232 128 57
0.470931 -1.82007 1.12335 215 113 54
3.42275 0.129591 2.54554 177 81 66
-2.63157 -0.801526 2.67136 255 255 255
3.23584 1.58931 3.67586 255 255 255
1.03409 -2.33893 8.99942 59 37 33
1.09576 -2.47791 9.18379 54 34 28
1.43042 -1.95202 8.29216 53 35 30
0.948167 -1.37935 1.40669 227 115 66
0.79734 -2.50866 9.20831 71 47 38
-2.50646 -0.104966 2.32064 255 174 127
1.20473 -1.38014 0.978427 214 126 65
-2.86274 -0.98248 2.76506 255 208 187
1.55619 -2.01476 8.52432 61 35 33
1.03828 -1.91332 1.63796 191 119 94
-2.84755 0.395445 2.80719 230 107 56
-2.87555 -0.665675 3.40289 227 195 163
1.01591 -1.47138 8.13589 56 38 33
2.73031 -1.47808 1.25467 71 52 44
1.39143 -1.17037 0.838935 214 125 67
3.24677 0.882345 1.62559 160 92 75
1.99995 -1.7654 1.13028 164 77 59
-0.805827 -2.46021 4.8118 95 51 35
1.84873 -1.33696 8.80127 48 32 29
-0.45441 -1.43024 1.08154 223 140 100
-2.64791 0.535875 2.66609 255 255 232
3.49167 -0.300529 5.78446 145 85 25
1.93698 -1.83051 8.10813 63 30 30
1.89318 -1.88546 8.24793 81 43 31
2.29579 0.569763 1.22591 226 104 60
1.75603 -1.95579 8.48191 89 44 37
1.03061 -1.78436 0.9904 215 112 50
-1.4544 0.110335 7.75952 60 37 35
-2.39335 1.29432 2.79474 255 225 191
-1.77683 -1.01457 1.0664 255 201 160
-1.76911 -1.08643 1.37659 238 160 116
-1.27756 -1.30012 6.11719 112 62 40
0.979021 2.73277 6.74705 151 103 58
-1.22694 -1.72962 1.59126 237 118 52
3.17676 0.672083 1.57728 177 99 67
3.62482 0.753244 2.27108 169 73 56
-1.41728 -1.18151 5.82265 128 78 58
3.31907 1.92574 3.41493 255 255 255
0.0507833 -1.96618 1.12373 225 117 60
2.77812 0.0407737 1.03625 215 102 83
-0.892743 -1.38255 0.745368 215 154 112
0.0972352 -1.63113 0.682087 228 198 128
-0.337524 -2.5703 1.52208 237 118 53
3.10501 0.0201222 1.79847 172 113 93
-2.40574 -0.874726 2.32429 229 134 96
-1.99586 -1.25835 2.62388 211 124 82
0.0845646 -2.38337 8.04575 75 48 41
-2.64169 0.082604 2.21197 255 211 154
2.0976 -1.32949 8.53225 54 29 28
-1.99327 -0.678622 5.25257 153 90 64
-1.13024 -2.0324 3.21379 202 133 75
-0.740292 -2.6921 1.89786 223 136 65
2.26794 -1.4995 8.56028 67 38 40
2.55875 -1.94328 1.41066 202 0 0
0.866357 -1.99467 8.42825 69 42 37
-2.47937 -0.664845 1.91551 255 255 255
-0.658207 -1.22649 1.08664 216 142 108
2.96134 -0.425026 1.61201 207 118 68
2.88461 0.639072 1.26943 190 91 61
-1.44827 -1.57642 6.39276 126 87 65
-2.55691 -0.420355 2.03765 255 167 112
1.18575 -2.80573 9.79303 57 33 31
-1.42357 -1.70891 5.81686 152 94 67
-0.140559 -2.77756 4.66815 114 63 51
-2.63615 0.161464 2.19714 255 226 178
-2.63018 0.0276616 2.30984 255 213 152
2.82126 1.61737 5.08239 65 16 21
-1.95591 -1.35543 2.59407 213 127 80
-0.907433 -1.55626 0.924519 214 151 106
-0.885125 -2.02116 5.71411 121 69 47
2.97697 0.0896478 1.72573 193 101 77
-1.62847 -0.390302 7.68058 52 34 33
0.386015 -2.50553 6.73057 98 58 46
-1.66929 -1.9919 7.68568 39 0 0
-0.864386 -2.00989 6.93798 114 64 48
-0.744434 -2.03852 7.36606 78 47 36
-0.29534 -2.06113 8.10642 75 48 39
-0.147273 -1.39761 9.28454 68 38 29
3.36695 0.605873 1.75087 255 242 210
-0.378896 -2.33256 5.6292 124 77 56
-1.82966 -1.02468 1.23198 255 227 182
-2.64563 -0.843774 2.72548 255 255 254
-2.81833 1.20304 2.47843 210 146 94
-0.989247 -1.99843 1.42931 230 118 43
-1.44178 -1.80514 6.66564 102 69 54
-2.516 -0.971332 2.5957 255 255 255
1.74912 -1.91249 8.01222 47 39 33
-2.7775 0.264742 2.15538 251 222 182
2.70658 -1.40731 1.59751 148 48 0
-2.74029 0.529587 2.74002 255 255 216
0.516052 -1.60234 1.03068 218 149 89
-1.31734 -1.65349 6.34593 111 55 27
-2.66355 0.0905591 2.33078 245 185 145
1.88518 -2.59438 10.5074 93 70 51
-1.26766 1.63768 8.1365 84 51 46
-2.27391 -0.840784 2.60076 235 137 90
-2.87464 0.134 2.00822 255 152 102
-2.95369 0.947274 2.62452 220 147 108
-2.10336 -0.873174 1.86383 255 167 113
2.15066 -1.89801 8.64595 99 44 37
-1.24019 -1.44233 1.36236 233 145 111
-0.23852 -2.36058 5.90216 129 80 62
0.791837 -2.44374 10.0752 51 32 27
2.75455 1.10113 4.65833 176 129 77
-1.59831 -1.97581 2.38349 216 111 70
-1.78343 -1.14704 5.46579 124 70 45
-2.89875 0.347033 2.01702 255 159 99
-1.54401 -1.8593 2.70983 252 147 63
-0.972583 -1.53567 0.903235 218 156 114
1.82791 -2.7996 9.83767 83 63 56
-1.13528 -1.8809 5.03298 122 80 61
-2.3058 -0.752937 1.91449 255 212 186
3.04576 1.13122 3.98483 164 100 73
-2.77303 0.206397 2.19205 246 243 202
-2.8891 0.0557788 2.03325 255 155 106
1.4042 -0.938631 10.5165 58 42 35
-0.600769 4.04097 2.56389 174 94 71
0.625324 4.25095 2.47932 164 108 69
-0.933947 3.15069 1.0798 194 122 82
-0.836349 3.21797 1.17389 187 121 80
-0.810385 3.13067 1.04224 255 228 202
0.552874 3.89736 1.80674 196 121 82
-1.18474 2.94487 1.20158 238 162 116
-0.884808 3.11555 1.09668 187 145 113
-1.08224 2.99378 1.42186 235 150 98
-0.976714 3.17477 1.41445 192 135 100
1.38658 -1.8991 1.44531 233 134 103
1.03767 -1.6487 1.08056 223 118 55
0.756976 -1.67719 1.03166 230 215 143
2.25095 0.997175 0.679999 235 186 97
1.63245 -2.30233 1.34842 229 156 87
3.05268 0.529122 1.82458 176 90 59
0.567527 -1.47563 0.854765 229 181 110
0.799828 -2.45523 9.11615 60 38 30
1.5996 -2.27129 1.04733 255 255 205
-2.75627 0.0518037 2.29967 255 187 134
-1.73043 -1.08185 0.943188 255 185 141
1.09904 -1.63395 1.04447 225 131 71
-1.1449 -1.40372 1.17904 223 162 108
0.979186 -2.84599 8.42025 63 41 40
1.373 -1.86957 1.49035 237 145 101
3.1496 0.853466 1.54113 144 89 71
-0.720441 -1.78922 1.10131 226 115 72
-0.876291 -1.78494 1.3758 227 106 74
-2.9432 0.853302 2.67445 226 129 84
0.983226 -1.51023 9.31847 59 40 34
-1.68511 1.04054 9.53889 0 0 0
1.71588 -1.54306 1.32483 224 126 72
-1.62859 -1.18742 1.22893 255 164 120
-1.63833 -1.27286 5.56517 121 74 48
3.2758 1.83612 3.14461 191 113 86
-2.61246 -0.989379 2.6284 255 255 255
1.05747 -1.74261 8.16506 64 43 36
-0.135887 -2.34208 7.34125 96 50 35
-0.287292 4.23666 2.54719 191 105 70
2.44054 2.26643 0.796499 164 106 77
-1.23446 2.96846 0.880947 188 141 116
-2.92817 0.773418 2.64224 229 126 82
-0.315788 -1.5055 0.973038 219 144 90
-1.86225 -0.987153 1.38051 244 172 128
-0.526328 -1.46619 1.09771 208 127 93
-1.54289 -1.69938 1.98633 206 131 93
-0.074495 -2.38177 6.96003 106 68 56
0.408968 -3.07585 7.80677 191 121 111
0.976326 -1.18367 0.773503 228 172 108
2.62621 -0.0404093 1.0941 210 107 74
0.480567 -2.39925 9.08731 66 31 26
-0.346423 -1.30232 1.0718 216 132 102
-0.240347 -2.35961 7.69516 80 49 41
-1.92882 -1.31 2.59864 213 123 81
2.56267 -0.179766 1.06097 203 106 64
-1.69163 -1.25481 4.70952 128 76 57
-1.05307 -1.95952 5.2091 120 75 56
-1.04623 -2.05044 2.14952 213 131 59
-0.956837 2.99254 1.24135 232 177 136
-1.0301 3.03134 1.0726 246 160 132
-1.01865 3.02942 1.08739 244 164 120
-1.30305 2.91864 1.02649 210 138 92
-1.02883 2.93453 0.906687 234 148 112
-0.881458 3.07216 1.36479 221 155 113
-1.0346 2.87483 1.19362 248 237 210
-0.899741 2.92697 1.61409 255 254 213
-1.31002 2.86966 0.920128 171 133 124
-1.49404 2.68688 1.09861 198 123 87
-1.09918 3.18038 1.2801 175 102 58
-1.12784 3.12498 1.46364 215 128 95
-1.00403 3.10868 1.42791 188 133 95
-0.654561 2.50996 1.96037 234 155 124
-1.51729 2.60691 1.23512 255 255 248
-1.48925 2.41687 1.31306 213 127 66
-1.43221 1.6874 1.91351 240 211 148
3.04666 -0.794486 6.4683 255 210 171
3.17516 -0.158443 6.06868 195 105 85
-1.02035 3.00829 1.01345 226 157 116
-0.616373 3.19601 0.734202 212 133 101
-0.931944 3.1836 0.857461 193 127 95
-1.31883 2.84134 1.01977 200 128 101
1.81537 4.0192 1.53274 227 135 99
-0.856785 3.07152 1.16437 255 255 218
-0.843034 3.1311 1.1967 206 170 143
-0.733176 3.28649 1.43972 241 196 139
-1.25863 2.78284 1.24034 254 253 254
-1.43473 2.45777 1.36918 219 149 121
1.53661 4.18043 2.90944 210 152 119
-1.52144 2.04577 1.60396 230 133 91
-1.50403 1.87691 1.77368 224 145 111
3.3727 0.308794 5.76589 148 68 52
-2.67236 -0.420893 2.10701 247 162 113
1.54068 -1.5929 0.83498 226 167 92
2.07848 -2.57523 1.00562 255 255 180
1.43976 -1.68749 0.874452 222 164 96
-2.69911 -0.667581 2.7028 255 255 232
3.15689 -0.144669 5.28517 114 64 41
-2.17644 -0.864042 6.01191 64 22 0
1.13013 -3.03186 10.1845 0 0 0
-2.52451 1.47357 2.84894 244 255 255
2.71888 0.416289 1.40101 163 83 54
1.36995 -1.06441 0.660632 219 124 49
-2.73792 0.425883 2.81821 219 254 208
1.25255 -1.79768 8.27691 52 30 27
-0.714033 -2.31452 2.09941 230 119 58
2.34011 0.730894 1.24827 212 95 53
3.25589 -0.416 5.55887 110 75 53
-2.69223 0.266963 2.05284 255 230 194
0.467108 -1.94089 9.19542 61 40 38
3.02814 1.18931 5.11604 128 85 46
-2.01707 -1.0727 3.04402 187 114 77
0.840023 -2.28544 6.82798 63 44 42
-0.844997 3.19851 1.19901 196 131 103
-0.893961 3.16621 1.2016 243 162 120
1.34725 -2.04986 1.90397 172 81 53
-2.49361 -0.995195 2.60117 255 255 255
-1.18954 2.9896 0.856015 216 133 97
3.13281 1.3821 3.65434 159 99 94
-2.03614 -0.960664 3.01283 195 115 73
0.968469 -1.30113 0.700414 233 181 124
-0.956034 3.06964 0.84505 255 246 216
-1.32884 2.73639 0.896263 231 225 206
-1.14008 2.95519 1.2758 255 255 247
-1.25911 2.85294 1.2998 225 147 101
-1.32281 1.76522 1.79822 234 193 140
-0.598253 3.17605 1.05738 234 181 162
-1.35068 2.86088 0.916436 213 130 99
-0.899696 2.93503 0.687793 225 135 99
-0.875373 2.93052 1.51984 255 249 222
-1.36402 2.65623 1.20947 240 255 255
-1.48546 2.4154 1.48981 226 148 98
-0.169508 2.35644 9.31323 14 19 13
0.226638 -2.29976 7.38866 72 43 37
-1.96835 -0.984019 1.67918 247 170 124
-0.0599214 -2.3136 7.13155 101 57 42
4.10269 0.143045 6.15238 68 48 50
-1.91809 -1.22011 2.62288 214 126 90
-1.91215 -1.51009 2.14048 233 139 95
-2.766 0.249041 2.19492 255 222 166
2.65092 1.53117 6.26745 116 71 52
0.708292 -3.57594 3.34283 88 20 3
-2.77385 0.37354 2.0937 255 237 186
-1.24047 -1.33169 7.55643 87 54 49
-1.44457 -1.76123 1.86564 222 116 72
-1.7545 -1.48304 2.71065 194 101 66
3.37787 0.0350975 3.33046 173 123 89
0.574238 -2.11897 9.45273 59 36 32
0.432814 -2.32278 7.23656 60 31 25
-1.97557 -1.03009 1.48009 255 169 126
2.44765 2.32928 6.02652 0 0 0
2.75662 -0.579782 1.19573 144 98 73
0.256597 -1.63063 0.878487 225 179 109
-1.17612 -1.41408 1.12362 205 162 113
-2.28782 -0.801424 2.61221 223 120 77
2.636 -1.15425 6.09475 118 84 78
-2.34179 0.501527 1.9541 255 255 227
0.685676 -3.03564 7.46093 50 40 31
-2.8957 0.283723 2.03405 255 172 106
-2.83746 0.0516482 2.00679 255 167 97
2.25709 2.2311 4.34267 181 115 91
-2.64963 -0.263349 2.00557 255 175 121
-0.984464 -1.39314 1.09162 217 169 125
-0.0675963 -2.36321 6.60092 91 59 49
1.52287 4.13158 1.45718 223 131 99
-0.414675 4.36227 2.19696 173 103 81
-1.40953 2.40819 1.3231 229 153 112
3.59842 0.568507 3.40125 255 204 174
3.1562 0.376745 3.38015 184 109 80
-2.08229 -1.42708 2.13267 223 142 90
2.53444 1.47275 4.70794 152 85 60
-1.47867 2.72061 0.960835 225 121 99
0.517992 4.30758 2.29969 217 129 82
1.19934 -1.91785 1.07138 215 131 64
-1.82982 -1.0847 1.78766 231 140 91
-0.995135 -2.32433 1.71183 229 119 49
-1.69634 -1.22551 1.40501 237 144 99
1.21417 -2.06081 1.89719 183 105 80
1.36435 -2.07593 8.82065 58 33 27
1.3428 -1.83796 1.54244 205 120 76
-2.74906 1.76237 2.43171 202 159 96
-1.01687 -2.05926 1.38647 214 88 41
1.64824 -1.84801 8.26512 52 37 35
-2.43877 -0.762322 1.9404 255 255 255
-2.54552 -0.115479 2.3474 255 178 133
-2.73829 0.203637 2.18647 255 226 182
-1.99406 -1.10964 2.52555 215 131 81
-0.926772 -1.83961 7.54637 65 37 32
-2.07695 -0.85405 1.78841 255 149 100
-2.43137 -0.309556 1.79381 255 255 247
0.687946 -1.4842 0.911243 221 168 97
-0.478025 4.44208 2.29212 206 104 76
-1.1358 3.16627 0.963464 200 101 64
-0.900618 3.2738 1.1877 177 106 74
-0.100742 -2.19092 1.24575 201 137 111
-2.13897 -1.04138 2.80181 196 110 79
-1.25273 -1.36289 5.68752 126 81 62
-2.40191 -1.17467 2.25825 221 122 68
-1.20101 2.76169 1.03211 239 228 201
-0.880223 3.09439 1.05919 255 231 192
-1.17272 2.78721 1.27343 255 230 200
-1.17688 2.7405 1.42779 236 215 198
-0.876523 3.07278 1.18363 242 208 180
-0.546203 -2.1946 2.06755 221 122 51
3.30155 1.24468 4.28357 150 96 69
-0.713336 -2.3327 2.27654 203 126 74
-1.08336 3.10931 1.0083 209 124 93
-1.61745 -1.54889 1.87383 201 126 86
2.38612 1.80055 5.57935 111 53 39
2.36619 0.328735 0.743965 234 124 76
-1.88512 -1.4806 2.46232 228 141 99
-2.89507 0.546632 2.06067 255 174 114
-2.74087 0.0289641 2.08406 255 184 133
-1.17102 2.67684 1.48362 254 238 218
2.88337 1.55382 5.79189 255 236 160
-2.25942 -0.669378 1.77993 243 168 127
5.00403 -0.601014 7.97198 22 0 0
-0.160373 -1.63504 0.801768 230 170 95
-1.54633 -1.86606 2.59304 219 111 65
-1.47032 -1.21002 1.2827 242 149 104
-1.44615 -1.87985 3.34403 195 127 74
-1.90854 -0.898497 1.36867 247 177 135
-2.7859 0.322398 2.23019 255 213 157
-2.26173 -1.04326 2.00785 229 117 67
-0.939049 -2.21902 2.32664 222 138 63
-1.72414 -1.49683 1.92163 215 130 86
-1.4983 1.59868 1.91731 255 183 122
1.0505 -3.4364 7.8675 160 100 77
2.76333 -0.821585 5.37082 160 99 75
-0.917871 -2.21604 2.45217 217 138 55
-1.7821 -1.27615 1.82333 228 122 90
3.24349 2.32769 0.874884 188 117 92
-1.54926 -1.30351 1.51886 218 123 91
3.57259 0.526638 6.6091 116 69 51
0.314919 -1.46546 0.577727 229 222 151
2.4916 0.372017 1.08576 206 100 66
-1.4184 -1.889 2.48969 243 144 93
-1.42122 -1.3361 1.26046 220 148 110
-1.41979 -2.02629 2.56909 238 136 66
-2.51893 -0.101638 2.33711 255 190 105
-1.56688 1.58069 1.87309 225 189 146
-2.49158 -0.40024 3.15708 196 121 87
-0.716763 -2.05385 6.00386 122 76 62
-2.40415 -0.811093 2.35423 220 143 95
-1.08273 -2.25467 2.46797 218 141 49
-1.85783 -1.45655 2.09104 232 135 92
-1.44229 -1.63863 1.89813 200 119 82
-2.22986 -1.25068 2.3034 206 112 72
-1.14353 3.09336 0.817081 189 107 87
-0.890741 -2.2747 2.35817 240 156 42
-1.46546 -1.95654 2.52008 216 105 49
-1.11058 2.75987 1.53832 255 212 169
-2.63307 -0.417449 2.11076 255 178 127
-1.82017 -1.11147 1.1525 255 201 152
-1.73998 -1.05322 1.2706 249 167 127
-1.58657 -1.16339 1.06804 255 172 133
-2.98195 0.828619 2.641 255 135 39
-2.09417 1.52275 2.58254 255 238 191
0.534874 -2.02339 1.35186 182 93 50
2.45293 -1.5701 1.74445 141 88 58
-0.548266 -2.13254 2.04767 202 123 74
-1.73058 -1.21298 1.42456 234 143 108
1.45628 -1.92848 8.25542 54 33 29
-2.98888 -0.633551 2.76413 255 237 184
2.88134 0.660971 1.29343 176 86 71
1.01554 -2.23397 8.84823 48 37 36
-2.64961 0.41102 2.76954 246 243 212
-2.70868 1.10372 2.47786 218 106 49
0.584607 -1.56645 0.994754 228 163 104
2.58961 1.05206 8.3453 67 40 35
2.2675 -1.73494 1.30698 139 5 0
-0.0396516 -1.67321 0.758339 224 188 107
3.06909 2.06195 4.06799 194 119 94
-0.852449 -2.17278 2.24726 233 141 49
-0.396366 -2.34 5.82901 121 80 61
0.485048 -2.17941 7.1281 52 32 30
0.743019 -1.44275 10.4275 56 36 31
-1.22697 -1.74303 5.83198 136 84 60
-1.80915 -1.05343 1.46743 241 170 129
-1.59588 -1.22399 1.20754 255 173 129
0.0839224 -1.93485 1.12344 229 119 76
-0.95822 3.18006 1.10414 187 126 100
2.51928 0.713665 1.16716 208 96 50
-2.38752 -0.746866 2.46272 216 145 97
1.89791 -1.38158 9.24273 34 29 30
-0.775826 -1.69557 1.00115 236 136 93
-1.34946 2.16748 1.75953 229 146 98
-0.847111 3.10107 1.2378 255 213 175
-0.741317 3.2619 1.19088 242 201 159
1.28804 -3.05142 10.085 59 36 43
-2.53158 -0.12525 2.3007 255 170 113
-1.08435 2.9855 0.872082 221 224 210
-2.38976 0.442075 1.99613 255 255 217
2.27726 0.523337 0.714362 230 125 73
-1.59638 -1.18921 1.06395 255 163 129
-1.60435 -1.27204 1.3749 231 141 96
-1.65633 -1.16532 1.20262 255 179 142
-0.557577 -2.21214 2.02452 203 106 76
1.59615 -1.98363 10.5802 68 49 44
2.8661 1.18098 4.90232 176 89 46
-2.37452 -0.661304 3.07243 192 119 84
2.33899 -1.47281 8.71845 66 33 32
-1.40386 -1.53006 1.76927 219 137 88
-1.95991 -0.977982 1.48148 238 166 126
-2.51364 -0.0844907 2.31688 255 184 105
-1.53512 1.71194 1.91586 242 195 139
-2.44365 -0.783212 2.652 216 122 82
-0.450326 -2.06902 1.62823 204 112 72
-1.74224 -2.8322 2.11682 255 255 199
-2.12466 -0.878763 1.79608 236 167 120
-1.00236 3.0905 1.6127 235 139 120
-2.45348 -0.568059 2.50686 221 139 93
-1.72323 -1.18423 1.8558 212 133 91
0.380477 2.0118 7.54206 88 38 26
-2.1408 -1.01845 1.89272 223 139 94
-2.83474 0.241168 2.06546 255 165 105
-2.43761 0.436544 2.57963 224 110 65
-0.854047 3.17716 0.902579 198 128 94
3.08015 0.349516 1.72652 188 98 66
-1.02235 -1.95727 6.87034 162 94 77
-1.36103 -1.68799 1.54896 214 105 70
2.39724 4.3485 1.7883 240 159 112
2.92172 0.145376 1.2052 133 73 111
-1.62039 -1.48096 7.22337 175 119 86
0.961304 2.40985 7.50577 67 48 45
1.436 4.13515 1.26087 154 85 60
1.42532 -2.51357 6.65232 78 35 23
-1.86764 -2.50543 2.59521 255 255 222
-0.879708 -2.23343 2.382 205 127 55
-1.64021 -1.34899 1.63254 227 144 100
-1.34655 2.81383 1.00844 208 133 97
-1.59631 -1.31718 1.63807 223 132 82
-1.62691 -1.43575 1.85798 209 126 82
2.88642 -0.391102 1.3464 175 112 81
-2.00558 -0.827416 2.58987 219 133 83
2.02763 1.27593 0.760571 224 109 52
2.67278 0.249785 1.17139 210 100 72
2.01468 -1.3948 9.55227 70 38 32
-1.45528 -1.66431 1.70772 213 112 70
-1.33968 -1.75919 7.43628 114 74 53
1.38001 -1.46452 0.973628 231 118 62
0.769871 -2.04536 1.09181 255 202 112
1.52453 -1.07626 0.642484 226 151 87
3.26009 2.39525 0.858727 127 46 23
-1.79573 -1.15257 1.18718 255 215 165
-1.9379 -0.969217 1.28909 255 208 163
-1.5633 -1.12424 1.18639 255 166 126
-3.02773 0.943668 2.58677 255 125 43
-0.762187 2.81773 2.02953 237 150 111
-2.62585 -0.841693 2.70697 255 255 255
-0.859529 -1.81734 1.12109 242 131 89
1.81623 -1.88067 1.55071 227 136 72
-2.11447 -0.958196 2.66354 200 125 81
-0.929184 3.21443 1.48943 207 131 99
-2.65942 0.15659 2.23351 255 199 156
-1.96863 -1.19976 2.99531 187 106 68
-1.08117 2.98642 0.821673 235 234 207
-0.865795 3.08127 1.61506 255 244 203
-1.33962 2.71203 1.43124 201 185 175
1.65672 -1.52956 1.31394 227 134 101
-2.68487 0.342423 2.23434 255 218 168
-2.80594 0.150861 2.20676 255 208 143
-1.11225 -1.44765 1.07614 211 161 117
-1.75789 -1.20425 1.18927 255 206 159
-1.60798 -2.02171 2.46308 225 118 65
-0.932931 -1.79579 6.03103 132 69 45
-1.29159 2.85204 0.853671 222 223 213
-1.33388 2.63862 1.22337 253 255 247
-1.78751 -1.2954 1.96307 216 124 88
-1.01382 -2.31641 2.32306 255 179 90
-2.37688 -0.839016 2.16826 219 142 90
3.2886 -0.0972052 2.12602 200 104 73
-1.48592 1.64765 1.90585 255 186 107
2.88084 -1.04234 6.01966 187 120 98
-1.69873 -1.07866 1.20994 255 202 160
1.90185 -1.76749 8.83341 81 46 29
-1.08759 -2.2494 2.46304 222 138 71
0.810704 -2.09016 1.54279 208 130 87
-2.40338 0.523412 2.56556 226 112 73
-1.3524 -1.7427 1.73946 202 106 58
-2.10281 -0.741069 1.92266 255 182 138
-2.44085 -0.265929 2.45912 231 153 101
0.666917 -1.53413 0.983156 222 159 94
3.5245 1.77977 3.77052 255 255 255
0.460212 -2.08607 1.36459 221 97 48
-2.68397 -1.18234 2.64195 203 126 81
-0.884947 3.07566 1.00535 197 144 106
-2.44347 0.457409 2.55105 208 117 80
-0.535797 3.32127 0.931742 201 128 93
-1.53701 -1.20605 1.37958 219 134 98
-1.41965 1.97361 1.81921 220 160 139
1.73733 3.97867 1.65776 224 145 100
-2.41749 -0.577557 2.48648 219 143 104
-1.37929 -1.93219 1.58587 229 111 53
-1.50804 -1.38882 1.65532 202 126 91
-1.32882 2.56765 1.40728 216 143 100
-0.989006 4.0912 2.91267 174 78 65
1.80138 2.3905 8.6467 255 176 85
-0.198502 2.18772 9.10511 78 54 37
-1.10713 -2.23745 2.47589 219 128 76
3.17386 2.44424 0.898097 180 81 66
-1.25343 2.83007 1.42692 219 142 104
1.01604 -1.73744 11.0644 80 59 42
0.862044 -0.926734 10.7477 52 35 31
0.862327 -1.44881 1.01368 218 124 68
-2.44917 -1.30159 2.54391 174 70 10
1.85544 0.346711 0.589972 255 255 255
-1.55684 -1.43812 1.76671 214 136 87
-1.46411 -1.43625 1.57391 212 137 91
-1.47242 2.14105 1.61062 233 161 120
-1.37777 2.45514 1.41268 208 149 117
0.26721 -1.41951 10.15 62 39 34
-1.57457 -1.30638 1.64199 212 135 99
-1.51633 -1.68974 5.23703 135 78 54
-1.87145 -0.148922 6.06558 125 83 47
-0.626038 4.17533 2.45009 127 82 68
2.07845 1.62725 11.0629 0 0 0
-1.86527 -0.19249 7.28159 93 60 53
0.460259 4.63303 1.18505 208 252 246
1.1094 4.21701 1.44942 255 175 100
0.786677 4.33939 2.21683 255 189 130
1.02275 4.38772 2.2788 255 194 117
-0.809568 -2.78827 2.05284 246 151 58
0.727151 -1.29537 0.389749 228 217 150
1.06222 -1.48563 0.680312 194 109 25
1.12412 -2.65758 6.78757 52 25 29
1.30204 -1.4567 1.02518 197 101 43
0.94325 -1.28944 0.541083 234 172 102
3.23439 1.40343 6.90682 109 68 60
-3.00105 0.884207 2.51533 255 129 49
-0.706893 -1.75607 1.16071 224 117 76
0.973062 -1.63889 0.842555 208 113 56
-2.74622 0.468807 2.82642 255 255 221
0.00757635 -1.95186 1.21362 232 110 74
-0.653393 -1.72175 1.0847 234 119 85
-1.76295 -1.07529 1.23627 239 170 130
0.802413 -2.19259 1.49497 217 114 64
-0.788 -1.83097 1.12548 243 145 101
-2.69884 0.230189 2.19489 255 242 196
0.820123 -1.42163 0.839855 224 163 95
0.201612 -1.90421 1.10723 230 126 65
1.5154 4.06244 1.45091 194 96 73
-0.713374 3.14992 1.15315 255 214 181
1.62104 -1.70873 1.41332 215 137 97
-1.21825 2.84492 1.21583 194 161 130
-1.8725 -1.00159 1.42585 235 168 125
1.86395 -1.51936 0.921136 210 108 43
-2.67582 0.416692 2.77085 228 246 192
2.37184 1.80864 4.93398 120 61 44
-1.53824 -1.73116 3.20906 216 118 46
-1.0231 3.07537 1.16533 255 159 131
-1.90204 -1.1417 1.85057 244 138 91
-1.68488 -1.16205 1.26739 236 152 107
-0.162812 -2.116 1.41243 251 132 40
-1.25682 2.69619 1.29581 239 211 174
0.190961 -1.52608 0.627405 229 208 143
-1.86344 -0.863469 1.19811 252 188 144
-2.44572 0.311081 2.02269 255 255 227
-1.83283 -1.16189 1.89516 229 140 95
-2.88754 0.841707 2.6306 217 134 97
-1.72249 -1.27154 1.64428 230 134 87
-1.25782 -1.90776 1.771 214 115 32
0.743289 -1.68137 0.943515 221 125 57
1.59615 -1.33598 0.742355 223 136 74
-1.39999 -1.91747 1.54881 214 123 49
0.837481 -2.75389 1.99508 211 131 90
2.52961 0.910564 5.76155 101 52 40
2.17711 -1.54525 8.51624 68 46 37
-1.70616 -1.23081 1.79643 212 132 86
-2.33962 -0.433463 2.287 237 138 102
1.51955 4.05879 1.45466 205 118 84
-2.39069 0.150221 2.13313 255 209 126
-1.39422 2.63366 1.11386 168 126 98
2.45018 -1.18792 6.0578 130 98 80
-1.33208 2.33419 1.5879 240 161 121
-0.228896 -1.51313 8.76268 70 40 34
-0.51782 4.39012 2.19971 202 128 82
-0.581695 -2.25191 2.11832 239 132 58
-0.405028 3.25018 0.859985 196 122 85
-0.240766 -1.84117 2.06087 188 80 53
-2.08715 -0.812777 1.8024 255 168 121
2.17893 2.04654 4.37253 147 83 58
-2.3375 -0.590285 2.37757 217 152 95
2.86401 1.48879 4.87319 71 19 9
-1.41613 2.44455 1.2318 181 136 109
3.6103 1.43751 2.14924 130 92 69
3.71424 0.793112 2.2405 98 76 72
3.62597 1.05305 2.40657 255 255 255
3.47767 1.07203 2.34961 107 86 80
2.99729 1.26569 3.32012 155 92 64
2.76741 1.90375 8.77078 198 134 95
2.24018 0.914553 0.775115 247 137 62
1.67332 -2.58785 9.12671 65 45 51
-0.877785 -2.26571 1.81302 216 115 65
3.00706 1.318 3.81383 171 59 44
0.506372 -1.75035 1.06373 201 103 57
1.43828 -1.42774 8.98785 56 39 32
-1.81295 -1.06961 1.40085 245 157 112
-1.7491 -1.16432 1.17973 255 190 142
-1.02023 -2.0808 1.33175 231 106 47
-0.747295 -1.83104 1.04809 244 115 77
-0.571926 -2.22095 2.0807 212 110 69
-2.61091 0.0983242 2.21332 255 208 153
3.40579 1.52817 7.24191 165 110 91
-0.873516 -1.85061 1.27362 235 125 79
-2.72266 0.07855 2.14188 255 204 152
1.15511 -2.55984 9.27879 54 28 19
-0.960601 -2.04655 1.41627 218 118 40
-2.72659 1.16794 2.61092 246 163 85
-0.62603 -2.23269 2.3173 234 129 58
2.73595 1.1422 4.60435 172 103 38
0.7481 -3.12294 8.20337 57 30 26
-1.00493 3.02357 1.01946 211 144 112
-1.26602 2.94917 0.889081 172 137 119
-1.30248 2.78974 1.13377 251 252 230
-0.846477 3.18112 1.45501 255 227 196
-1.26252 2.91023 1.3146 255 255 254
-1.69143 -1.08499 1.22146 255 183 146
-2.30471 -0.557632 2.26107 232 140 86
0.06809 -2.25096 7.14935 71 33 24
2.8272 1.21689 3.76491 183 107 76
-1.52185 -1.87547 2.57559 197 112 52
-1.2944 -1.43087 1.12465 223 159 115
-2.80229 0.34089 2.26958 255 205 175
1.18891 -1.86741 8.99283 56 37 32
-1.25653 2.66572 1.3389 255 235 223
-1.65972 -1.66045 2.39437 233 141 103
-1.5595 -1.32668 1.29512 220 142 107
-1.96458 -0.995941 1.72374 237 157 107
-1.75036 -1.3361 1.97692 215 127 93
1.88906 -1.82225 8.11673 47 29 27
0.615702 -2.45105 1.86196 205 89 38
0.610601 -1.23366 10.2561 63 37 34
-2.37844 -0.701511 2.33363 214 146 103
-2.44736 -0.400178 2.42116 243 142 99
-1.45993 2.21696 1.5819 234 161 118
0.726759 -2.05219 10.5991 82 46 36
0.477 -2.2373 1.38445 195 86 35
-1.16688 2.79158 1.32757 247 198 157
-2.84672 0.143581 3.00426 220 111 72
-0.312027 3.29746 0.908595 208 135 101
3.49493 0.635028 2.50823 239 223 206
3.40554 -0.750765 5.72243 255 255 255
-0.564505 -2.20137 2.09574 227 123 62
-0.989132 3.20557 1.38882 231 141 95
-0.91786 3.08594 0.969834 176 132 94
-0.701176 -2.35863 2.29692 217 137 55
1.80341 -2.27374 8.04259 70 38 27
-2.30962 -0.496661 2.2608 235 141 98
-1.57939 -0.274419 7.67569 59 40 38
-0.417016 -2.03354 1.98429 206 111 49
0.0447325 -1.04453 10.5327 59 39 35
3.72839 0.0868716 3.01868 174 106 80
-1.12474 2.80833 1.65213 228 149 121
2.04135 -1.54359 10.0571 56 37 33
-0.945402 2.95471 1.82517 227 147 116
3.27717 -1.02309 6.14226 255 177 148
1.39409 2.88978 6.45056 164 103 45
-2.32873 -0.746752 7.7249 255 255 255
-0.813006 -2.03041 5.60388 127 74 55
-0.544569 3.17748 0.917667 207 126 101
-1.10885 -1.85754 2.59801 213 120 62
0.4744 -3.10459 3.6535 166 105 84
3.05228 2.19381 6.40369 255 255 104
1.86894 -1.74068 10.0901 68 40 32
-0.781665 3.15434 1.71788 228 152 120
-1.07037 2.91209 1.69241 218 150 114
-2.32167 -0.505439 2.24208 236 135 96
3.2847 1.43609 5.63248 187 144 78
-2.3407 -0.820945 2.23726 233 149 99
1.35986 4.29034 2.34753 255 145 79
-0.501212 -2.40613 6.0061 131 73 52
0.220635 2.0985 7.48875 112 64 44
3.69861 0.647281 2.57388 255 255 255
2.71251 2.79693 1.64644 195 160 129
2.08565 3.95298 2.12941 255 255 255
1.21098 -2.43401 7.04169 73 53 50
3.36031 0.711723 6.01652 93 67 61
0.836608 -2.26823 8.83021 62 40 35
3.24139 1.58602 6.96432 116 60 50
2.4904 1.07788 1.16018 202 96 55
1.19429 -2.89244 7.1093 129 67 48
1.12824 -2.44702 10.2344 57 41 32
0.288349 -2.46429 7.68521 66 31 29
2.34247 -0.952814 8.76089 65 35 29
1.26282 -1.55262 8.19268 56 36 32
0.849136 -1.37094 10.3679 49 33 32
0.909731 -2.30388 8.78499 57 29 24
-2.44576 -0.446139 1.82957 255 255 243
0.456235 -2.5159 8.94455 108 62 49
-1.59692 -1.76875 1.85848 211 127 81
-1.0222 3.12379 0.892001 255 255 234
-1.22273 2.86836 0.874344 151 131 99
-1.08327 2.93027 1.11891 255 255 244
0.986716 2.58909 6.56099 131 68 34
2.37854 0.938422 7.09376 83 51 43
-0.331062 -1.87645 8.29334 64 38 35
0.654404 -0.949188 10.7784 45 30 27
-0.945365 2.74364 1.80696 219 126 88
-1.39707 -1.52186 1.3566 211 122 91
1.3133 -3.04079 9.41633 62 41 36
-0.869862 3.11342 1.82712 202 140 97
2.77903 0.298048 1.11417 203 93 72
3.11586 0.84279 4.55211 32 0 0
-1.18695 2.8188 0.955296 190 115 83
-1.19122 2.72212 1.37811 248 224 191
0.857299 2.25567 8.22884 75 54 44
2.52482 -1.03531 5.12181 151 86 65
3.36235 1.78513 6.86173 122 77 55
1.61341 -2.73406 10.8698 61 37 32
-2.18281 -0.618122 1.92567 255 150 106
3.78007 0.544353 2.6339 255 255 255
-1.83853 -3.0944 2.11376 255 255 255
-1.20843 -1.75256 1.54726 204 99 45
-2.85565 -1.19177 2.5282 196 115 94
-1.32662 -1.51157 5.48153 131 79 58
-1.27514 2.83067 1.28438 224 144 102
0.586436 2.29812 6.56416 87 73 55
3.63597 1.0546 2.40308 255 255 255
1.82269 -1.33564 10.0914 45 31 33
-1.10398 2.83742 1.60092 219 150 121
2.6939 1.76494 6.05548 155 137 52
3.7308 -0.270426 2.73837 153 95 91
-1.89157 -2.57847 2.42765 255 255 255
1.95619 0.278173 0.635417 221 90 39
1.35913 -1.71122 11.37 37 24 13
-1.36812 2.68678 1.34554 218 137 101
-1.48021 1.47869 8.14346 134 101 104
-2.31072 -0.668173 2.21997 236 138 88
0.567418 -1.87924 1.55345 207 105 77
-0.394904 -1.90918 2.20545 220 122 83
0.563958 2.06468 8.95733 44 22 27
-1.09047 2.94241 1.60183 228 151 111
-1.27999 2.71539 1.50641 229 147 112
3.58361 1.18714 2.27145 255 255 255
3.16676 1.54487 6.42587 93 52 46
0.921186 -1.37242 11.6858 58 34 26
2.57547 1.49139 5.25651 172 102 81
0.231046 -3.0334 3.72965 147 95 76
2.37663 -1.16942 10.581 0 0 0
-1.95454 -1.23782 5.01408 181 115 94
3.16524 1.41588 5.43119 187 152 80
-2.31321 1.3989 2.82879 249 219 175
-1.8367 -0.908786 5.89673 153 93 71
-1.17906 -1.99925 3.27567 211 130 82
1.22412 -1.05109 0.744203 236 148 86
1.55911 -1.62608 0.697852 233 185 103
2.02263 1.14853 0.547725 219 138 70
1.38179 -1.24583 0.89354 197 112 45
2.51685 0.751702 0.642135 219 208 91
4.24157 0.243597 2.84268 255 255 255
0.775062 -1.41468 0.893369 228 176 107
-1.90908 -1.17032 1.37265 255 210 157
1.39629 -1.45112 0.998284 201 111 51
-0.226712 -2.16308 1.86798 233 114 45
1.21819 -1.5142 1.01935 212 112 45
-1.63865 -1.41368 1.63063 238 134 100
0.96272 -1.28478 0.645725 222 175 105
-2.05132 -0.99812 4.72727 158 104 78
0.613919 -1.88298 1.12589 220 122 57
-0.999546 -1.7011 1.10826 250 153 104
0.47028 -2.22113 9.66704 54 40 38
1.78505 -2.37121 8.10775 75 31 24
-1.0159 -2.05314 1.41195 235 108 58
-0.433112 -1.97838 2.08447 231 130 65
1.74317 -1.62655 1.3383 224 129 70
1.53103 -2.00463 1.38835 212 122 85
-1.2101 -1.66906 1.02144 244 159 109
-0.823354 -1.76747 1.18666 232 107 67
-2.64277 0.0996036 2.21225 255 212 140
-0.686422 -1.75591 1.06892 245 114 77
2.64564 1.74991 6.1262 129 75 50
1.25269 -1.97594 8.43027 37 26 26
3.20771 1.10901 7.21062 113 65 47
-0.649341 -1.77153 1.09676 223 123 81
-2.11092 -0.996447 2.78869 201 112 77
-1.68166 -1.5855 3.39928 191 114 73
0.936005 -1.82476 10.7643 62 48 40
2.97505 1.1439 5.0738 211 255 115
-0.891198 -2.26057 2.4023 237 147 59
1.1421 -1.58645 1.00782 218 115 50
0.274641 -2.24987 8.78359 68 38 30
-1.59419 -1.33339 4.86525 133 78 60
-1.58085 -1.22085 5.73873 110 64 42
-1.00705 -1.70903 1.03993 246 147 96
-0.325608 -1.55079 0.971942 219 129 88
-1.02385 3.10429 1.16028 230 159 118
-1.28505 2.75574 1.2922 224 221 193
-1.22367 2.76685 1.47429 255 255 229
-0.393685 -2.14829 1.50944 225 118 48
-0.732034 3.31075 1.1232 185 129 114
1.37472 -1.43843 1.01694 225 121 62
-1.35729 2.95302 0.862325 208 127 98
-2.60731 0.134344 2.24939 255 207 164
-1.8453 -1.10846 1.80369 232 137 90
-1.92197 -1.23221 2.3894 224 137 87
-2.57386 0.439178 2.65206 210 213 196
0.766076 -1.47513 0.853833 221 167 98
0.318897 2.26505 7.67561 0 0 20
-1.48766 -1.10537 1.22688 242 150 106
-1.88866 -1.12893 1.76511 241 152 112
-2.21089 -0.85688 2.40445 215 133 85
-1.10683 2.78542 1.48025 242 180 152
2.89522 1.07162 4.99231 111 61 40
-2.56058 0.548258 2.45507 226 104 69
1.70572 4.01723 1.42097 193 98 66
2.71074 0.408012 1.13237 204 92 66
2.25834 -1.24434 1.11527 144 80 60
-2.16757 -0.82157 2.56056 223 138 95
-2.53459 -0.444707 2.36041 224 137 93
-2.40398 -0.495202 1.77735 255 253 205
1.79975 0.572387 0.394063 231 255 185
-1.43564 2.51123 1.20555 174 132 113
-2.36035 -0.751105 2.32466 215 137 102
1.876 2.14179 10.5713 0 0 0
0.601994 -2.69161 6.91623 82 41 28
1.13639 -1.92355 10.1925 58 40 36
0.162644 2.1781 7.25919 54 33 36
2.35296 1.2337 7.16496 75 59 50
-2.87968 0.754576 2.61112 219 135 98
-2.42236 -0.405979 2.39475 239 146 111
-1.96218 -1.02616 4.74339 122 72 47
1.35514 -1.77824 8.66744 56 37 32
-1.31572 2.7794 1.12135 255 253 235
0.667309 -1.66367 9.48549 60 39 36
0.429918 -1.73988 9.21879 59 38 37
-0.844325 3.20442 1.76253 233 151 114
-1.50572 -1.90193 3.33894 186 124 77
-1.13605 2.79679 1.47276 248 202 166
2.40284 0.927397 6.84944 86 68 51
3.56898 1.02043 2.36218 255 255 255
3.5719 0.753004 2.47666 228 214 199
-1.94382 -1.40731 2.59243 216 120 81
-2.27857 -0.841216 1.8004 255 173 122
-2.32873 -0.483677 2.27639 235 143 105
0.177042 2.21635 6.78112 118 68 32
2.85557 2.8571 1.94874 233 239 193
0.947558 -1.97943 8.72855 60 37 37
-1.95615 -0.936392 2.66334 214 128 81
2.37442 -0.582692 5.16381 176 103 78
0.674065 2.1813 7.67897 100 59 38
-2.36251 1.26708 2.80101 255 195 146
1.14382 -1.9179 9.43451 55 36 32
2.65876 1.47339 5.39105 178 137 73
-2.33904 -0.682349 2.2818 233 150 109
-1.33261 -1.6615 1.4913 194 93 64
-2.35272 -0.608382 2.31584 228 146 109
1.43311 -1.89177 9.66993 59 42 36
3.78235 1.00149 2.45114 255 255 255
3.55211 1.20097 2.26549 255 255 255
2.93544 1.70353 5.27595 66 9 0
2.66985 1.76364 6.05656 116 64 51
2.21998 0.872338 0.4893 228 199 118
-1.76056 -0.804612 5.61178 117 66 57
-3.02812 0.910047 2.4694 231 93 29
-0.979864 -2.06956 1.39047 219 109 38
0.837617 -1.3506 0.918325 229 135 74
2.02905 4.116 0.879107 255 255 255
3.05209 0.483226 1.58953 170 92 67
-1.98059 -2.80178 2.40445 255 255 255
-1.2332 2.88411 1.22336 190 134 110
5.72392 1.35551 8.40579 250 232 115
-0.350396 -6.20085 2.74383 142 0 0
-2.42743 -0.398441 2.39947 240 135 104
-1.44226 1.85877 1.6884 219 169 143
-1.56738 -1.42382 10.8341 0 0 0
-0.233636 -2.62535 4.79659 129 76 57
-2.53738 1.945 3.77261 255 105 54
-1.45863 -0.869969 9.05183 60 34 26
2.09154 0.977535 0.385888 231 251 156
-0.945352 2.53606 1.94754 232 147 110
1.10361 -3.06289 11.528 0 0 0
1.32479 -0.658477 10.8568 35 34 30
1.49499 -0.855329 10.6455 55 37 34
-0.837148 4.00669 3.09041 109 62 60
-1.01262 3.85212 3.83116 0 0 0
2.28438 1.20342 0.817347 208 96 65
2.88506 1.53656 3.33757 216 182 133
3.16627 1.29332 3.18059 213 135 93
0.615623 -1.78332 11.4118 56 32 24
1.18254 2.11183 8.91545 56 35 33
-1.27367 -1.77475 6.86281 87 51 0
-1.55074 -1.237 1.41762 220 133 97
-1.95513 -2.86788 2.47223 255 255 255
-0.0560387 -4.65299 2.20009 98 0 0
-2.42635 0.206305 3.11878 199 151 80
-2.63202 0.0864073 3.25545 214 138 83
-1.36253 2.50069 1.49514 241 150 109
2.70246 1.30573 4.12355 172 92 63
-2.32349 0.0745272 2.09609 255 212 119
4.2767 1.40874 11.1892 0 0 50
1.08865 -3.10718 11.5131 0 0 0
-2.2904 -0.119691 2.4705 253 157 112
-1.33583 0.412155 9.76817 17 6 8
1.72662 -4.9902 19.6994 0 0 0
2.24665 -2.52239 8.41805 110 81 71
1.56664 -1.45752 10.5405 53 31 25
-1.6995 -0.980359 6.26522 109 67 58
-1.49108 0.590968 7.51005 76 39 28
-0.339663 2.1101 7.45745 70 32 28
3.08725 1.42399 5.30962 205 176 88
1.04169 2.20202 8.36292 85 55 43
3.58368 0.735234 2.48119 255 255 255
0.957615 -2.53269 7.22658 87 46 34
0.612332 -2.69838 6.86459 120 74 54
2.42482 -1.00345 8.84795 55 27 32
0.947869 -1.93703 8.80771 60 42 36
-1.98439 -0.701481 5.6612 103 70 54
1.46001 -1.49588 1.02318 213 120 59
1.31318 -1.48613 1.04717 237 100 77
-1.88856 -0.653945 6.40029 77 36 22
2.14722 1.17013 0.818469 230 115 64
-1.01416 -1.80652 6.30111 117 67 45
-1.88306 -0.826591 6.02061 116 75 50
3.58551 0.47188 2.52956 131 73 54
0.923204 -2.38776 7.00563 53 31 27
1.84632 -1.20801 0.864567 202 117 71
3.99736 0.296609 2.81313 255 255 255
-0.54945 -2.65021 4.75229 133 77 53
1.70249 -1.40008 0.941128 233 121 80
1.67782 -1.48541 0.913013 213 116 62
0.741592 -2.82384 8.86987 63 37 30
1.38287 -1.44663 1.01006 228 107 72
3.14816 0.905642 5.93793 50 38 37
-1.96201 0.404903 4.11352 147 86 52
-2.61691 1.84384 2.41677 176 130 89
-2.57808 0.0344764 3.53357 255 232 196
-2.06097 2.71786 3.89332 226 105 51
1.66465 -1.35517 0.930393 207 105 50
3.26565 1.50434 1.71008 101 77 79
0.550788 -1.91814 1.06044 194 98 71
-1.07084 -2.44783 2.6274 210 159 90
1.09714 -1.52789 0.680329 221 126 67
-2.82 1.1083 2.53229 226 125 56
3.62295 0.150445 2.55886 141 89 61
1.16168 -1.53479 1.02264 228 129 70
1.25037 -1.63639 0.675658 208 100 35
1.37127 -1.66071 8.57234 64 38 36
-0.0409224 -2.13564 8.46291 55 36 31
1.51908 -2.23467 1.38378 227 135 71
-1.80574 -0.0138563 5.56864 104 52 33
1.82038 -2.48848 8.40087 110 76 69
0.813483 -2.50481 10.2021 54 36 30
2.70385 1.92144 4.50852 153 86 57
0.185374 3.81146 2.32753 156 85 66
2.19352 3.63128 1.14914 255 252 195
1.13678 -1.59331 1.00227 222 126 63
2.06593 -1.79486 1.87018 155 86 69
-0.952675 -1.93422 1.4031 205 105 34
1.33079 -1.62001 9.0609 48 36 34
2.08686 -1.48882 1.25677 125 70 60
0.934758 -1.72588 8.22324 62 45 40
-0.440058 -2.46918 1.71548 212 101 51
-1.05318 -1.89451 4.75582 145 87 62
-2.00165 -1.23861 2.64838 211 111 80
-1.21684 -2.42076 1.88082 214 118 28
-1.22069 3.13028 1.07753 209 154 223
-1.30831 2.59171 1.25557 233 218 208
-1.44344 2.59778 1.22114 255 255 255
-1.12262 2.85763 0.810738 235 139 95
1.01481 -2.12321 1.75773 139 93 74
-0.757615 3.29338 1.09517 203 122 97
-1.08976 2.93208 1.43858 255 240 212
0.0799538 -1.92074 1.15606 225 119 67
2.48817 -0.803642 6.00279 109 51 34
2.79841 1.22945 4.7585 151 105 52
2.56184 1.47494 4.72593 133 75 51
0.768708 -1.96317 7.44465 58 33 29
-2.73345 1.74379 2.39807 176 134 95
-2.31658 -0.699995 2.97656 200 117 83
-1.32603 2.70545 1.30959 229 209 192
-1.29551 2.55151 1.36557 248 227 210
-1.31803 2.72484 1.21332 254 203 168
-1.11744 2.90334 1.22181 253 218 171
-2.33372 0.406179 3.77009 162 97 47
-1.32083 2.76546 1.23157 206 176 164
-0.624704 -2.02745 5.83987 119 75 60
-0.435976 4.05726 1.90317 166 102 81
-2.43468 -0.0726749 3.48403 205 149 73
1.25807 4.20738 1.23123 150 104 81
-2.10548 -0.814322 2.57051 225 127 84
2.61518 -0.689961 5.47799 162 80 53
0.154131 2.29335 8.43563 19 0 31
1.43843 -1.49851 1.03226 211 118 57
1.62565 -1.50945 1.27221 208 108 51
1.80182 -1.59787 1.35959 223 129 79
-1.3801 2.66626 1.18809 255 255 255
-1.12872 -1.97827 2.61966 204 120 68
-1.49947 -1.77155 1.69407 203 107 53
-0.723782 1.92634 8.79054 51 39 41
2.54002 0.987224 6.54463 117 69 48
1.24328 -2.48277 7.08296 90 69 58
-0.630769 2.57417 2.09861 200 113 87
-0.0126346 -1.91639 1.24521 236 112 65
1.21486 -3.14719 9.55904 67 46 31
3.05982 1.19215 5.20526 157 88 58
0.552108 -1.08106 9.89516 50 32 30
-0.609024 3.90387 2.44459 140 69 57
-0.805385 2.92527 1.95773 220 126 98
1.43925 -1.85489 8.82801 59 36 32
0.345871 -1.25467 10.2358 58 37 31
-1.59362 0.440399 6.75321 127 79 54
3.59604 1.07305 2.35284 255 255 255
3.50122 0.761971 2.4077 250 255 254
-1.37906 0.273104 8.01419 15 13 23
-1.83718 0.206705 7.0829 113 68 53
0.48339 2.27643 7.84892 0 0 22
-0.915002 2.84867 1.84909 222 146 113
2.80945 2.93044 1.91422 255 250 216
0.886903 -2.57314 7.93951 60 40 34
2.70135 -0.22324 4.15514 165 112 79
0.854347 -2.26383 8.82119 54 36 31
-0.695107 2.98922 2.11221 217 145 103
-1.34861 2.58581 1.15734 252 241 205
-1.32291 2.70062 1.1607 227 224 196
2.57319 1.48766 5.26277 148 111 65
2.69141 1.17484 6.86797 0 0 0
0.253481 -1.82508 9.25161 58 39 38
0.640144 -1.87026 8.3597 57 37 33
0.555913 -2.47865 9.84681 57 40 34
1.63647 -1.49994 1.33328 205 103 42
-1.04052 -1.96615 2.0907 210 114 68
-1.46813 2.63984 1.26764 227 220 186
-1.67752 -1.31608 6.11764 119 66 47
2.98243 1.09242 5.09413 121 101 71
2.58864 0.786408 6.98432 100 66 51
-1.51466 2.43387 1.29069 174 140 112
0.730442 -1.06144 10.4459 55 32 29
0.41964 4.65825 1.0968 219 255 255
-1.31135 -1.89971 6.65462 113 77 50
2.165 -0.23899 4.19178 126 63 39
-2.38273 -0.0361095 7.40959 255 255 187
1.00398 -1.93081 9.40746 60 37 30
0.627099 -1.55162 9.24097 57 40 36
0.808577 -1.98846 9.35839 59 37 31
2.68436 0.830479 6.44171 49 26 26
3.46755 1.08265 2.39851 255 255 255
2.79583 2.98567 1.9112 226 189 147
0.632322 -1.61478 9.30839 53 37 32
-1.75036 -0.0763634 6.56821 96 51 41
2.09164 4.05756 0.791524 255 255 255
0.179182 2.06962 8.67505 43 28 32
-0.544544 3.29045 0.973287 204 123 96
4.20287 1.42473 11.2686 0 0 68
-1.71321 -0.907224 5.64846 118 68 59
-0.0870935 2.05289 7.41152 39 0 19
0.905477 -2.18619 7.90724 57 40 32
-0.879785 -2.00739 5.65624 118 70 50
3.53286 -0.21526 3.14267 157 95 56
-0.892781 -1.78161 1.45117 244 125 53
-0.401894 -2.0221 7.81534 63 38 33
-2.43423 2.01918 2.80504 193 185 151
-1.08429 2.83167 0.857199 209 136 98
-0.662764 3.10411 0.73016 199 132 89
1.97647 -1.8662 2.20112 171 107 83
-1.5484 1.94423 1.69396 227 155 116
0.987644 -1.52906 9.37055 58 38 33
-1.22137 -1.63251 5.68129 134 84 63
-0.743205 -2.05512 6.41141 114 68 48
-2.69711 0.985294 2.79078 223 141 95
2.55603 0.206157 1.42924 196 83 59
-0.13511 3.42546 1.36281 181 106 78
3.74753 -0.372081 6.20241 255 255 255
3.76892 1.30518 6.09665 200 160 83
2.27651 -1.71404 9.01241 150 88 56
-2.35566 -0.221428 3.07762 201 155 84
-1.72077 -1.51851 2.63131 211 123 80
1.59875 3.92369 1.76428 236 147 103
-1.48208 2.70684 1.17642 203 149 120
3.69463 0.772773 2.31392 175 85 54
0.834538 -3.21591 9.60354 80 59 45
-1.18383 -1.66039 6.55888 121 69 47
-0.149193 -2.13073 1.8341 210 87 43
3.39467 1.14739 3.9446 255 255 255
-0.678281 1.82222 9.74267 55 50 18
2.26917 1.31619 0.898032 212 93 63
4.22239 1.42004 12.5704 0 0 0
2.51069 -1.02137 9.1178 68 43 32
2.83859 1.54381 6.67468 144 88 61
1.65398 -1.47585 8.92963 39 28 25
0.771776 -2.58273 9.22539 56 33 28
0.475308 -2.15032 8.84499 63 43 33
0.977621 -1.49425 9.28613 48 33 30
0.529076 -2.22119 9.60102 61 38 39
0.552098 2.23681 7.76311 43 0 24
-1.33386 -1.77039 6.17116 111 77 61
-1.44683 -1.55845 7.00328 179 115 84
-2.77178 1.36953 2.33022 210 141 89
0.182618 -1.94751 1.11855 222 112 47
-1.86241 1.67175 5.23313 143 85 62
2.58779 1.18268 6.62333 49 0 0
3.05555 0.411031 3.75422 155 91 71
3.32454 0.795659 2.33007 152 71 63
3.47181 0.671166 2.34384 253 255 255
-0.294521 -2.10074 8.01093 79 52 42
2.98273 -0.617306 9.12707 23 10 7
3.29035 1.44309 5.70442 104 72 58
-0.265184 -2.25306 1.90342 215 95 42
2.84888 1.22546 6.10314 117 78 59
-1.77027 -0.901717 5.95652 108 55 60
2.1659 4.21956 0.774625 228 164 151
1.00236 -1.56469 9.47651 38 26 24
3.42346 1.19526 2.21986 137 74 59
0.0212264 1.92355 6.81331 85 39 26
1.84554 4.22616 0.58022 244 170 122
3.59328 1.4151 2.28386 160 80 49
2.01628 1.03586 0.56531 229 193 106
-0.347057 -2.05746 7.9513 71 42 36
1.04722 -2.34971 10.2328 0 0 21
1.51868 -1.98694 9.26145 65 39 29
1.11696 4.30423 1.05084 197 112 67
2.80993 -1.07519 8.00756 93 51 31
2.27716 -0.0173022 3.98372 162 86 59
-1.29092 -1.34219 6.89333 107 77 61
2.51375 -0.244589 3.99758 119 65 48
-2.42256 2.27438 2.76499 221 160 129
2.55048 -4.99022 16.2838 0 0 0
0.902936 -1.68327 2.19437 239 99 70
-2.36793 -0.805048 3.07425 192 119 81
1.79188 -2.50452 7.74475 76 40 30
-0.952139 -1.79456 1.44815 238 108 68
-0.74596 -1.73971 6.35189 112 59 41
-1.74542 -0.890459 6.11169 151 89 67
1.23642 -2.92416 9.93343 60 44 37
-0.986811 2.8381 0.789914 203 143 108
-0.393934 3.1445 0.908146 212 131 93
1.6862 -1.74996 1.6301 154 100 83
1.19833 -3.42809 8.78372 196 133 97
2.06198 1.10284 0.599584 223 226 114
-0.782426 -1.64693 7.18445 79 50 44
-1.34826 -1.55788 5.21951 132 78 58
-0.19935 -2.10535 1.4224 207 104 68
0.138157 -1.44653 0.423689 229 224 154
-0.4108 3.45036 1.24283 210 136 99
1.99842 -1.30124 9.34347 42 24 22
3.63487 1.49034 6.16316 128 90 43
3.0381 2.1072 1.31613 143 42 23
-1.73449 -1.53836 2.61823 199 111 74
-1.2918 -1.37232 8.55488 77 45 38
-1.12559 -1.27766 9.04689 66 41 32
1.77888 -1.59772 1.22769 199 111 76
-0.457351 -2.21127 2.49423 213 109 60
-1.47492 2.8205 1.02267 205 140 113
2.93226 1.91874 6.71673 255 182 135
3.06578 1.90928 7.06517 255 189 169
-0.40369 3.33857 0.989063 206 128 92
-1.71818 2.93165 4.05761 206 105 61
