ply
format ascii 1.0
comment Created by Open3D
element vertex 1384
property double x
property double y
property double z
property uchar red
property uchar green
property uchar blue
end_header
1.73655 1.51416 9.17502 0 31 41
2.16271 2.05002 8.54147 100 98 95
-1.05834 5.00766 3.55388 112 95 65
2.1127 2.01145 8.85933 110 92 88
-1.07973 5.41036 3.47254 113 54 35
2.41375 2.21582 8.60746 26 0 0
-1.58763 4.72831 2.44673 124 76 61
-1.41187 4.71852 2.48181 167 121 97
-1.11662 5.51805 3.56875 146 110 119
-1.2972 5.43528 3.32003 130 93 81
-1.70253 4.94977 2.73319 154 117 96
-1.43264 5.3396 2.78062 201 158 152
-1.92954 5.12174 2.80458 205 128 130
1.41246 1.29103 9.40098 142 68 46
-1.19001 5.77583 6.7651 228 131 106
-1.60231 5.28155 3.4089 228 178 147
-0.393183 6.05096 7.80016 200 157 141
-1.73495 5.35761 4.36644 64 31 45
-1.42008 5.60233 4.22237 13 0 0
-1.54178 5.68413 4.33976 90 34 48
-2.30038 5.91854 4.00022 124 128 113
-2.07292 5.79566 3.32458 181 121 104
-2.34174 4.67841 3.11259 136 79 63
-1.6181 6.14713 7.21103 255 218 174
0.854917 2.46165 10.5035 159 78 63
-2.66321 6.1594 8.10718 172 96 82
-2.63748 6.57896 8.07887 183 135 105
-2.73881 6.45403 8.01638 161 125 102
-2.89781 6.66448 7.71832 94 52 30
-2.65205 6.5182 8.35871 167 124 92
-2.8767 6.63264 8.19475 127 94 73
-2.64022 5.99584 10.1663 40 13 11
-2.90365 6.70749 7.79413 109 63 52
-2.1917 7.22591 10.0621 0 0 0
-3.01406 7.32832 10.2966 0 0 0
-3.63801 7.24949 7.19625 0 0 0
-3.51048 6.66254 5.47284 65 21 14
-3.29914 7.1439 7.67106 81 52 42
-3.53689 7.47868 7.5037 82 51 45
-3.46823 7.33571 7.25631 26 5 0
-2.98867 7.33278 10.2014 21 15 0
-3.07256 7.34378 10.2968 0 0 0
-2.13909 5.49127 12.5373 64 50 38
-1.88437 5.17502 12.086 36 18 18
-3.17588 7.59275 10.8047 0 0 0
-2.67206 5.42997 11.8066 91 87 89
-3.19327 7.61199 10.6444 0 0 0
-3.46938 7.54638 10.046 0 4 9
-3.44303 7.28798 7.29565 77 47 50
-1.92904 5.10035 12.6669 93 76 63
-3.26955 7.62141 10.536 0 0 0
-1.41536 2.48283 13.3214 0 0 0
-0.39101 -1.25318 2.27321 255 255 255
-1.6306 -0.660279 2.54721 255 201 173
1.7374 -0.66431 2.26394 255 206 196
1.94268 0.0525453 2.82438 255 255 243
1.84809 -0.253805 2.16589 255 210 189
0.209976 -0.720415 3.21202 215 236 147
-2.49727 6.24731 7.55172 41 0 0
-2.26103 4.81876 4.62527 107 69 49
1.00603 4.43913 2.52517 166 255 255
0.308736 4.32284 1.18884 181 217 182
2.29289 0.483684 3.33328 255 255 255
0.58934 -0.378402 2.91869 208 123 98
-1.67283 -0.361179 2.73534 255 174 214
-2.40344 4.89874 4.31164 125 84 69
1.67759 -0.558144 2.50079 255 255 220
0.534194 -0.70241 3.94038 197 208 174
-3.59124 5.56037 7.77054 0 0 0
-0.322554 4.08205 2.22606 160 141 101
-5.87002 6.37145 5.78011 255 167 140
0.88513 3.11723 10.7659 255 179 141
0.271366 1.93465 10.2854 43 32 28
-2.86876 5.68289 4.80427 242 184 135
-3.36189 0.966327 7.63039 255 255 255
0.16843 4.05528 1.52117 155 171 144
0.456533 4.49372 2.44091 181 255 255
2.17409 2.73494 6.28799 91 67 62
-2.81846 4.55936 5.70623 137 81 65
1.39507 0.348413 2.87543 209 136 111
3.28814 3.18125 5.24661 255 255 255
-3.29771 0.98601 7.40338 255 255 255
1.10424 0.042625 2.79755 246 157 126
1.05414 4.20803 1.05123 173 151 120
1.38462 0.241901 2.86705 244 152 115
1.06172 4.81927 7.41449 87 45 40
-2.68334 0.817645 5.73079 111 56 44
-1.07482 -0.89195 2.78434 255 144 131
-2.67045 4.24239 4.75416 107 66 49
-3.39911 4.18323 4.08577 133 53 48
0.416481 3.97747 1.29819 185 162 133
-2.00116 4.98218 5.73479 80 34 32
1.92162 0.0147098 3.16221 189 81 46
-0.183653 0.330869 6.51118 74 41 38
2.01451 1.79063 6.63898 72 46 39
-2.78096 4.25259 3.36643 129 84 67
-0.000920657 -0.809601 3.47436 196 179 138
-4.24926 7.13139 3.33642 255 239 235
0.750328 -1.1767 3.12789 255 237 187
-2.96314 4.54743 4.53918 113 70 60
1.92412 -1.05254 2.78606 255 175 115
-6.01404 0.445092 6.84073 255 255 255
-3.32473 5.1406 3.75276 171 115 88
3.13485 2.91722 3.37783 198 173 128
1.94065 0.529159 2.70835 152 84 66
-2.35226 4.64997 4.0826 115 62 53
2.12572 0.202193 2.59843 215 130 120
-1.00541 -0.88981 2.68104 255 169 152
0.172819 3.76847 1.81997 159 149 125
0.182647 4.84944 4.81216 91 64 48
-0.273133 3.85969 1.69119 158 143 126
-3.43045 4.08051 3.37044 87 35 24
1.08269 1.26959 8.41489 156 140 126
1.50015 -0.660041 2.34595 211 114 84
1.21884 -0.260261 2.75723 253 185 144
-1.18867 5.70321 6.11016 49 21 14
2.57752 2.9084 4.15874 162 120 85
0.337266 -0.433915 2.86822 227 134 106
1.60305 4.06473 2.76037 145 255 255
-3.53303 5.34391 5.66084 255 218 179
1.65124 0.130074 2.92652 197 134 104
-3.37823 3.18634 4.80739 86 47 41
1.64764 -0.485127 2.52066 222 155 126
0.145614 4.82024 2.77137 199 123 82
-3.42226 4.09946 4.53277 108 47 33
-1.04239 0.950288 8.1771 83 47 39
1.33245 4.29256 1.40193 165 197 199
-4.05707 3.71529 4.90617 154 92 70
-1.93758 4.99772 2.9269 149 88 69
-3.8411 5.86504 5.29983 255 255 255
0.356023 4.12052 1.34146 170 168 138
0.479856 0.883068 7.17142 126 70 55
2.13267 1.92411 6.59085 98 51 41
1.98657 2.56075 7.01064 82 47 42
0.320305 3.74529 1.62501 161 134 116
1.12801 -0.909078 2.40614 255 152 128
-6.00367 0.446851 6.83575 255 255 255
-2.20006 4.93145 3.60112 121 59 48
-0.411922 0.980301 8.32454 78 41 34
-0.613467 0.853279 7.90521 95 54 44
-3.07749 4.07865 3.11949 112 69 54
-0.420222 0.77411 7.8597 103 60 51
-0.795163 4.57615 2.1295 124 193 179
-3.05974 4.82972 5.81178 94 46 37
-4.03911 4.41716 6.0766 166 117 99
0.551636 0.917303 7.04252 82 48 41
-1.78229 0.4749 7.33652 65 45 40
-3.18534 3.76141 5.21227 123 74 50
-2.44605 4.61294 11.3938 18 29 27
-5.97456 0.398262 6.73301 255 255 255
-2.85723 4.6457 5.83697 59 0 0
1.33103 3.72174 2.2676 162 175 152
-1.23756 -0.742115 2.54125 181 118 133
-2.1669 5.19706 5.92249 229 162 155
1.73006 1.21668 7.29878 165 89 64
-2.32795 5.51476 6.19055 133 94 88
-2.50952 5.19053 5.85773 178 157 146
0.438054 -1.08896 2.70705 31 134 152
0.648498 4.10864 2.05274 160 100 68
1.9033 0.15118 3.07063 95 58 53
2.05642 1.78824 6.58617 113 59 47
-3.4611 5.19618 5.56438 195 169 136
0.951727 -1.04936 2.97304 255 233 218
0.112811 4.78763 4.89584 98 54 34
-0.45749 0.809097 7.37368 91 53 49
0.436536 -0.754058 3.46622 224 255 255
-2.93322 4.52555 4.21381 150 101 82
-0.742663 4.11074 2.07942 146 52 49
-1.33878 4.26971 2.24308 49 0 0
-2.90156 -0.0881329 4.69048 136 81 77
-0.21986 4.31574 1.97096 123 150 181
-0.188791 0.350546 6.25577 81 53 44
-1.56899 1.12495 8.08845 89 52 42
1.25376 -0.476873 2.62811 248 151 116
1.65515 2.01137 7.16767 86 48 40
0.323699 -0.729235 2.97812 248 242 192
-3.71304 4.99504 5.06849 84 52 44
-2.68282 1.69326 8.04717 51 36 31
0.971304 -0.516152 2.66554 245 193 145
0.145009 4.83334 4.83063 97 57 39
1.37534 -0.759002 3.03544 168 175 179
2.04748 1.77227 6.58224 102 55 48
-3.07775 3.417 5.0741 123 77 62
-0.347078 -0.700294 2.63737 255 216 181
0.522448 0.829541 6.60801 98 60 48
0.856452 -0.245445 2.8681 220 135 113
-2.55739 3.93272 3.80825 134 95 78
0.141423 -0.489656 2.8404 255 154 123
-2.04654 5.52866 5.99313 71 41 31
-4.15881 4.18548 5.7063 207 183 166
0.165277 4.07667 2.16833 153 147 118
1.54063 1.41784 7.44171 110 62 55
-2.6809 4.37099 6.08332 99 58 50
0.199827 -0.807962 3.01626 255 178 119
-0.701598 3.95399 2.16858 182 110 91
-1.25933 -0.764204 2.46932 215 136 120
-2.47764 5.11362 3.77747 196 156 132
-2.95977 7.09045 6.37885 184 176 152
1.6773 3.75749 2.93968 124 255 255
1.46847 2.9794 8.48438 83 43 34
3.09077 2.19297 4.6546 121 77 60
-3.88447 7.9157 9.75558 0 0 0
-3.18397 3.81329 5.50862 106 45 28
-6.13856 6.53503 6.02346 110 54 47
-2.5105 6.19911 7.10418 119 98 79
4.12735 4.563 10.724 0 0 19
-1.55804 5.77344 7.02659 45 19 0
0.983239 4.73718 2.31258 233 255 255
2.76899 2.44834 6.15162 114 62 55
-6.51906 -0.0522979 7.45211 0 0 0
-1.38316 -1.34941 2.56034 217 101 43
-2.04739 0.167658 8.17611 90 57 49
1.01255 4.66682 2.62875 180 225 182
3.06767 2.96349 11.7807 0 0 0
-1.66489 7.08062 5.98886 0 0 0
-6.51192 -1.72569 8.07963 0 0 0
-2.64037 1.81267 8.02341 53 33 27
-3.75299 7.67468 7.54197 188 116 0
-1.54433 5.53866 4.57554 97 67 47
1.89723 1.91519 7.58539 113 66 55
-0.582403 6.70757 6.1883 0 0 0
2.39572 2.97047 5.74981 112 61 44
2.05315 -0.00661896 2.74725 155 70 87
-1.78185 -0.0665735 3.12201 219 153 126
2.15535 1.02333 6.42237 68 32 35
0.0381833 3.89772 1.60548 167 143 109
-3.6045 4.08474 3.70888 90 48 40
0.709863 5.32103 7.30347 85 52 39
0.49013 3.9242 1.29758 165 119 102
-2.33591 9.40855 6.914 0 0 0
1.62465 4.11198 6.0303 116 68 55
1.21395 -0.245381 2.88027 255 243 195
-2.91523 2.53903 7.4694 72 39 33
-2.22593 9.51877 7.11158 0 0 0
0.141124 4.95775 6.76544 83 45 40
-3.09778 2.73725 4.01824 90 45 35
-2.07147 5.49073 3.34596 153 89 78
2.81093 2.52658 7.67828 229 166 145
1.33353 -0.536816 2.59356 255 156 114
0.345723 5.40778 2.95338 255 255 255
-1.67565 0.327961 6.11919 118 66 50
-3.27598 7.72024 3.31927 184 178 174
-1.57811 -0.466991 2.74483 201 114 94
-3.39117 3.63291 5.3266 158 104 70
-3.71478 4.81396 3.8995 103 79 60
-1.54495 6.37755 8.54339 13 8 0
-2.90135 0.599192 5.70036 80 39 29
-3.21226 3.47991 6.17418 66 33 28
-1.68446 2.58843 16.7482 0 0 0
-0.835562 4.82187 4.43435 115 66 39
-2.11651 5.32211 3.08556 183 115 95
-0.277318 4.77012 2.45603 142 112 93
-5.74202 0.167163 7.17116 84 0 0
1.39718 1.81698 8.76467 54 16 11
-2.96835 2.97741 10.8623 25 0 0
-0.827934 4.27731 2.06293 135 115 93
-1.36253 2.5517 16.3071 0 0 0
-2.79416 2.68814 16.0497 0 0 0
-1.36695 -0.371338 2.5349 241 184 153
2.54305 2.27079 6.28939 96 50 39
1.23915 -0.4703 2.5778 255 181 145
2.21197 2.66932 7.26621 128 55 43
-0.253269 4.53165 2.62832 143 64 64
-0.906126 1.61303 10.5552 53 34 28
2.18695 1.27499 6.95964 113 47 33
-2.49115 2.99785 10.7705 25 13 13
0.57411 -0.808762 2.63636 255 172 135
-3.72664 3.2196 4.43998 91 44 29
0.299307 3.81532 1.90034 164 138 119
-3.53433 7.17941 8.87493 0 0 0
0.197429 6.03293 8.97262 255 192 175
0.324619 3.83068 1.36268 141 89 72
-0.559816 3.93374 2.09951 149 144 115
-1.72712 4.79526 2.59532 127 90 75
0.378654 3.59016 0.948844 180 128 105
-3.44731 4.67331 6.8343 44 25 21
-1.25179 3.80916 2.0165 164 118 93
-0.407919 5.0357 4.18799 59 19 0
0.124299 4.31152 1.95052 169 115 86
-2.7708 5.6692 4.3386 150 99 90
0.240859 3.73979 1.32697 158 105 85
-2.48271 4.77875 3.07739 147 83 67
-2.94573 4.30587 2.74874 120 85 65
0.724657 0.865858 9.82754 77 45 42
-4.06998 9.74078 8.02813 0 0 0
-2.62052 7.84408 3.30781 174 94 63
-3.0139 4.42991 8.97086 47 31 28
-3.93368 6.0803 5.68528 255 190 128
0.159935 -1.31565 2.44099 237 199 169
-2.13052 2.01853 16.2367 0 0 0
2.60388 2.86018 4.69593 147 87 64
-3.4299 8.47964 6.83583 0 0 0
-1.38953 2.56667 16.6574 0 0 0
-3.76528 7.20215 3.2434 105 56 63
-2.98361 1.50659 6.79103 99 40 28
2.70364 1.40329 3.30122 155 108 86
2.33138 2.53191 6.32813 124 72 57
-2.84986 1.49986 6.74512 82 39 28
-1.91179 4.88818 2.62585 123 64 50
-3.09655 6.59928 7.95192 0 0 0
-0.157725 5.43415 2.05796 149 255 255
0.198492 1.83099 9.98022 53 28 21
2.08925 3.00802 2.09671 161 89 74
0.46207 -0.629157 2.94395 255 195 198
-0.780439 -0.999896 2.68796 253 192 148
-6.22737 7.98568 5.57234 116 0 0
0.0953562 -1.20257 3.79911 255 255 255
-1.07703 -0.864989 2.71766 255 152 123
-4.15963 2.5019 5.17306 89 67 47
1.10984 2.64736 9.63 53 33 26
4.40986 4.03287 9.29399 0 0 0
0.77581 1.06024 7.52167 81 47 40
-5.23957 6.48877 4.8404 255 255 255
-0.1886 0.314477 6.22943 98 58 49
-2.2109 6.33013 8.71452 5 0 11
-0.48008 4.70003 3.3132 119 95 91
-1.97431 1.20376 7.73801 61 38 32
1.43982 3.74657 2.22637 187 97 73
-3.30531 6.8318 8.42723 0 0 0
1.43651 -0.548846 2.49821 235 134 108
0.609396 -0.81202 2.33532 255 251 241
1.49512 -0.385817 2.50501 223 126 93
-3.27488 4.13668 7.6482 40 23 20
-3.13595 2.72236 6.13853 99 37 26
-3.96648 6.05814 6.03071 255 177 129
-0.628244 -1.01107 2.51125 244 139 111
0.338516 5.11714 8.20178 53 29 29
-3.23149 3.15926 5.5524 88 43 35
-1.73254 4.72879 2.56508 125 74 60
-2.57213 4.64916 2.83998 102 67 48
-1.22285 3.85399 2.12056 113 52 35
-2.46942 5.93365 7.35094 23 0 0
1.57017 3.72019 6.56432 75 42 32
0.680047 3.8267 1.29113 162 106 93
1.33497 4.4078 6.41304 148 100 87
-1.75575 4.87974 2.76926 144 92 76
-3.92824 5.3148 3.46452 145 71 60
0.159721 5.65822 3.42222 255 255 255
-2.65652 4.00974 5.38405 74 47 39
-2.09666 4.76187 5.48351 101 60 58
-3.09674 4.30412 3.62547 118 70 63
0.4293 -1.05587 2.61892 229 163 157
3.27725 1.71098 2.7957 84 14 15
-1.39115 6.29763 9.80458 35 0 0
4.47417 4.04517 12.5477 0 0 0
1.42396 3.8749 4.17666 138 82 65
-0.385007 -1.18276 2.38012 255 154 134
-0.123797 2.49901 11.3638 44 0 0
2.64223 0.823871 3.36737 167 129 91
4.71372 3.61613 7.09639 73 0 0
0.94968 4.32846 8.43552 84 48 38
-1.47574 -1.00425 4.48635 230 122 88
-0.260919 -1.19443 2.43969 230 133 108
0.824201 4.85791 4.96147 198 145 143
-1.11692 4.91643 4.1778 98 51 31
2.27421 -0.720195 2.48338 111 0 0
-3.57086 7.51711 7.4991 0 0 0
-0.680834 -0.860804 2.5814 255 178 149
2.35619 2.77541 4.62305 123 55 40
-3.12127 0.940106 7.39904 144 77 46
-2.99065 0.595448 5.53274 82 60 51
-3.21173 1.32923 4.77703 57 19 0
1.31809 4.49921 6.47879 174 121 104
0.67462 -0.765864 2.57955 255 182 135
-0.673605 -0.691062 2.56521 253 201 167
-3.07566 4.34306 2.86273 56 18 6
2.46579 3.07593 4.37293 151 93 78
2.0191 0.910167 4.93787 121 63 52
-4.63808 8.40809 3.96358 175 186 183
-1.93626 5.01491 2.84637 144 97 70
0.852474 -0.804698 2.64765 255 148 110
-3.30087 7.01603 8.92733 0 0 0
-1.62529 5.70835 6.12301 0 0 0
1.64845 3.76927 7.42448 58 30 23
-2.27362 4.48965 3.02402 127 70 61
-0.46845 4.05984 2.03637 156 144 132
1.18414 3.89015 8.27767 66 37 28
1.92991 3.17372 1.91556 155 121 93
0.127465 4.9874 10.8596 27 17 21
-3.44687 3.05397 6.44514 42 23 22
0.886122 2.73743 10.0621 34 23 22
-0.0147124 5.47825 8.92571 114 31 27
0.422823 4.74168 10.7457 177 101 78
-3.17026 6.8341 8.4057 112 80 48
-3.07047 6.81993 8.27115 60 44 34
-3.62029 7.57598 8.13864 0 0 0
-3.89985 7.51566 9.67902 0 0 0
-4.01474 7.86938 10.2155 0 0 0
-4.59384 7.55147 7.97752 0 0 0
-4.04277 7.39477 8.44056 0 0 0
0.201897 5.61696 7.96995 138 88 67
-0.96859 6.09741 7.91908 117 82 88
-4.078 7.73739 9.75558 38 13 26
2.02169 2.36753 8.47651 0 0 0
-1.78727 2.14124 13.4364 0 0 0
0.213375 5.22909 7.73409 57 35 30
1.896 3.00406 8.60799 84 47 34
-2.92967 3.85963 5.71853 59 38 27
-5.48761 8.06299 5.96048 114 110 112
-6.15135 6.53791 6.09871 119 49 0
4.3246 4.62125 11.1795 0 0 75
-1.58376 5.94151 7.30661 17 0 0
-4.66568 6.64213 8.38633 0 0 0
-2.11563 6.74141 4.80698 28 0 0
-2.71623 8.36953 2.91492 139 50 0
1.72509 2.69841 6.29969 114 57 46
2.99558 3.05354 11.8694 0 0 0
-1.35284 7.43949 6.1559 0 0 0
-2.65238 1.85839 8.02632 49 35 32
0.862009 5.55141 2.37691 255 55 0
-0.612873 2.0058 10.6365 39 21 17
2.40395 2.63999 6.64021 198 102 89
1.71493 0.984858 7.31723 35 0 0
-1.09897 5.98515 6.24225 0 0 0
1.3306 2.45853 9.08695 53 38 34
-0.080916 1.68717 10.1175 60 39 33
-0.804062 0.405781 6.98565 86 49 40
1.72772 -0.0806584 2.82968 165 81 57
-1.94553 -0.206232 2.90085 218 145 119
1.99893 0.123303 2.96154 191 128 117
2.71316 3.22736 6.75134 83 59 48
-3.44264 4.40769 3.71602 126 69 54
0.0134897 3.86046 1.50176 161 142 120
-1.91585 9.92708 6.4638 0 0 0
-2.18585 5.32308 5.8437 89 57 51
-3.45296 4.04605 5.31125 109 57 45
-6.83187 5.15262 5.05185 138 50 30
-3.16076 4.65589 6.54766 0 0 0
1.67974 3.34251 2.63751 167 184 168
1.64216 2.74193 6.94074 82 49 43
-1.99254 5.72711 3.79811 176 135 122
1.3283 3.86405 2.18349 164 237 219
0.452247 5.03044 1.20619 129 201 158
1.79634 3.05572 5.85624 124 73 62
0.608493 4.4852 2.48795 172 93 56
-1.31315 4.98336 5.47611 85 49 35
0.949618 -0.853618 2.68811 249 167 132
-1.20105 0.802535 7.18988 78 44 39
3.03638 1.9439 5.47127 115 57 46
-3.80603 4.87786 4.0501 95 77 61
-1.69684 9.47925 8.02635 0 0 0
1.59958 1.18317 6.95349 103 50 38
-2.92961 0.577603 5.54594 88 56 45
-1.23425 2.87568 17.0413 0 0 0
-0.263559 5.07486 4.38903 72 39 31
-1.96546 5.49867 3.27101 235 149 127
-0.29792 4.48165 3.13581 143 89 70
-0.37139 4.68058 3.2159 135 85 51
-6.07603 -0.0244122 6.4644 116 38 27
-2.53441 2.94669 11.1053 47 34 36
-2.51329 1.64839 9.04287 50 29 24
-3.13173 3.87604 7.25213 54 35 29
-0.230748 5.30869 7.89649 79 47 45
-3.31409 3.56006 6.35058 52 0 0
-0.800662 4.99667 5.17676 108 67 52
-0.130819 0.0688646 6.36493 159 119 92
-6.06509 1.53884 11.2045 0 0 0
1.29489 1.90362 10.5296 59 27 21
1.71884 3.66003 6.72886 72 20 0
1.52027 -0.298775 2.70918 231 156 105
1.79587 3.49758 6.98549 118 60 45
-0.56572 4.39098 2.67108 144 72 80
1.54268 3.95942 4.28087 133 80 73
0.779992 5.15995 4.10377 90 48 38
-5.82336 -0.439504 7.72748 105 44 21
0.623422 0.94034 8.99748 36 23 18
-2.42977 3.18203 12.4314 18 0 0
-3.12573 2.79604 6.91701 83 42 31
-3.0718 3.51462 4.90087 108 49 35
-0.729818 5.05776 4.98301 110 71 50
-2.8245 1.24084 7.34852 74 45 40
-3.55724 7.32799 9.04343 0 0 0
-3.31198 5.03675 6.52396 144 85 68
1.49404 1.24106 6.49422 99 50 40
0.536856 4.57331 4.488 103 58 36
0.647991 3.85678 1.32237 157 110 88
-3.2437 8.19496 6.59764 0 0 0
-0.861666 4.17146 2.05808 156 90 70
-2.9702 4.08329 2.82379 108 63 54
-1.7639 3.28576 12.4759 0 0 0
-1.6533 5.12589 3.0542 209 130 95
-6.06633 0.236638 6.66565 255 255 255
0.235377 -1.01348 3.36022 255 133 119
2.00873 1.40368 6.08309 100 58 51
0.0288222 3.88116 1.55763 160 114 100
0.891417 4.96004 5.04772 230 174 179
3.28149 2.27299 3.61848 97 55 48
-4.2189 3.90487 7.3734 70 37 28
-4.08757 9.8295 8.04578 0 0 0
-2.99167 7.71646 3.15314 125 47 21
-4.41599 6.26059 6.76156 246 169 136
0.0541479 4.03112 1.833 158 127 109
-3.6604 2.7163 6.27331 83 52 48
-1.96121 2.56638 16.5973 0 0 0
1.83689 0.0196062 4.45856 150 102 85
-6.00093 0.102425 5.56133 184 104 82
1.36864 3.59953 2.24945 159 169 167
0.0649806 5.72221 9.48251 90 48 33
-1.49823 2.14724 16.9151 0 0 0
-1.90982 5.6824 3.58507 159 113 114
-2.96361 1.47288 6.73301 87 49 43
1.48235 2.97043 7.98478 76 42 34
0.429842 1.80953 13.968 0 0 0
-3.12272 6.55322 8.11756 0 0 0
1.68161 0.114452 3.37725 187 157 138
-3.56707 2.79635 4.09102 99 54 52
2.37646 2.86809 5.82509 103 64 63
1.99627 3.13692 2.74799 138 154 133
1.12623 -0.226699 2.70767 252 170 140
-0.822411 -1.0744 2.70279 255 199 155
-5.32311 5.98603 5.36062 255 210 183
-3.84365 4.18264 4.75203 77 59 53
-3.57228 3.34219 6.18391 43 17 0
-1.07169 5.45777 6.37697 68 40 31
-0.943102 -1.36102 2.1546 253 158 129
1.40172 3.74378 2.25844 181 149 129
1.56575 1.08396 6.14214 127 73 62
-1.59691 2.57228 11.8651 118 97 104
1.55253 1.40487 7.86044 32 0 29
-1.09523 0.367835 6.77914 129 77 60
-0.192617 0.305192 6.23822 109 63 52
2.05393 3.24711 4.89517 139 80 65
-3.16382 2.25684 6.63114 97 57 48
-0.565334 5.06968 2.99332 117 71 63
-1.46395 0.929898 8.11725 92 53 44
-3.23346 2.58395 4.78343 105 57 39
0.791109 -1.18639 2.27624 238 151 124
1.89139 0.455021 2.79316 155 83 54
1.61095 0.404498 2.84005 211 141 118
-2.9066 1.13549 4.81491 113 71 65
1.43794 4.67371 7.43449 102 68 63
1.4771 -0.469804 2.50304 223 111 84
-3.10765 2.63208 5.86378 96 55 43
-3.86218 5.66974 6.0708 228 155 125
-0.343414 -1.06713 2.45343 249 155 123
-3.24551 4.27408 3.58935 115 64 50
0.0209855 5.37267 9.28777 77 44 35
-0.944474 4.80051 4.28662 102 52 27
-3.16394 2.50884 5.73541 95 53 43
-1.94834 4.49356 2.82589 133 79 66
-2.8582 4.5649 2.92393 68 17 4
2.58862 3.24518 5.39608 46 18 9
2.64364 3.01047 4.76584 98 48 36
2.80085 2.89672 2.32492 110 47 26
-2.18696 4.51768 3.07462 98 65 56
-3.72738 1.30541 5.21212 205 94 90
0.216493 -0.524699 2.82677 250 163 132
-1.54359 4.7348 2.57373 129 82 72
-2.71557 5.31332 6.61388 35 27 28
-3.26067 4.60788 3.32167 145 71 56
-0.697189 -1.21086 2.42695 255 181 145
-1.66052 2.39047 10.7798 26 18 13
1.2166 3.91392 6.34484 84 40 35
-0.31974 5.10478 6.13015 78 49 44
0.835156 2.1481 9.45361 71 46 39
-1.21083 -0.679309 2.54859 170 146 109
-0.318608 2.33284 11.1042 39 26 21
-0.540728 -1.24019 2.25501 255 169 141
-0.687209 2.14847 11.0315 21 5 1
-2.9012 4.13895 8.50664 39 27 21
-1.51482 2.38472 11.0486 27 17 10
3.29164 2.41262 3.51945 106 53 36
1.57272 -0.789192 2.35721 249 151 128
4.06479 3.36659 11.2171 0 0 0
-3.08204 2.65816 7.7428 92 56 52
0.831945 5.03109 4.99599 184 110 76
0.912021 4.50408 7.76686 67 30 28
-2.69674 4.6188 6.55027 71 39 29
-5.0817 7.48593 4.86539 255 255 255
3.0333 2.32628 5.36879 255 255 255
-2.25301 3.59608 10.8585 34 26 36
-3.28493 6.90584 8.21499 0 0 0
-1.31096 5.00995 2.83625 87 9 0
0.29046 1.90061 10.2473 130 57 51
1.38996 4.66188 6.47357 148 85 76
-3.03903 4.37052 2.8765 57 18 5
-0.503612 2.21054 10.8563 26 11 0
-2.54142 8.19485 9.87911 0 0 0
-4.33147 8.29372 3.96665 161 104 78
-3.5198 7.14582 9.14388 0 0 0
1.22629 4.28402 6.79802 109 63 50
-3.81642 1.36747 5.27754 198 119 108
-0.793993 4.3312 2.43035 157 94 88
0.214844 5.13692 2.3626 255 18 0
1.64142 4.00865 3.044 99 47 50
-0.332688 4.37011 11.0106 27 22 18
-0.488189 4.17068 1.63424 121 92 77
-0.0100973 -1.09381 2.81896 232 167 95
-1.93585 4.59266 2.51239 85 54 45
-0.00194907 5.38825 5.4345 109 61 48
1.60168 4.22036 3.0997 255 231 200
0.132016 5.49649 9.24857 119 42 46
-0.167851 5.25531 10.3652 71 55 47
-3.49442 7.85772 10.7726 24 18 23
-3.792 7.51315 9.67587 37 0 0
-3.76991 7.67575 10.1974 6 14 15
-3.63558 7.18684 8.55765 0 0 0
-3.33216 7.76371 11.3225 0 0 0
1.9429 4.57118 4.99437 227 164 143
1.37825 4.27505 5.69227 185 128 112
0.767135 4.85923 4.94494 213 159 150
2.16769 3.85106 6.27157 173 94 80
0.671794 4.83256 5.25015 160 102 88
1.12444 5.09205 5.81107 173 126 120
0.206484 5.31648 5.57379 168 121 99
1.00619 5.1606 6.50141 188 164 154
1.88178 3.78456 6.9069 255 194 161
0.898679 4.72647 6.33285 255 181 158
2.84613 2.59472 6.26271 195 153 138
1.7324 4.32438 6.49273 177 140 123
1.54664 3.89196 6.83229 255 158 127
1.71252 3.9992 7.01657 255 162 124
1.33563 4.57765 7.45061 255 181 156
-0.0472852 5.45813 6.59507 189 114 85
-0.313424 5.63329 6.61895 177 105 88
-0.327526 5.25814 6.6322 93 61 51
0.437003 4.91388 9.16508 112 53 46
1.77421 1.43632 7.20379 206 82 52
0.60555 5.65351 10.635 0 0 0
1.77382 1.33496 7.0068 176 83 69
1.61845 1.00868 6.5716 162 96 76
-0.913599 5.95957 9.10278 105 43 26
-0.980565 5.70166 10.0029 114 78 81
1.89847 1.32185 7.87945 131 59 49
0.892833 3.17084 10.4828 255 173 156
1.74223 1.52969 7.69903 163 74 56
-1.0794 5.46393 11.4313 84 86 57
-1.02771 5.36924 11.3821 71 65 37
1.3181 0.983387 7.58224 218 94 0
0.990282 1.30678 7.66859 64 47 41
-1.03803 4.35135 12.3827 74 80 66
-1.08514 4.59567 12.1527 84 55 25
0.426826 4.23774 12.1045 0 0 5
0.178453 4.45426 11.4003 8 0 0
-0.894044 4.39994 12.4389 108 90 94
1.00026 1.20705 8.42267 192 112 90
0.376567 3.75932 11.7681 14 0 11
-1.26561 5.34591 11.8703 0 0 0
0.926236 2.80189 10.2128 46 26 17
-1.04936 4.78957 12.1934 0 0 0
-1.591 5.09939 11.7099 58 46 45
-1.60206 5.15024 11.7673 22 43 44
0.881124 1.18878 7.95689 211 110 87
0.872398 3.19329 10.5998 155 94 76
0.834269 1.16076 8.30817 178 103 86
-1.24556 5.27246 11.7296 28 0 0
-1.45104 5.08254 11.7549 30 28 32
-1.11113 4.69397 12.1665 48 37 40
0.688979 1.43564 8.07509 74 41 31
-1.38016 4.84144 12.3402 75 59 57
-1.46339 4.47193 12.2054 29 18 27
-2.40131 4.79228 11.7565 86 74 66
2.49621 3.33332 4.64758 243 238 213
2.53614 3.00461 4.35816 255 206 172
2.13526 3.81927 4.47349 255 255 255
2.32416 1.3293 4.66653 239 187 143
2.49481 1.40145 5.01418 255 189 114
2.28733 1.25267 4.64589 255 209 159
2.64235 1.54872 4.77601 247 170 131
2.81812 1.5052 4.68162 254 175 127
2.58246 1.02281 4.99424 240 232 207
1.50858 4.54635 4.73579 255 246 171
2.05345 0.795895 5.17636 225 139 121
2.21329 0.842685 5.18486 222 213 186
2.39676 0.688488 4.61706 255 227 172
2.09883 0.76123 5.29998 255 255 229
-2.25852 3.02294 11.7172 74 71 65
-0.909046 -1.22319 2.43518 255 141 136
1.51367 -0.991979 2.42282 255 190 168
-1.47451 -0.776969 2.43059 255 255 255
-0.39476 -1.25873 2.23822 255 255 255
1.86849 -0.215809 2.35658 255 207 181
2.08911 0.447154 3.24587 95 15 0
2.503 0.773568 2.59471 255 171 138
0.53774 -0.435319 2.8849 223 124 92
2.3608 0.314553 3.6429 255 255 255
-2.24058 1.19312 6.82789 91 48 37
1.82883 -0.266104 2.24352 255 215 184
2.13959 2.86127 6.34914 255 255 255
1.43281 -0.11787 3.53618 237 195 175
-0.0495514 -0.995784 3.43357 197 134 68
-2.54343 5.17563 4.50523 154 121 91
1.61108 -0.543629 2.40546 255 255 238
-1.3939 5.16905 3.13623 159 110 95
1.78912 -0.862023 2.62322 255 199 174
0.413256 5.12796 1.83181 255 255 255
-3.33091 6.77152 6.37632 255 255 226
-2.66833 0.149011 6.27916 118 117 92
-3.30143 0.93396 7.59246 255 255 255
-3.17344 -0.123523 3.35422 180 103 95
-1.40322 4.97809 4.55154 112 66 33
-1.88303 5.5724 4.82583 90 53 37
-1.00014 4.98947 3.58367 99 51 33
-0.869769 -1.17683 2.45615 255 187 158
-3.75048 2.2678 5.8069 93 45 40
-2.92473 3.2968 8.57822 59 36 31
0.263736 4.74452 4.66301 118 73 46
1.282 3.72474 2.00627 164 163 145
1.58144 3.62669 2.38685 153 187 171
0.825844 4.70719 1.36012 255 255 255
-3.10774 4.09659 3.53964 114 70 58
-3.73445 0.814075 6.83643 255 255 255
-2.38826 4.9273 5.7391 82 53 42
-1.77555 5.23625 3.81069 171 118 99
-1.79886 6.21014 4.41899 25 0 0
-4.28421 7.12501 3.42793 241 214 215
2.01775 0.157266 2.58163 236 158 125
2.41713 1.88966 5.75952 131 82 61
2.31126 2.7938 7.5867 255 255 255
-3.52129 2.16497 3.60481 166 114 94
1.19215 4.5985 5.31789 243 255 219
0.000866638 4.14191 1.29839 118 169 184
-0.139648 -0.925539 3.42248 212 170 141
-2.81576 5.46166 4.88028 38 0 0
-6.00382 0.241686 6.82462 255 255 255
-2.72823 4.57326 5.58693 100 60 48
1.9056 0.454651 2.77297 147 75 50
0.785281 4.49516 1.33763 243 255 255
-2.47993 3.86326 3.99892 85 36 25
0.377393 4.80066 1.18583 183 255 211
-0.358552 5.06167 4.24135 99 53 44
-1.07014 6.13481 5.02824 255 221 164
-0.475771 4.94196 4.3358 118 64 43
-2.93427 3.38472 5.19527 99 54 39
1.59498 2.87093 7.36219 61 28 21
1.38793 -0.272854 3.58448 216 216 205
1.81274 -0.364977 2.68934 255 211 230
-1.16745 4.31047 2.34116 164 107 90
-2.60951 4.37387 5.57299 97 60 46
2.64166 2.02251 4.54309 191 165 143
-2.16549 4.79209 3.6563 148 105 84
-0.294511 -1.1 2.80243 255 168 164
3.46579 1.17647 3.75021 186 85 73
-0.895189 6.43406 5.10239 255 255 255
1.63338 -0.74985 2.32177 216 109 95
0.8799 -0.835606 3.30512 255 255 255
-2.67129 4.22747 5.64989 97 54 44
-3.14641 3.68798 4.917 102 53 41
-3.16178 4.93068 4.26074 208 157 126
-6.13016 0.199775 6.67214 255 255 255
-2.55779 4.28316 5.40392 91 48 31
-0.206381 4.70409 4.19161 104 57 44
0.668447 1.13006 7.39987 88 56 46
-0.304531 0.902762 7.78719 82 49 41
1.26813 1.55854 7.29101 93 52 46
-2.75235 5.10627 5.98614 80 50 43
1.13581 4.42861 5.8616 121 70 53
-2.90266 4.06075 2.67889 102 63 54
0.78109 4.05705 2.12992 158 167 156
-0.0235572 3.75252 1.19068 221 141 126
0.503632 -0.619492 3.18846 255 255 255
-2.24972 4.1714 2.41895 111 70 59
-2.87104 4.352 2.72259 115 84 60
1.37755 -0.555886 2.78368 120 0 0
1.8975 1.83513 8.25871 154 72 54
-0.277132 6.07603 7.46449 173 113 87
-3.11535 0.701415 5.27285 49 0 0
1.31529 3.67801 2.03277 161 187 159
-0.0556865 -0.673035 2.91105 255 205 137
0.870905 -0.728035 3.13737 255 255 255
-2.91608 3.56081 7.36414 46 29 23
2.08286 -0.278953 3.67465 255 255 255
-1.63273 -0.768933 2.36937 242 140 115
-1.13667 3.96191 2.09221 166 106 85
-2.3772 4.47463 2.89935 115 66 54
-3.92017 4.38977 4.77052 95 60 32
1.59754 1.9506 8.12077 67 47 44
-3.22628 3.52799 5.08191 91 25 19
-3.77371 4.36226 4.03858 134 39 17
1.13808 -0.778132 2.50137 255 165 144
1.32795 -0.683479 2.46414 238 137 106
-1.53346 -0.351629 2.73566 78 6 0
1.05143 -0.473322 2.62824 255 178 144
-1.25703 5.25576 5.30205 100 47 30
0.992326 0.845569 6.58691 75 42 31
-2.76886 4.39804 5.73327 50 30 0
-1.48269 6.3392 6.147 255 255 226
0.909005 -0.65938 2.95888 227 239 203
0.959527 -1.37194 3.44749 255 255 171
2.68059 2.45445 4.49328 138 86 76
-2.76175 4.95469 6.15059 68 45 40
0.957112 -0.557366 2.70838 255 183 151
-2.12594 5.90942 3.72711 255 130 100
1.41084 1.63093 8.26614 255 172 125
1.09797 1.32598 8.08932 255 190 159
-2.47663 6.03148 5.71203 185 128 120
1.62525 3.61723 2.37785 145 255 255
-3.90158 6.58796 6.44389 70 66 63
-1.15676 4.83973 3.69247 111 79 34
-2.63383 5.17704 5.79372 83 46 39
-2.87378 3.25331 3.91189 114 57 43
-2.04959 4.9764 5.7142 64 36 33
1.72799 -0.506799 2.53782 215 154 133
-1.05858 0.969928 7.90152 81 49 41
-2.08321 4.64191 3.64448 156 112 94
-0.490898 0.574724 7.55459 97 59 48
-0.318513 1.37007 10.3623 46 33 28
-3.91076 0.474347 6.12929 202 125 109
-5.79492 0.338142 6.84731 255 255 255
-2.96037 4.4692 6.20387 0 0 0
-3.22479 2.63282 3.56723 108 77 73
-2.7714 4.83614 6.9252 94 50 36
-2.39311 5.36096 6.04372 170 124 110
-0.106779 3.99571 2.20966 149 115 92
-0.68793 0.842938 7.44712 83 46 38
-1.02002 4.48465 2.19336 63 0 0
-2.66225 5.0186 4.23893 0 0 0
-3.93341 6.06387 4.64595 255 255 255
-2.44934 4.14988 5.99719 74 43 37
-2.21294 5.02358 4.02601 40 0 0
-2.97885 7.00264 6.39759 170 144 114
-2.30224 6.45094 6.88582 134 118 86
-3.4532 5.04584 6.40512 121 86 80
-1.70578 5.12535 4.51073 94 59 42
0.649419 -1.19865 2.27325 250 149 117
-3.12638 3.66439 6.14021 86 50 40
0.427907 4.01609 1.34571 175 92 83
-0.11135 -0.857519 3.56231 255 187 109
0.588349 3.85849 1.30588 152 107 88
-0.919475 4.78137 4.48937 125 78 57
-1.2876 5.19192 5.33214 115 64 43
-3.72984 3.81829 5.97194 0 0 0
0.506303 -0.624891 2.90782 253 235 198
-0.819678 -0.946436 2.58194 228 190 146
-4.25593 3.97162 4.59604 46 31 42
0.539729 -0.854341 2.39784 255 249 226
-0.863529 -1.30238 2.42777 245 174 140
-3.46822 0.465815 5.10045 160 93 83
-1.88839 2.81898 11.4218 30 15 12
-1.13392 -0.754213 2.44561 255 255 255
-3.18207 4.70403 6.5372 0 0 0
-1.98479 0.985123 6.72174 86 50 38
-3.40069 2.74977 3.95654 116 89 76
-1.31207 5.58879 5.04474 85 48 55
2.89319 2.14191 5.01001 143 114 114
-6.07172 0.253299 6.67168 255 255 255
-5.6422 0.441536 6.80224 255 255 255
0.270663 0.472305 6.45636 86 49 39
-3.17995 1.97002 5.29663 94 56 42
1.87376 1.28053 5.98561 105 61 48
-0.420063 5.34435 10.5165 76 41 44
-1.25668 -0.98152 2.52404 255 152 139
0.847538 -1.24723 2.2266 250 175 137
-2.70585 -0.606024 3.46287 48 0 0
1.8903 1.89349 6.88764 83 49 42
-3.13011 3.99966 7.44881 50 32 26
2.48159 2.8775 5.57059 83 30 21
-2.27271 4.42567 12.3412 100 133 122
-3.07502 1.34283 6.14847 126 97 85
1.25593 0.2637 7.03478 11 0 0
-1.05154 5.89987 6.00576 0 0 0
-2.92019 0.161873 5.75571 91 91 69
1.69496 2.62088 8.5547 66 40 31
0.550803 5.38033 1.44484 204 167 135
-0.795361 6.49056 5.70886 0 0 0
-1.21706 5.5475 5.80255 119 67 52
1.69104 1.86174 6.81987 93 48 38
-1.8002 6.10317 3.25141 88 36 29
-5.40927 1.63142 10.1573 0 0 0
1.68052 0.754524 6.45469 82 67 54
2.53037 1.52894 4.62809 149 107 81
-3.94493 9.68289 7.7494 0 0 0
0.171371 4.48917 3.06401 142 86 96
-1.43801 0.751768 7.19897 93 33 29
-3.7317 4.62062 3.9146 4 0 0
-3.54052 3.91016 12.1127 0 0 0
2.40958 0.509903 4.9726 160 128 67
-0.185791 4.82264 11.0617 0 0 0
2.09832 5.18754 7.79914 234 170 164
-1.59142 5.73022 4.94392 91 56 46
-0.402745 5.00412 4.30267 119 70 49
-2.10493 2.48254 13.8914 0 0 0
-1.496 -0.340146 2.54376 255 255 255
0.806852 4.71154 4.31659 120 72 59
1.62298 0.153207 2.96111 217 155 108
-0.221279 3.96106 1.5586 155 173 154
1.37013 3.91133 5.2678 111 63 55
-1.77464 -0.0525322 2.41141 247 149 77
-0.615594 -1.38611 6.28178 255 197 167
1.81295 3.23048 7.85487 68 31 22
2.16672 4.30897 5.31504 69 30 0
2.57108 2.28487 6.26814 128 64 52
1.52048 -0.0093789 2.58201 232 139 104
-6.28535 0.351287 6.88602 255 255 255
-2.41801 0.173631 5.80379 136 104 84
-3.34393 8.34412 6.78949 0 0 0
-2.817 1.73301 7.91397 54 39 36
-3.62275 2.33105 6.41159 94 50 41
1.53693 3.68936 3.53809 159 94 69
2.31982 2.45727 6.36221 111 64 53
-0.938721 6.60148 4.74262 0 0 0
-1.94372 5.56256 3.19254 136 77 64
-0.244892 5.072 6.52379 71 42 29
-0.823502 5.97288 4.96781 59 0 0
1.02574 -0.891541 3.26316 255 155 147
-1.00175 5.23669 4.63099 132 80 61
2.59397 1.82899 5.75606 136 60 46
1.35583 0.14562 6.70261 90 42 31
-2.78773 2.99533 9.0805 42 20 19
3.19193 5.47933 5.34868 255 255 255
2.37104 2.98066 7.93999 224 172 137
-6.10851 -0.28402 4.89765 228 156 134
2.58988 2.33654 5.26834 90 43 38
2.45797 2.92959 5.62903 112 70 57
-0.996016 5.74687 9.33315 53 28 22
-2.53391 6.25194 5.62227 110 59 37
4.86888 3.38605 7.85748 0 0 0
-2.1047 5.77908 5.98311 85 53 52
-0.725787 5.92605 9.36207 33 0 0
-2.76968 4.50737 6.02268 122 75 64
3.18977 1.83424 5.34074 138 43 18
-1.53592 -0.401782 2.5343 255 183 146
1.37402 -1.09586 2.04746 237 147 128
2.34686 2.15465 6.49225 105 53 36
0.819684 -1.1034 2.54737 240 169 142
0.58261 1.59475 9.91953 42 30 28
0.44493 -0.905549 3.4512 241 255 218
-3.13037 2.15991 5.5614 87 46 35
2.41651 1.51969 5.67558 108 70 52
1.79196 0.233405 4.87614 163 111 76
0.0460396 -1.18844 2.53783 248 135 109
-2.93665 1.45614 7.1177 46 39 34
0.846551 -0.724425 2.57942 255 167 125
1.60715 2.24885 7.60824 73 47 38
-0.807249 -1.38948 2.21365 213 117 92
-1.1481 -1.36004 2.43198 255 159 132
0.490708 8.39326 3.9641 255 255 255
-2.26418 2.51296 10.9692 39 22 23
1.64 0.631782 5.5447 118 67 51
0.431775 1.88263 9.63609 52 24 20
-2.861 2.76617 10.6653 33 20 16
-1.52248 6.12291 5.72625 0 0 0
1.11607 4.52445 6.62895 176 104 92
2.217 3.12125 5.2008 112 62 51
0.445298 -0.499326 2.83906 241 130 94
1.20302 1.36333 8.31698 36 0 0
-0.542881 5.6169 4.68936 127 59 51
-3.21092 1.49205 4.69107 46 0 0
-0.894758 5.03532 3.35448 171 139 106
-0.139135 4.1551 2.07147 148 114 137
-1.58038 -0.619582 2.4216 249 147 118
-0.0293437 3.90088 2.17035 164 132 104
0.588668 -1.3948 2.01653 229 145 119
0.165751 0.204596 6.42183 118 75 61
-0.44236 -0.714896 2.61096 255 197 156
1.70359 0.78969 6.10322 134 118 98
-2.4177 -0.588826 5.89013 182 90 74
-2.36926 1.19691 7.04845 92 51 39
1.30416 -0.131601 2.66985 252 175 144
1.85315 -0.630642 2.12773 247 133 100
3.63496 2.57756 5.67203 255 255 255
1.82613 3.3251 7.24315 150 84 74
-0.272916 4.6343 3.03334 130 63 47
-3.12824 4.08884 10.4938 40 28 22
1.23586 0.626207 6.96642 157 77 67
1.17051 1.64023 13.1105 24 47 45
-2.90295 7.32269 6.01862 43 38 45
0.921052 4.9647 6.58217 204 142 127
2.25176 2.15761 7.84729 80 53 46
-1.54926 5.84613 3.10448 101 45 27
-3.19392 6.63404 4.94253 35 30 42
-3.27721 7.09752 7.33447 117 91 79
-3.62369 6.92952 5.95533 15 0 0
-3.26665 6.81782 5.03784 79 59 60
1.69102 0.805878 6.5617 80 44 29
0.896533 4.0633 2.03666 160 179 167
2.75637 3.43588 3.4374 234 255 255
-3.10729 -0.439838 3.93159 209 114 102
-2.8402 1.58794 7.15298 46 37 33
0.0449197 -1.08301 2.57016 248 168 132
0.705089 -0.953041 2.48501 255 183 155
1.61032 4.51572 6.38274 171 106 94
-1.66311 0.338447 6.10424 103 53 39
-2.98397 3.37066 4.72281 110 62 49
-0.205055 0.456179 6.22585 90 52 41
-1.6847 5.91336 3.37936 108 64 59
-5.95217 0.407486 7.55928 255 255 255
-1.32895 5.77492 5.73804 93 56 38
-3.77095 0.97258 6.93686 255 255 255
-1.12282 4.10098 2.14301 164 93 69
-2.32747 2.42884 10.905 26 17 16
-3.54532 7.68922 6.61265 77 65 48
0.734136 6.71638 3.13968 182 255 255
1.779 2.45657 8.29883 78 37 30
-1.30861 5.21625 2.8187 93 29 28
0.232465 3.96891 1.15013 162 127 106
-5.09458 -0.760435 7.13135 64 0 0
-2.98537 3.67931 8.44083 55 33 35
-3.0117 1.4915 6.79699 88 43 36
-0.818856 4.0435 2.14482 171 118 95
-0.963727 2.1367 11.4904 0 0 0
3.71144 2.31615 3.23167 42 0 0
1.96143 1.11184 5.44876 101 50 37
-5.94633 0.288754 6.45772 255 255 255
0.435238 4.01378 2.39489 146 98 64
0.410021 5.85279 3.2321 255 255 255
1.25572 0.778322 5.62646 116 64 49
2.2022 2.78798 7.11254 55 30 23
2.90602 1.9059 3.81399 140 89 70
-0.580778 6.32351 5.25713 255 255 255
-2.93359 3.46895 5.10438 101 62 50
-3.66051 1.23312 3.43064 164 120 93
-3.24586 0.913109 5.51445 105 52 43
-3.29682 3.26403 5.94771 65 41 35
-0.503004 -1.43434 2.09538 228 143 112
-1.61735 0.391377 6.09232 114 62 49
-3.07666 1.95982 5.72563 100 54 43
0.78008 -1.99049 3.02272 126 18 0
0.391005 5.68337 5.43594 79 47 49
2.25961 2.90692 4.04265 153 86 75
-1.53486 4.56008 2.26371 201 140 113
2.64479 3.12439 4.41694 157 98 77
-4.08546 1.6097 5.20766 201 105 90
2.88512 1.32374 12.9732 0 0 0
-1.18013 5.96425 9.32449 53 21 21
-2.80859 1.79618 7.83001 58 37 33
-3.1067 2.14248 5.56674 106 62 47
0.480007 3.95379 10.9921 36 17 12
-2.27793 4.6341 2.76893 119 79 68
-2.64132 8.11388 9.2948 0 0 0
1.90588 2.02153 6.62518 94 53 45
1.12892 3.95835 7.86028 64 31 25
-3.20097 2.12054 5.67048 100 56 44
-3.51281 3.69209 4.89956 121 74 62
-3.78339 7.71751 9.31518 0 0 0
-3.78868 6.6999 6.04885 32 0 0
-3.66589 7.51743 9.1061 21 13 13
0.256393 5.35528 7.85124 63 27 28
0.284166 5.1288 1.77181 255 255 255
-3.19618 8.12735 6.4067 0 0 0
1.17286 1.18138 12.8871 0 0 0
4.49302 4.00452 11.3221 0 0 0
1.31708 3.60581 7.4958 71 39 31
-6.06165 0.340547 7.68926 255 255 255
-1.32105 5.74381 5.59281 96 52 35
0.434594 5.08906 9.43743 74 42 29
-3.66096 3.15774 4.63999 149 95 71
-3.39371 2.88642 8.51404 216 234 229
0.897264 2.17686 9.87085 31 23 24
-5.76956 -0.428023 6.48368 100 29 9
1.7623 3.36586 1.58912 132 56 35
-3.49726 4.06631 11.8653 0 0 0
1.09444 5.71475 3.02211 255 255 255
0.554889 4.10087 2.1034 164 116 90
1.90901 0.395509 2.7155 179 117 94
-0.352783 -0.890423 2.68455 255 190 148
0.354267 6.25374 3.0367 255 255 255
1.28451 3.83897 2.17707 173 205 175
-3.46008 7.08408 8.82244 0 0 0
1.80693 1.87776 6.99764 71 49 44
2.73009 1.0089 3.4581 137 84 61
-2.07927 4.19492 2.35834 107 69 57
-0.196137 4.24705 1.57095 166 95 104
0.0520924 3.98655 2.12619 154 133 110
-3.54434 1.48246 4.89076 164 129 106
-4.06011 1.60612 5.22689 190 107 97
1.42723 -0.558572 2.51199 235 134 102
3.29895 3.015 13.1315 0 0 0
-2.82652 1.55962 7.19899 50 38 36
-1.2113 4.53387 2.53324 131 78 73
-2.69356 4.13558 2.57396 104 61 54
3.22678 2.43166 3.34509 112 58 37
-1.51729 6.29588 7.54504 200 123 88
-3.73508 7.59345 4.42321 67 46 35
-0.481603 -0.98752 2.60404 243 126 89
1.94061 4.83841 8.05073 0 0 0
-0.245753 5.16898 7.05554 95 66 56
-2.97177 1.59965 6.08424 103 55 43
1.7133 4.09147 5.68212 104 60 50
1.96321 3.43904 7.97204 0 0 0
1.16151 0.727668 7.35917 15 0 0
0.877837 5.24347 1.35383 189 172 161
-2.13762 5.68143 6.58621 56 0 0
-0.738731 6.08677 6.48228 0 0 0
-5.43257 -1.65383 7.51409 161 79 66
2.38959 0.63268 4.76522 112 28 33
-3.90519 9.45919 7.55531 0 0 0
-0.0615007 3.57524 11.8453 28 18 23
2.50032 2.34598 5.15915 101 40 35
1.9868 2.08009 7.48851 94 51 42
-3.55339 7.43989 3.66599 171 98 76
1.35084 0.204388 2.88313 238 145 108
-0.434246 4.03241 1.51906 164 163 142
0.130546 4.78704 3.22208 149 89 77
-0.221972 4.08781 2.08957 146 189 194
-2.68668 8.52538 3.80251 255 255 252
2.41521 3.05084 4.46977 167 122 103
1.37787 -0.0546733 2.7146 246 166 128
2.32409 0.864432 3.87579 166 120 97
2.56685 1.54226 5.91242 116 90 75
1.66694 3.81032 7.06095 60 48 40
-6.03608 -0.252323 6.48524 108 31 10
-1.86703 5.23224 3.41844 143 95 80
-0.975912 5.98466 4.7543 25 0 0
-0.375265 5.46209 4.62378 156 97 79
-2.14669 0.292177 6.58949 61 38 24
-0.939437 2.4705 13.4981 0 0 0
-6.23515 0.366569 6.51675 122 48 0
2.53797 3.13756 8.05208 255 228 187
0.949564 -0.453021 3.27846 255 255 255
1.71303 2.95867 1.79603 154 77 53
3.2591 2.01 3.76174 103 46 33
-1.09374 5.4613 9.28466 71 37 25
2.9936 5.47557 5.15505 255 255 255
1.84519 3.39986 7.66385 116 55 41
0.0602206 2.2489 10.6664 36 23 23
0.375595 3.46586 1.0639 174 127 104
2.25207 2.05913 6.43667 111 57 45
-0.542974 4.95916 3.32924 180 88 127
0.71985 -0.736442 3.63528 255 255 255
-1.85745 -0.395962 2.21529 246 112 132
1.85823 0.243029 4.91951 170 97 73
-0.758704 4.23885 2.01398 142 128 115
-1.74763 0.600589 6.63673 88 48 38
-3.59182 4.17289 4.56651 120 93 63
2.77235 1.32121 3.76702 146 90 74
-0.735189 -1.30437 2.2446 255 179 150
-2.00234 6.60017 3.52498 43 0 0
0.517873 4.84712 2.98102 255 255 255
-1.27296 0.317016 6.87459 71 32 30
0.337939 4.42462 2.9966 165 127 120
-0.584068 8.58637 3.54142 255 255 255
-2.7307 1.30423 6.33831 106 55 43
-1.66105 -0.332997 2.75443 181 107 83
1.17702 1.33844 8.55259 44 0 0
-3.37166 1.49722 4.78309 66 5 0
-0.301028 5.32481 9.36131 45 24 19
-0.769443 4.79781 3.10998 140 114 111
-2.79257 0.148629 5.97387 160 78 67
1.82515 1.23968 7.04893 57 40 49
-3.21226 2.67482 6.27071 68 40 38
-0.416318 5.40067 6.00973 87 44 31
-3.48576 1.54178 4.87397 132 114 87
-0.454605 4.52511 3.22283 124 74 23
-2.57961 0.0689674 5.10695 126 105 86
2.05541 2.92458 1.96136 154 102 95
-1.70334 0.318011 6.12704 117 63 49
-2.80301 3.8218 10.988 43 30 28
-2.40561 4.0712 2.44016 109 68 60
-2.6886 6.94381 12.9481 0 0 0
-1.62819 5.61752 3.00476 101 40 27
-3.15832 6.9563 7.58479 44 26 31
-3.91088 6.33098 6.07381 36 26 21
-3.30805 7.51458 6.70248 16 0 0
-3.79994 7.76135 9.85845 0 0 0
-4.68617 7.2153 5.39588 63 35 31
1.31709 3.71957 2.12566 162 189 165
-1.25184 5.77697 5.51238 126 67 45
-3.37143 -0.367657 3.95774 167 84 68
2.28595 1.3746 4.802 110 69 53
-3.18779 4.03569 7.36713 42 28 23
-0.675781 4.01939 2.11508 179 140 127
0.751324 -1.31161 2.23238 255 172 139
1.89529 4.11999 6.76165 172 121 89
-0.337382 0.313288 6.10843 83 50 41
1.58569 -0.721826 2.15894 210 137 110
-3.27222 4.83314 6.26363 121 85 79
-1.63147 -1.12475 2.23491 216 114 89
-1.76488 8.73696 5.21202 255 255 255
3.49942 4.99266 10.9149 0 0 0
-2.1992 5.59335 3.10503 118 77 70
-6.21463 0.547987 7.33839 255 255 255
1.78699 2.60921 8.41999 57 36 32
-1.56545 5.13217 2.84948 102 35 35
-5.76359 -0.217203 6.63787 124 41 22
2.89844 2.59547 3.07451 95 34 36
-2.46973 8.10316 9.34667 0 0 0
-6.09634 -0.119611 6.34836 131 40 29
-3.00192 5.63423 9.10676 57 48 44
0.236177 6.00167 3.26816 255 255 255
2.03664 2.73933 7.15236 93 51 42
-2.95244 3.31256 5.16003 97 54 45
-1.58083 0.353862 6.10548 113 58 44
-3.15439 4.73573 9.81253 43 24 22
0.00744314 4.92997 2.23778 168 170 160
1.13322 3.9133 6.25677 89 47 37
-1.54812 4.72474 2.32901 165 89 63
1.61073 -0.418736 5.4819 191 139 106
-0.408122 4.0622 2.1949 172 116 103
0.743344 3.53896 10.7601 69 36 26
-2.27047 2.5455 10.5706 31 22 20
1.66511 -0.637243 2.29652 189 95 64
-2.17956 1.07113 6.77858 83 47 38
-0.332756 4.88287 3.29495 46 0 0
-1.11729 6.41998 5.18745 76 54 52
-2.82397 1.73258 8.13527 81 42 47
-3.1879 2.09393 5.388 96 57 44
2.59643 3.06826 4.32122 135 84 68
-2.85533 8.37727 9.62733 0 0 0
-2.37407 4.14042 2.45047 111 70 61
-3.17074 4.36853 7.87367 46 33 32
0.648599 4.03843 10.3882 36 23 20
-1.64997 0.00258728 5.73329 122 82 70
-0.599984 -0.98929 2.70204 255 255 255
-3.18314 4.12626 6.75973 39 25 21
-1.31475 0.788407 7.30884 92 56 45
-3.74564 7.70286 9.40548 0 0 0
-3.45342 8.28034 11.729 0 0 0
-1.56364 -0.625149 2.52289 255 154 121
0.823385 5.31133 2.01284 229 255 255
3.87054 4.02741 12.0007 0 0 20
1.29813 1.40404 12.6405 0 0 0
0.261547 3.77011 1.53842 162 137 117
-5.99495 0.373283 7.67831 255 255 255
0.553027 5.2611 8.69599 52 26 27
-3.13659 3.43123 5.14201 155 114 96
-6.72236 -1.74204 9.83697 0 0 0
-3.1822 3.61921 6.12306 73 40 37
-5.62338 0.467875 6.83012 255 255 255
0.485038 5.00833 5.99961 178 105 80
-0.637382 5.29008 5.06799 124 76 42
1.73694 2.85642 6.56273 94 58 45
1.00023 5.68385 3.10133 255 255 255
-2.37492 2.53287 10.7872 27 19 17
-3.46895 0.54993 4.96178 169 109 79
0.549372 5.99559 3.04539 255 255 255
2.69392 2.69875 6.96917 102 64 29
-1.17192 1.53163 12.3617 0 0 0
-2.10392 5.78703 6.48151 77 47 35
0.738106 4.84915 5.12917 160 105 82
-2.70312 9.11395 8.35767 0 0 0
-1.35854 5.10983 2.72088 53 0 0
0.274611 4.01698 1.28443 161 101 76
0.882746 4.172 1.20287 169 128 101
2.03863 3.02008 4.43944 132 61 45
-0.379023 4.2714 1.27329 160 133 114
-2.31047 7.67173 12.5293 73 24 28
3.17256 2.61214 2.84859 95 0 0
2.00855 3.65989 2.5204 141 255 255
-3.43964 1.49748 4.86666 189 111 92
0.7071 2.10794 10.3623 18 15 0
1.65923 2.57625 1.60302 186 68 8
-3.09647 0.767326 5.82774 145 136 119
0.220804 1.77462 9.90047 59 32 25
-2.42774 4.79924 11.8007 40 34 25
-0.140078 5.37992 5.56727 142 88 63
3.21659 3.10705 12.8002 0 0 0
-4.62393 8.53635 8.08989 0 0 0
-2.82071 1.57029 7.1854 72 43 37
-0.82045 -0.829145 2.57811 255 189 149
-2.62749 4.47271 2.87478 108 60 49
-3.25225 4.6865 6.64032 63 38 27
-3.63085 8.24895 12.1367 0 0 0
-0.122764 5.76266 7.66105 147 109 96
-4.04544 6.60916 4.82435 22 21 35
2.88195 4.32698 7.49336 154 98 74
-1.37824 5.58669 3.14898 0 0 0
1.19099 5.49343 5.46426 107 44 24
-0.880806 5.74434 4.87541 21 0 0
-0.959101 5.45768 4.7797 74 57 38
3.75558 2.95434 7.63874 0 0 0
3.21616 4.45989 7.43761 0 0 0
2.76637 4.87493 7.30588 23 0 0
3.13499 4.48223 7.1634 0 0 0
0.858836 5.26608 5.82061 79 43 14
-0.301331 5.75714 4.8196 33 0 0
-0.781933 5.77909 4.82819 40 0 0
3.62241 3.35824 7.25459 153 57 53
3.43103 4.37613 7.08981 0 21 39
3.14518 4.63441 7.22399 0 0 0
-0.660872 5.61683 4.70079 201 131 78
2.80449 4.70723 7.43429 255 193 155
-1.01765 6.00025 4.70435 0 0 0
-0.891925 5.45992 4.94454 49 0 0
-0.789638 5.95592 4.3441 50 21 0
3.0244 4.02985 8.47293 0 0 0
1.44836 5.23764 7.05808 163 116 92
-0.810768 5.80645 4.95433 28 0 0
3.57499 4.16132 7.22677 57 16 41
3.30886 4.24599 7.45312 0 0 0
0.277 5.63963 6.58473 0 0 0
-0.320961 6.064 4.81753 0 0 0
-0.369055 5.77377 5.26689 45 35 31
-0.54416 5.82685 5.04487 0 0 0
2.58229 4.78521 7.60818 41 16 0
-0.515358 5.80579 5.04078 0 0 0
-0.468155 5.75098 5.12057 109 115 102
-0.938396 5.54817 4.88546 121 44 0
4.4968 2.71406 7.41503 0 0 0
1.24684 5.77495 6.41368 143 64 27
4.53813 3.0321 7.37795 0 0 0
-1.44574 5.60339 4.7354 91 59 36
4.56559 2.60538 7.55759 0 0 0
3.75439 3.42963 7.61503 0 0 0
-0.898161 5.61941 5.12521 0 0 0
3.56823 3.54658 7.53157 106 0 0
3.22431 4.58446 7.95954 0 0 0
2.74129 4.30816 8.25768 171 130 104
3.16454 4.16284 7.38427 219 78 72
3.268 3.76601 8.28751 0 0 0
2.6498 4.92321 7.66071 55 59 75
3.11562 5.11342 7.18781 0 0 0
3.36286 3.81581 7.64605 204 104 77
-1.53938 5.76154 4.84658 91 57 54
-1.55654 5.15908 4.11816 52 18 19
4.1834 2.51001 8.04714 0 0 0
1.35435 5.28276 7.39274 0 0 0
3.52563 3.65993 8.33004 0 54 52
1.79528 5.99836 7.22247 163 115 106
1.00854 5.67893 7.27537 203 158 152
-1.24818 5.73626 4.55006 19 0 0
4.32487 2.91345 7.16015 0 0 0
-0.248514 5.34432 6.34814 133 77 71
-0.732666 5.82726 5.00129 51 6 34
0.925678 5.8272 7.56356 0 0 0
0.641376 5.56631 7.19635 19 0 0
3.2561 2.80727 8.23653 0 0 0
3.40226 3.45992 7.89439 0 0 0
3.78203 4.80875 7.42201 0 0 0
1.67313 5.52576 7.50339 34 24 27
1.09496 5.72444 7.23714 172 166 156
4.45573 2.63997 7.19927 137 134 129
3.34255 3.60404 8.13181 0 0 0
-1.04318 5.15259 4.60505 120 103 75
4.10682 2.1916 7.56774 0 69 67
3.08413 2.61004 8.51627 0 70 103
3.36211 3.98249 8.37754 0 0 0
3.26416 4.1814 8.32243 0 0 0
-0.31741 5.83464 6.58575 0 0 0
3.54838 3.50472 8.26659 0 0 22
-0.183898 5.95032 6.47067 0 0 0
2.16236 4.72149 8.61376 60 95 99
2.87849 3.92125 8.54058 0 0 0
2.9208 3.9907 8.71769 51 108 115
0.410196 5.64333 7.06765 24 0 0
0.359387 5.57035 7.30418 120 101 97
-0.246855 5.7913 6.62141 0 0 0
3.29728 2.81467 9.03447 162 124 114
2.5232 4.42594 8.54126 0 37 63
2.2545 3.63639 8.83384 150 74 63
2.99884 3.97944 8.49468 0 0 0
0.239731 5.27178 7.53889 209 152 128
0.2716 5.66359 7.19158 83 28 0
0.480293 5.61315 7.08213 125 80 43
-0.0785332 6.09737 7.03092 0 0 0
3.27974 3.22652 8.68612 0 0 79
3.54504 3.52486 8.33218 0 127 98
2.36739 4.20424 8.80307 0 0 0
0.0189226 6.11379 7.09661 0 0 0
0.663322 6.08215 7.57702 0 0 0
-0.658946 5.76351 7.0825 0 0 0
-0.943101 5.96018 6.20356 0 0 0
-0.948838 5.95633 6.08476 0 0 0
-0.339371 6.19365 6.96217 0 0 0
-0.966174 5.81668 6.32256 46 24 24
1.96769 3.8521 9.40199 104 53 41
0.411349 5.90222 7.31516 19 11 7
-0.312269 6.10092 7.13384 186 136 112
-1.15061 5.82199 5.97043 80 36 34
3.35187 2.97587 8.52491 114 129 141
3.41204 3.36435 8.7367 99 140 130
3.26613 3.52756 8.57611 50 69 61
-0.313905 5.88131 7.63192 218 187 161
3.14165 2.62751 8.80635 49 66 78
3.41829 2.44934 8.49822 85 82 58
0.587661 5.16687 9.91618 0 0 0
0.574654 5.1753 9.90365 0 0 0
-0.391309 5.90879 8.96335 6 0 0
-0.719478 5.74639 9.47638 83 27 9
0.869837 4.24729 11.1721 0 0 0
2.91969 1.54417 9.04673 0 0 0
2.80755 1.52517 9.02606 0 51 49
-0.15784 5.26064 9.97526 0 0 0
-0.270264 5.11838 10.3139 41 0 0
0.937889 3.77912 11.8588 0 0 0
2.49616 2.24223 9.72026 0 0 0
2.66535 0.47546 8.36199 39 0 0
2.19981 2.04293 9.90521 0 0 25
2.13243 2.02674 10.1283 0 0 0
0.996566 3.71733 11.4693 0 0 0
1.11155 3.4313 11.7935 0 0 0
2.19804 1.28592 9.52363 112 73 89
2.09567 0.742399 7.58281 0 0 0
1.9213 1.55867 10.0397 0 0 0
1.9581 1.71672 9.87582 0 0 0
1.93491 1.40199 9.80769 0 0 0
1.10493 3.16072 11.646 0 0 0
2.22967 1.18829 9.19616 22 60 52
1.69987 1.32993 9.61269 0 0 0
2.18863 0.454146 8.39174 0 81 87
1.69711 1.62789 9.2798 0 0 0
1.4925 1.1478 10.372 0 0 0
-0.091575 2.57961 11.0563 37 14 12
1.24665 0.510316 7.1994 75 69 61
