ply
format ascii 1.0
comment Created by Open3D
element vertex 1561
property double x
property double y
property double z
end_header
0.0444125 0.0251542 -0.0380087
0.0446158 0.0247734 -0.0379498
0.0448418 0.0249186 -0.0368977
0.0448479 0.0245632 -0.0368471
0.0453173 0.0249621 -0.0368716
0.045025 0.0246723 -0.036557
0.0455906 0.02493 -0.0361942
0.0456328 0.024487 -0.0362463
0.0459222 0.025408 -0.0362607
0.0467314 0.0253955 -0.0357542
0.0464271 0.0244405 -0.0354235
0.0466155 0.024955 -0.0347075
0.0467293 0.0250347 -0.0342706
0.0471605 0.0255054 -0.0349821
0.0471706 0.0251113 -0.0343861
0.0473053 0.0251881 -0.0344547
0.0471879 0.0252537 -0.0345451
0.0479873 0.0250773 -0.0341986
0.0482068 0.0256699 -0.0339604
0.0478185 0.0249413 -0.0339222
0.0485346 0.0254491 -0.0335269
0.0484778 0.0253379 -0.0333928
0.0483155 0.0255214 -0.0334898
0.048894 0.0251576 -0.0336278
0.0492501 0.0261126 -0.0340739
0.0488586 0.0259287 -0.0332137
0.0496183 0.0259333 -0.0331443
0.0497329 0.0257101 -0.0330757
0.0502924 0.025636 -0.0332203
0.0504715 0.0256649 -0.0326473
0.0502069 0.0262593 -0.0335613
0.0506011 0.0258845 -0.0327693
0.0508758 0.0259561 -0.0330841
0.05159 0.0261474 -0.0325157
0.0515762 0.0260451 -0.0322236
0.0517651 0.025934 -0.0319715
0.0517947 0.0263152 -0.0320306
0.0525421 0.0262966 -0.0319953
0.0525912 0.0261957 -0.0314732
0.0524492 0.0261875 -0.0314976
0.0525505 0.026859 -0.0318522
0.0534522 0.0265375 -0.0316866
0.0530968 0.0272952 -0.032921
0.0533398 0.0266288 -0.031779
0.0536407 0.0268832 -0.0311854
0.0538886 0.0267793 -0.0317341
0.0542665 0.0265274 -0.0320095
0.0545492 0.0266207 -0.0317579
0.0546135 0.0264091 -0.0314502
0.0545156 0.026814 -0.0314835
0.0546872 0.0271018 -0.0316675
0.0550376 0.0269427 -0.031339
0.0550334 0.0263985 -0.0314751
0.0556692 0.0273008 -0.0313395
0.055197 0.027618 -0.0314732
0.0558273 0.0268676 -0.0316371
0.0560425 0.0273313 -0.0316903
0.0562739 0.0278035 -0.0316853
0.0559639 0.0277639 -0.0318386
0.056227 0.0274776 -0.0312432
0.0567147 0.0272057 -0.0314765
0.0568504 0.0276778 -0.0312677
0.0567991 0.0275202 -0.0315124
0.0572152 0.028058 -0.0314041
0.0579706 0.0279603 -0.0316141
0.0575671 0.0278529 -0.0318531
0.0577932 0.0276072 -0.0320042
0.0578409 0.0281687 -0.0317018
0.0581761 0.0278529 -0.0320844
0.0585538 0.0282584 -0.031903
0.0585505 0.0280768 -0.0322216
0.0588675 0.0281086 -0.0323048
0.0588532 0.0284935 -0.0322356
0.0594938 0.0286224 -0.0324758
0.0595196 0.0283193 -0.0329058
0.0600427 0.0289237 -0.032911
0.0599173 0.0289182 -0.0335394
0.0605702 0.0286119 -0.0336533
0.0602203 0.0292499 -0.0332281
0.0604111 0.0290718 -0.0337721
0.0608538 0.0289684 -0.0342658
0.0608432 0.0294289 -0.0342064
0.0610363 0.0293982 -0.0347211
0.0615002 0.0295335 -0.0350273
0.0616813 0.0293032 -0.0354159
0.0616733 0.0299213 -0.03535
0.0616231 0.0296051 -0.0356079
0.0619605 0.0296941 -0.0362744
0.0618817 0.030013 -0.0360034
0.0617737 0.0298842 -0.0365684
0.0622645 0.0300753 -0.0367499
0.0620026 0.0301233 -0.0370444
0.0623427 0.0303424 -0.0376163
0.0626605 0.030517 -0.0380503
0.0628232 0.0301508 -0.03853
0.0629198 0.0302143 -0.0390764
0.0628313 0.0307596 -0.0386765
0.0630624 0.0307589 -0.0393516
0.0631296 0.0307407 -0.0399909
0.0634521 0.0312847 -0.040534
0.0633969 0.031292 -0.0421799
0.0634706 0.031148 -0.0427486
0.0635773 0.0311984 -0.0435272
0.0635642 0.0314618 -0.0433224
0.0638189 0.031527 -0.0442045
0.0636892 0.0315766 -0.0450304
0.0637318 0.0316849 -0.045835
0.0647654 0.0318936 -0.0480588
0.0636676 0.0321602 -0.0493648
0.0635374 0.0321395 -0.0527464
0.063387 0.0324795 -0.0562883
0.0631739 0.0332568 -0.0583293
0.0628704 0.033375 -0.0587285
0.0626913 0.0335839 -0.0591239
0.0627555 0.0333913 -0.0597077
0.0631101 0.0334339 -0.0599993
0.0629314 0.0337663 -0.0598751
0.0631916 0.0341438 -0.0601968
0.0627303 0.0337617 -0.0605337
0.0630658 0.0343427 -0.0597815
0.0633001 0.0344421 -0.0605628
0.0637304 0.034256 -0.0604245
0.0636025 0.0343623 -0.060654
0.0636166 0.034664 -0.0605637
0.0634451 0.0345695 -0.0612265
0.0635217 0.0344582 -0.0610492
0.0641576 0.0353135 -0.0611406
0.0640737 0.0347136 -0.0610564
0.0640154 0.0348853 -0.0613466
0.0647377 0.0350769 -0.0615983
0.0647839 0.0349309 -0.0618448
0.0647745 0.0354858 -0.0618106
0.0649558 0.0353735 -0.062093
0.0646089 0.0356214 -0.0617371
0.0651321 0.0355093 -0.0622885
0.0650368 0.0354321 -0.0622055
0.0653032 0.0356165 -0.0623858
0.0650103 0.0354964 -0.0624367
0.0651235 0.0357281 -0.0627655
0.0652967 0.0357642 -0.0628842
0.0650815 0.0358846 -0.0629858
0.0656531 0.0357751 -0.0632795
0.0658914 0.0361055 -0.0637499
0.0654719 0.0363802 -0.0634244
0.0657918 0.0360531 -0.0635893
0.0660084 0.0360218 -0.0640309
0.0659261 0.0362332 -0.0636147
0.0659688 0.036291 -0.0638919
0.0658365 0.036502 -0.0640327
0.0662581 0.0362085 -0.0643411
0.0663454 0.0362219 -0.0647309
0.0662047 0.036158 -0.0646613
0.066257 0.0363005 -0.0645971
0.0663947 0.0363981 -0.0649957
0.0663131 0.0361657 -0.0647497
0.0664129 0.0363698 -0.0653507
0.0664849 0.0366318 -0.0657233
0.0666407 0.0366283 -0.0661754
0.0664528 0.0366077 -0.066067
0.06673 0.0365271 -0.0665024
0.0669474 0.0367163 -0.0669087
0.0664142 0.0365788 -0.0672173
0.066704 0.036826 -0.0669494
0.066475 0.0366525 -0.0671923
0.0666488 0.0370873 -0.0671724
0.0668204 0.0370627 -0.0678576
0.0666258 0.0371403 -0.0676985
0.0666032 0.0368579 -0.068145
0.0666152 0.036967 -0.0684288
0.066861 0.0369931 -0.0686904
0.0665861 0.0370246 -0.0688603
0.0665409 0.0372265 -0.0687629
0.0668669 0.0367632 -0.0695888
0.0667464 0.0372657 -0.0691749
0.0668509 0.0370972 -0.0698573
0.0666108 0.0370115 -0.0700041
0.0665306 0.0372762 -0.0702789
0.0667111 0.0370701 -0.0705587
0.0667126 0.0373857 -0.0705302
0.0667818 0.0374259 -0.0710246
0.066736 0.0372992 -0.0713335
0.0668318 0.0374483 -0.0713695
0.0667943 0.0373246 -0.0717531
0.0668551 0.0373713 -0.0720153
0.0670059 0.0377025 -0.0721346
0.0667213 0.0376431 -0.0719988
0.0667745 0.0376416 -0.0724061
0.0668349 0.0377207 -0.0727412
0.0667523 0.0377485 -0.0729097
0.0667403 0.0378618 -0.0729454
0.0665778 0.0376115 -0.0732251
0.0669166 0.0378815 -0.0739842
0.0670441 0.0376783 -0.0742658
0.0669427 0.0376746 -0.0740667
0.0667314 0.0377011 -0.0742367
0.0665439 0.0379119 -0.0743281
0.0667517 0.0378567 -0.0746929
0.0667614 0.038333 -0.0746243
0.0666493 0.0380314 -0.074915
0.0665901 0.037888 -0.0751854
0.0666136 0.0381849 -0.0754108
0.0666434 0.0384596 -0.0755649
0.0665133 0.0383029 -0.0754585
0.0666849 0.0381409 -0.0761909
0.0666462 0.0381463 -0.0761594
0.0668644 0.0383997 -0.0761609
0.0666532 0.0383302 -0.076569
0.0666291 0.0382531 -0.0764298
0.0667449 0.0380677 -0.0765165
0.0668231 0.0383331 -0.0767901
0.06674 0.0382326 -0.0767515
0.0667032 0.0382896 -0.0769794
0.0670107 0.0384347 -0.0775347
0.0667704 0.0384554 -0.077186
0.0667347 0.0385355 -0.0775739
0.0665656 0.0385164 -0.0774943
0.0667537 0.0385931 -0.0776915
0.0668952 0.0386478 -0.077961
0.0666637 0.0386178 -0.0780431
0.066433 0.0385152 -0.0779983
0.0668771 0.0384767 -0.078255
0.0665784 0.0386282 -0.0781956
0.0667141 0.0387942 -0.0782255
0.0668059 0.0382764 -0.0784167
0.0667467 0.0384495 -0.0787324
0.066962 0.0386848 -0.0787362
0.0668916 0.0386438 -0.0787689
0.066855 0.0388197 -0.0785317
0.0668719 0.0386437 -0.0786557
0.0669253 0.0388669 -0.0786213
0.0670283 0.0387167 -0.0790513
0.0669739 0.0387479 -0.0789658
0.0669696 0.0386854 -0.0791202
0.067173 0.0387919 -0.0793496
0.0669962 0.0389722 -0.0791008
0.0670045 0.0390718 -0.0790157
0.0668916 0.0387142 -0.0794128
0.0670312 0.0388422 -0.0793668
0.0669841 0.038944 -0.079427
0.0669461 0.0389952 -0.0794655
0.0671571 0.0389128 -0.0795657
0.0671299 0.0391153 -0.0800172
0.0670043 0.0391353 -0.0797661
0.067117 0.0389435 -0.0799247
0.0671006 0.0390497 -0.0800919
0.0669406 0.0389847 -0.0799721
0.0669615 0.0391865 -0.080207
0.0669853 0.0390251 -0.0803225
0.0671157 0.0390756 -0.080188
0.0670113 0.0391284 -0.0803529
0.0671676 0.0392357 -0.0803709
0.0670324 0.0389952 -0.0806772
0.0671349 0.0392256 -0.0807187
0.0671063 0.0392737 -0.0808952
0.0670679 0.0392497 -0.0809835
0.0671737 0.0392702 -0.0811964
0.0670683 0.039184 -0.0811663
0.067073 0.0394127 -0.0813001
0.0670184 0.0391942 -0.0814759
0.067173 0.039437 -0.0812896
0.0670529 0.0393203 -0.0815558
0.0670402 0.0393048 -0.0816775
0.0670093 0.0393257 -0.0816632
0.0407168 0.0277182 -0.0619566
0.0407019 0.0276055 -0.0616044
0.0407225 0.0277217 -0.0616607
0.0408721 0.027782 -0.0612081
0.0409319 0.0277314 -0.061039
0.0410037 0.0274071 -0.0611479
0.0411064 0.02751 -0.0610816
0.0410601 0.0276931 -0.0611001
0.0411067 0.0277873 -0.0609049
0.0409509 0.0277898 -0.0605893
0.0411817 0.027774 -0.0606312
0.0410367 0.0276591 -0.060582
0.0412238 0.0277553 -0.0602931
0.0413656 0.027622 -0.0601259
0.0413024 0.0274691 -0.0601728
0.0412665 0.0279177 -0.0596701
0.041382 0.0278901 -0.0596836
0.0416903 0.0277407 -0.0599248
0.0416168 0.0276949 -0.0598558
0.0419663 0.0276899 -0.059212
0.0420037 0.0275422 -0.0591045
0.0417976 0.0275884 -0.0592281
0.0417457 0.027659 -0.0591755
0.0420538 0.0275437 -0.0589701
0.0421211 0.0275445 -0.0589936
0.0420725 0.0274415 -0.0588747
0.0420493 0.0273096 -0.0586226
0.0421533 0.0274893 -0.0586279
0.0420491 0.0269445 -0.0562764
0.0419786 0.0265747 -0.0547034
0.0416128 0.0263025 -0.0537115
0.0414618 0.0266664 -0.0532142
0.0415939 0.0264499 -0.0525519
0.0418057 0.0261196 -0.0522749
0.041368 0.0263872 -0.0519315
0.0414986 0.0263604 -0.0516905
0.0416671 0.0260792 -0.0511405
0.0417555 0.0260375 -0.0507458
0.0416288 0.0261935 -0.0506606
0.041716 0.0258918 -0.0505657
0.0414523 0.025836 -0.050358
0.0419875 0.0259146 -0.0495152
0.0420393 0.0257516 -0.0487704
0.0417295 0.0256985 -0.0484379
0.0422222 0.0255176 -0.0478852
0.041663 0.0251861 -0.0478376
0.0418465 0.0254643 -0.047364
0.0418634 0.0255033 -0.0465968
0.0419548 0.0251806 -0.0465243
0.0422664 0.0253569 -0.0454652
0.0417832 0.0250127 -0.0458487
0.0422237 0.0253711 -0.0450824
0.0424364 0.0252431 -0.0448758
0.0420071 0.0252418 -0.0444057
0.0418982 0.0250387 -0.0441623
0.0421095 0.0248461 -0.0438485
0.0424057 0.0250062 -0.0434822
0.0425953 0.0249852 -0.0428028
0.0427009 0.0252577 -0.0415498
0.0428104 0.0249906 -0.0410495
0.0428259 0.0249546 -0.0406629
0.0425969 0.0247398 -0.04073
0.0429357 0.0244784 -0.0403063
0.0432354 0.024748 -0.0397577
0.0431194 0.0249384 -0.0396942
0.0433301 0.0250477 -0.0393432
0.043457 0.0246757 -0.0389416
0.0434608 0.0245479 -0.0389669
0.0437628 0.0250389 -0.0384293
0.0433455 0.0247197 -0.0385967
0.0439268 0.0245754 -0.038236
0.0438673 0.0246933 -0.0377808
0.044564 0.025362 -0.0375645
0.0442309 0.0246444 -0.0378022
0.0449166 0.0247249 -0.0373702
0.0448626 0.024422 -0.0374057
0.0443781 0.0250811 -0.0370014
0.0447431 0.024729 -0.0369362
0.0448193 0.0239741 -0.036651
0.0451274 0.0246959 -0.0362227
0.044802 0.0246264 -0.0362038
0.045524 0.0248353 -0.035607
0.0460873 0.0250413 -0.0356184
0.0460358 0.0253052 -0.0352154
0.0458834 0.0246833 -0.0351735
0.0463281 0.0248294 -0.0350767
0.0464452 0.0249429 -0.0350002
0.0467387 0.0252985 -0.034636
0.0465733 0.0252942 -0.0341681
0.0469767 0.0249486 -0.0344301
0.0469029 0.0251249 -0.0340671
0.0475401 0.0254832 -0.0339499
0.0481009 0.0256889 -0.0344917
0.0477771 0.0254412 -0.034155
0.048143 0.025546 -0.0334677
0.0481947 0.0248581 -0.0334385
0.0490195 0.0257891 -0.0333943
0.0492571 0.025627 -0.0330811
0.0486838 0.025421 -0.0331949
0.0494012 0.0254139 -0.0329138
0.049315 0.0257116 -0.0328622
0.0498399 0.026077 -0.0327176
0.0498567 0.025915 -0.0326438
0.0502054 0.0261891 -0.0322147
0.0502791 0.0257552 -0.0326348
0.0507215 0.0260943 -0.0324502
0.0511464 0.0258688 -0.0324975
0.0511152 0.0256563 -0.0326802
0.051107 0.0262712 -0.0325185
0.0509831 0.0266262 -0.0325785
0.0512413 0.0262951 -0.0319156
0.0515486 0.0261985 -0.0315968
0.0522917 0.0261782 -0.0316246
0.0523051 0.0261354 -0.0314777
0.0523901 0.0267121 -0.0316871
0.0527087 0.026701 -0.0311731
0.052789 0.0266529 -0.031541
0.0527541 0.0263816 -0.0316257
0.0534091 0.0266908 -0.0314565
0.053325 0.0272428 -0.0316032
0.0534245 0.0267592 -0.03143
0.0539069 0.0262278 -0.0317848
0.0539304 0.0267234 -0.0312601
0.0538683 0.0272177 -0.0316017
0.0543502 0.0270273 -0.0315222
0.0548508 0.0271453 -0.0313136
0.0550925 0.0272391 -0.0311425
0.0552177 0.0271591 -0.0313503
0.0552657 0.0273609 -0.031121
0.0555293 0.0274034 -0.0311114
0.0559586 0.0274328 -0.0310731
0.0564256 0.0275411 -0.0307423
0.0566027 0.0276872 -0.0309954
0.0561533 0.027702 -0.0310191
0.0567787 0.0275412 -0.0312997
0.0567118 0.0277957 -0.0311446
0.0570085 0.0278514 -0.0310886
0.0575764 0.0279349 -0.0310359
0.0572506 0.0277496 -0.0310968
0.0576259 0.0282761 -0.0313573
0.0575677 0.0276511 -0.0312336
0.057492 0.0280472 -0.0310132
0.058031 0.0284881 -0.0310957
0.0583414 0.0280615 -0.0316068
0.0582892 0.0283647 -0.0315912
0.0585174 0.028261 -0.0318408
0.0588429 0.0281719 -0.0322836
0.0590603 0.0285541 -0.0315819
0.0588729 0.0288074 -0.0319871
0.0590416 0.0284994 -0.0316465
0.0592305 0.0285287 -0.0320612
0.0598974 0.0287665 -0.0326722
0.0599366 0.0290588 -0.0327126
0.0596004 0.0289329 -0.0331892
0.0600167 0.0292092 -0.0331971
0.0607072 0.0292032 -0.033206
0.0607905 0.029 -0.0334955
0.0609826 0.0295544 -0.0333048
0.0612146 0.0295147 -0.0339363
0.0611222 0.029742 -0.0338997
0.0613157 0.0294087 -0.0346459
0.0615302 0.0297307 -0.0347414
0.0616764 0.0300672 -0.0350661
0.0619845 0.0300786 -0.0356572
0.0621558 0.0299529 -0.0359308
0.061853 0.03024 -0.0359052
0.0624354 0.0303221 -0.0366301
0.0628702 0.0307541 -0.0370406
0.0623666 0.0303387 -0.0372414
0.062925 0.0306213 -0.0379686
0.0629029 0.0304529 -0.0384018
0.0628682 0.0310859 -0.0379557
0.0632377 0.030927 -0.0393376
0.0630405 0.0310517 -0.0392878
0.0633026 0.0311066 -0.0403013
0.0634455 0.0311657 -0.04077
0.0634389 0.0311895 -0.0414408
0.0636574 0.0313526 -0.0422919
0.063368 0.0315522 -0.0420841
0.0638059 0.0313018 -0.0435589
0.063884 0.0317753 -0.0437649
0.0636131 0.0316285 -0.0442449
0.0638657 0.0319706 -0.0448572
0.064099 0.0318897 -0.0460386
0.0640699 0.0320424 -0.0468622
0.0639551 0.0325813 -0.0477926
0.0640288 0.0322336 -0.0510246
0.0643245 0.0327572 -0.0549547
0.063514 0.0331251 -0.0570897
0.063163 0.0332346 -0.0584894
0.0630886 0.0333052 -0.0589855
0.0631323 0.0332349 -0.0587981
0.0623052 0.0338276 -0.0591437
0.0635313 0.0336569 -0.0590977
0.0627323 0.0340912 -0.0599872
0.0634065 0.0340384 -0.0598393
0.0631431 0.0341086 -0.0598951
0.0633933 0.0341075 -0.0602315
0.0636672 0.0340904 -0.0604089
0.0634196 0.0340637 -0.059876
0.0633649 0.0345831 -0.0598933
0.0638069 0.0345367 -0.0608461
0.0634119 0.0347744 -0.0606454
0.0637638 0.0348489 -0.0607263
0.0641255 0.0347891 -0.0604422
0.0639535 0.0346098 -0.0608765
0.0641233 0.0351077 -0.0609588
0.0641831 0.0349972 -0.0612903
0.0645631 0.0351438 -0.0616275
0.0647068 0.0355456 -0.0615469
0.0648862 0.0352881 -0.0618144
0.0651504 0.0354957 -0.0622379
0.0650495 0.0358294 -0.0622534
0.0650179 0.0357925 -0.0621722
0.0653638 0.0356186 -0.0622802
0.0652362 0.0361156 -0.0621456
0.0654696 0.035885 -0.0627969
0.0649873 0.0358895 -0.0624223
0.0658056 0.035995 -0.0629166
0.0655914 0.0361111 -0.0632757
0.0655326 0.0362843 -0.0631441
0.0655391 0.0360454 -0.0634881
0.0652875 0.0364553 -0.0636952
0.0658821 0.036402 -0.0634788
0.0659193 0.0363966 -0.0637549
0.0659036 0.0361892 -0.0641033
0.0657704 0.036558 -0.0642434
0.0660733 0.0363197 -0.0641911
0.0662649 0.0360193 -0.0646075
0.0659206 0.0368926 -0.0642453
0.0664079 0.0363756 -0.0647321
0.0664421 0.0366623 -0.0651373
0.066515 0.0362629 -0.0655406
0.0664674 0.0366423 -0.0653669
0.0671983 0.0367938 -0.0661477
0.0665807 0.0366844 -0.0656955
0.0665313 0.0368261 -0.0660317
0.0666838 0.0367965 -0.0664035
0.0667257 0.0368682 -0.0665112
0.0668199 0.03684 -0.0673004
0.0669003 0.0369584 -0.0675632
0.067002 0.0370226 -0.0679831
0.0666956 0.0372864 -0.0675508
0.0667323 0.0372063 -0.0681579
0.0668232 0.0372044 -0.068615
0.0667051 0.0371824 -0.0686213
0.0667111 0.0373862 -0.0686936
0.0668907 0.0371799 -0.0694196
0.0667664 0.0370325 -0.0694368
0.0669431 0.0371692 -0.0696381
0.0666709 0.0375551 -0.0695878
0.0669008 0.0372967 -0.070314
0.066761 0.0375956 -0.0699503
0.0667554 0.0373263 -0.0704837
0.0668176 0.0375253 -0.0706367
0.066842 0.0373245 -0.0710937
0.0667278 0.0377734 -0.0709392
0.0668128 0.0375842 -0.0709402
0.0669147 0.0374721 -0.0714368
0.066973 0.0375058 -0.0718725
0.0667057 0.0376789 -0.071748
0.0668155 0.0374295 -0.0719404
0.0670582 0.0379756 -0.0724454
0.0668498 0.0379356 -0.0726351
0.0667732 0.0375643 -0.0725969
0.0667349 0.0378541 -0.0728554
0.0669411 0.0378096 -0.0731697
0.06649 0.0377467 -0.0729539
0.0669554 0.0378376 -0.073656
0.066766 0.0379109 -0.0736689
0.0667992 0.0379375 -0.0738538
0.0668212 0.0381663 -0.074008
0.0665426 0.0380232 -0.0740942
0.066735 0.0380411 -0.0743069
0.0669451 0.0380322 -0.074813
0.0666358 0.0379983 -0.0747391
0.0667243 0.0382045 -0.0749669
0.0667459 0.0380811 -0.0750787
0.0669759 0.0379669 -0.0754616
0.0666305 0.0380885 -0.0754432
0.0668014 0.0383976 -0.0758483
0.0667137 0.0382512 -0.0756768
0.0665953 0.0381708 -0.0758657
0.0666108 0.0383867 -0.0760219
0.0666125 0.0383234 -0.0763124
0.0667021 0.037961 -0.0765589
0.0667373 0.0383377 -0.0766962
0.0668361 0.0383103 -0.0766552
0.0666964 0.0384938 -0.0765463
0.0666726 0.0384401 -0.076727
0.0665681 0.0383796 -0.077197
0.0666537 0.0383784 -0.0769998
0.0667122 0.0385749 -0.0772854
0.0667941 0.0383404 -0.0775175
0.0666353 0.0387414 -0.0773332
0.0668872 0.0382061 -0.0779252
0.0667637 0.0384361 -0.0778818
0.0666229 0.0386271 -0.0780121
0.0668186 0.0386344 -0.0782817
0.0667525 0.0386555 -0.0781623
0.0671387 0.0388339 -0.0787611
0.0668967 0.0388586 -0.0785076
0.0670222 0.0386311 -0.0786861
0.0669498 0.0389065 -0.0785572
0.0669771 0.0388866 -0.0788052
0.0668273 0.0388441 -0.0786026
0.0667694 0.0388999 -0.0786345
0.0667168 0.0388156 -0.0788056
0.0668639 0.0387884 -0.0790499
0.0668369 0.0388734 -0.0790499
0.0668197 0.0389629 -0.0791731
0.0670675 0.0390378 -0.0794914
0.0669484 0.0390736 -0.079585
0.0669958 0.0389317 -0.0793925
0.0670167 0.039104 -0.0794462
0.0670562 0.0389467 -0.0795713
0.0670273 0.0389195 -0.0795386
0.0670249 0.0389396 -0.0796331
0.0670228 0.0391456 -0.0800529
0.0671077 0.0391302 -0.0799239
0.0670899 0.039239 -0.0802333
0.0670843 0.0391102 -0.0800678
0.0670746 0.0391404 -0.0801907
0.067082 0.0391004 -0.0802006
0.0672552 0.0391607 -0.0802886
0.0670989 0.0390363 -0.0805419
0.0669825 0.0393696 -0.0808285
0.0671594 0.0391325 -0.0804927
0.0671969 0.0393099 -0.0804962
0.067146 0.0392611 -0.0808247
0.0670724 0.0392253 -0.0809985
0.0670749 0.0393551 -0.0811784
0.0670995 0.0393957 -0.0813178
0.0670904 0.0393189 -0.0812503
0.0671236 0.0394668 -0.0811542
0.0670815 0.0394055 -0.0813145
0.0670278 0.0393508 -0.0815521
0.0406216 0.0278576 -0.0619617
0.0406954 0.0278356 -0.0617136
0.0406854 0.0279383 -0.0615114
0.0407091 0.0278001 -0.0613981
0.0408631 0.02772 -0.0610165
0.0408499 0.0276877 -0.0610104
0.040998 0.0275835 -0.0610911
0.0410115 0.0277799 -0.0610504
0.041 0.0277196 -0.0606803
0.0410489 0.0277207 -0.0607636
0.0412067 0.0275714 -0.060436
0.0411239 0.0275091 -0.0605827
0.0412045 0.0272636 -0.0601427
0.0413893 0.0277759 -0.0599683
0.0413633 0.0278501 -0.0597271
0.0412181 0.0281456 -0.0596342
0.0415527 0.0272829 -0.060003
0.0413668 0.0278745 -0.0597426
0.041806 0.0277774 -0.0597412
0.0416884 0.0275616 -0.0596338
0.0416977 0.0276911 -0.0591855
0.0417593 0.0276968 -0.0592563
0.041944 0.0275378 -0.0588959
0.0419462 0.0274703 -0.0591048
0.0419722 0.0276579 -0.0589184
0.0421549 0.0274799 -0.0584929
0.041913 0.0273213 -0.0585714
0.0422646 0.0277506 -0.0581931
0.0422668 0.0276079 -0.057968
0.0417691 0.0268997 -0.0555597
0.0418398 0.0264117 -0.0542389
0.0415164 0.0265372 -0.0536787
0.0415132 0.0266015 -0.0529974
0.0414607 0.0265878 -0.05269
0.0415517 0.0263797 -0.0517315
0.0412736 0.0263792 -0.0520864
0.0413793 0.0261488 -0.051526
0.0413966 0.0260112 -0.0514305
0.0414805 0.0261433 -0.0506629
0.0414593 0.0263114 -0.0506097
0.0415784 0.0263205 -0.0502873
0.0420968 0.0258445 -0.0499769
0.0419035 0.0261329 -0.0491319
0.041895 0.0256164 -0.0489212
0.0419398 0.0257192 -0.0482496
0.0416735 0.0259979 -0.0473897
0.0419522 0.025702 -0.0473161
0.0419637 0.0254395 -0.0469356
0.0418334 0.0252462 -0.0465253
0.041841 0.0254344 -0.0459985
0.0417671 0.0256448 -0.0455979
0.0417656 0.0254953 -0.0453961
0.0419828 0.0251545 -0.0448684
0.0423621 0.0248187 -0.0441223
0.042107 0.0253808 -0.0438412
0.0422146 0.0249921 -0.0435371
0.0425982 0.0248133 -0.0428222
0.0424159 0.0251897 -0.0425504
0.0427365 0.0250185 -0.041918
0.0427268 0.0248311 -0.0414024
0.04237 0.0248088 -0.041335
0.0428054 0.0246965 -0.0410334
0.042666 0.024425 -0.0409366
0.0431551 0.0249611 -0.0400757
0.0423207 0.024014 -0.0401896
0.0429826 0.0246223 -0.0396079
0.0430791 0.0251976 -0.0392591
0.0431611 0.0246307 -0.0387088
0.043409 0.0247387 -0.0385887
0.0433963 0.0242235 -0.0387802
0.0434141 0.0247254 -0.0387451
0.0442275 0.0247319 -0.0381219
0.0438757 0.024442 -0.0379572
0.0437451 0.0250944 -0.0373789
0.0442731 0.024847 -0.037492
0.0446179 0.0252914 -0.0369692
0.0444665 0.024983 -0.0371133
0.0443389 0.0245593 -0.0372795
0.0445292 0.024599 -0.0367744
0.0445485 0.0252246 -0.0361378
0.0456962 0.0248314 -0.0359943
0.0448493 0.0248205 -0.0359914
0.0452214 0.025294 -0.0358897
0.0454178 0.0248293 -0.035882
0.0453544 0.0248097 -0.0357454
0.0456396 0.0248328 -0.0356295
0.0458259 0.0250459 -0.0352079
0.0459374 0.0246952 -0.0351868
0.0460496 0.0249801 -0.0348971
0.0461511 0.0249604 -0.0347516
0.0467737 0.0248674 -0.0346896
0.0462179 0.0252273 -0.0347276
0.0467164 0.0254943 -0.034317
0.0463358 0.0253979 -0.0341441
0.0469451 0.0253385 -0.0339106
0.0471399 0.0253055 -0.0341095
0.0474605 0.0258603 -0.0341591
0.047386 0.0254633 -0.0342306
0.0478968 0.0255129 -0.0338487
0.048308 0.0258996 -0.0337882
0.0482626 0.0253924 -0.0334418
0.0481084 0.0256325 -0.033423
0.0487961 0.0255558 -0.0333576
0.0487466 0.0253013 -0.0333981
0.0489211 0.0250944 -0.0334412
0.0492808 0.0266273 -0.0334488
0.0489415 0.0263327 -0.0330238
0.0491637 0.0258714 -0.0331665
0.0496012 0.0262172 -0.0331153
0.0493581 0.0268289 -0.0329727
0.0498593 0.0262958 -0.0324229
0.0504047 0.0263922 -0.0320715
0.0505002 0.0262389 -0.0329211
0.0503919 0.0260887 -0.032729
0.0506871 0.0263421 -0.0323732
0.0507944 0.0265774 -0.0320038
0.0509424 0.0262239 -0.0320644
0.0512068 0.0267689 -0.0325974
0.0513488 0.0260058 -0.0318241
0.0514988 0.0262811 -0.0317159
0.0518315 0.0265759 -0.031828
0.0522049 0.0262664 -0.0314235
0.0524985 0.0264139 -0.0315291
0.0528289 0.0264196 -0.0312233
0.0529237 0.0267639 -0.0312267
0.0531845 0.0265859 -0.031304
0.0532993 0.0270346 -0.031238
0.0533289 0.0266517 -0.0311431
0.0534646 0.0266346 -0.0312561
0.0535228 0.0266822 -0.031093
0.053544 0.0267068 -0.0308557
0.0539913 0.0275984 -0.0311786
0.0541981 0.0268459 -0.0312384
0.05415 0.0273026 -0.0310778
0.054319 0.0270523 -0.0310198
0.0552852 0.0272302 -0.0307023
0.0549285 0.0274603 -0.0308244
0.055579 0.0270903 -0.031403
0.0553341 0.0280026 -0.0310013
0.056194 0.0274581 -0.0309878
0.0557594 0.0275239 -0.0307892
0.0559664 0.0281054 -0.0313359
0.0564457 0.0275081 -0.0309688
0.0569748 0.0275006 -0.0312142
0.0569362 0.0280707 -0.0308148
0.0575142 0.0282901 -0.0308839
0.0577384 0.0282082 -0.0308897
0.0577698 0.0277545 -0.0308527
0.0580886 0.0281689 -0.0310511
0.0584596 0.0284831 -0.0311725
0.0587539 0.0283334 -0.0313624
0.0586266 0.0285525 -0.0314134
0.0589144 0.0287417 -0.0312129
0.0591143 0.0290673 -0.0312324
0.0591976 0.0288772 -0.0315955
0.0593246 0.0290205 -0.0321663
0.0598047 0.0288433 -0.0322787
0.0597155 0.0292127 -0.0325741
0.0602488 0.0289057 -0.0328919
0.060513 0.0294922 -0.0327837
0.0601227 0.0295833 -0.0327347
0.0607663 0.0297104 -0.0330437
0.0606906 0.0293644 -0.0334591
0.0610334 0.0299325 -0.0335054
0.061391 0.0296364 -0.0341296
0.0612861 0.0299436 -0.0340577
0.0623012 0.0296922 -0.0346792
0.0616284 0.0297438 -0.035084
0.0615786 0.03048 -0.0349744
0.0616549 0.0305331 -0.0354007
0.0622333 0.0301608 -0.0360547
0.0624675 0.0299026 -0.036272
0.0624288 0.0304113 -0.0364899
0.0626436 0.0306066 -0.0369048
0.0623104 0.0306623 -0.0368858
0.0626123 0.0305187 -0.0373063
0.0628962 0.0308323 -0.038
0.0627041 0.0310878 -0.0377251
0.0629837 0.0308067 -0.0384891
0.0629323 0.0309252 -0.0391457
0.0630466 0.0312074 -0.0391114
0.0631924 0.0311693 -0.0399936
0.0632157 0.0315603 -0.0409541
0.063555 0.0317209 -0.041376
0.063821 0.0317954 -0.0421317
0.0637877 0.0315999 -0.0431674
0.0637306 0.031851 -0.0433013
0.0638648 0.0320114 -0.0440102
0.0639212 0.0321626 -0.0445428
0.063957 0.0319129 -0.045419
0.063959 0.0322578 -0.0456292
0.0639876 0.0323463 -0.0465382
0.0643075 0.0323847 -0.0480262
0.0641408 0.0327673 -0.0496858
0.0637275 0.0325285 -0.0535356
0.0628579 0.0334937 -0.056773
0.0631832 0.0331924 -0.0584033
0.0630456 0.0334746 -0.0591939
0.0626886 0.0337989 -0.0589419
0.0633923 0.0333167 -0.058958
0.06277 0.0340933 -0.0592076
0.0628367 0.033747 -0.0599139
0.0634008 0.0338569 -0.0597615
0.0631167 0.0338454 -0.0598243
0.0631985 0.0343972 -0.0603132
0.0630136 0.0344045 -0.0597561
0.0636168 0.034799 -0.0603101
0.0637515 0.0349962 -0.0603832
0.0640477 0.0345441 -0.0604744
0.0636241 0.034533 -0.0609459
0.0640818 0.0348534 -0.060592
0.0640038 0.0351584 -0.0607748
0.0641266 0.0350902 -0.0608869
0.0641839 0.0351728 -0.06136
0.0644777 0.0354258 -0.0615222
0.064737 0.0354541 -0.0616883
0.064771 0.0354821 -0.061673
0.0652172 0.0354959 -0.0617788
0.065089 0.0357981 -0.0619774
0.0652353 0.0356727 -0.0621932
0.0650193 0.035915 -0.0620651
0.0650084 0.0357851 -0.0621658
0.0652332 0.0359326 -0.0627192
0.0654991 0.0361697 -0.0627306
0.0655595 0.0361429 -0.0630735
0.0658932 0.0361482 -0.0631532
0.0655459 0.0362204 -0.0630078
0.065748 0.0362859 -0.0632036
0.0658869 0.0361481 -0.0631914
0.0659402 0.036145 -0.0638985
0.0663759 0.0363603 -0.0642945
0.0664348 0.0362536 -0.0645165
0.0660981 0.0365412 -0.0644143
0.066217 0.0363285 -0.0641258
0.0665258 0.0365497 -0.064784
0.0666537 0.0363871 -0.065158
0.066599 0.03662 -0.0654379
0.0666419 0.0366057 -0.065487
0.0666761 0.0369888 -0.065197
0.0665692 0.0368364 -0.0655115
0.066684 0.0368991 -0.0657528
0.0666711 0.0367579 -0.0660605
0.0666847 0.0367866 -0.0661451
0.0667043 0.0371606 -0.0665262
0.0668951 0.0368616 -0.0670635
0.0664192 0.0369378 -0.0668946
0.066605 0.0371946 -0.0672049
0.0669474 0.0371924 -0.0680646
0.0669467 0.0370527 -0.0684938
0.0667839 0.037424 -0.0682765
0.0668454 0.0373905 -0.0684764
0.0669957 0.0373535 -0.0689253
0.0670409 0.0374721 -0.0691507
0.0667945 0.0373693 -0.0688992
0.0668664 0.0373316 -0.0694787
0.0669031 0.0373208 -0.0700103
0.0669603 0.0375683 -0.0700633
0.0671238 0.0375718 -0.0703442
0.0669655 0.0374131 -0.0703458
0.0669428 0.0374589 -0.0706991
0.0667806 0.037344 -0.0708574
0.0668766 0.0373928 -0.0712731
0.0670229 0.0376099 -0.071524
0.0668936 0.0375941 -0.0713982
0.0669877 0.0377121 -0.0717911
0.0668983 0.0378312 -0.071716
0.0669752 0.0378712 -0.0724117
0.0669358 0.0380187 -0.0726263
0.0669442 0.0378182 -0.0727354
0.0668752 0.0379503 -0.0728456
0.06671 0.0380878 -0.0730186
0.0672436 0.037931 -0.0735067
0.0670922 0.0380708 -0.0737287
0.066924 0.0380433 -0.0736758
0.0668784 0.0381843 -0.0736178
0.066922 0.0380551 -0.0742077
0.066762 0.0378594 -0.0743156
0.0667476 0.0381302 -0.0745539
0.0668326 0.0381562 -0.074722
0.0667169 0.0378931 -0.0751173
0.0667328 0.0380667 -0.0751035
0.0667678 0.0383516 -0.0751731
0.066671 0.0383233 -0.0754105
0.0666908 0.0382646 -0.0755511
0.0665752 0.0384478 -0.07588
0.0667871 0.0383593 -0.0762076
0.0667412 0.0385027 -0.0763709
0.066817 0.0380977 -0.076403
0.0665008 0.0385293 -0.0762987
0.0667193 0.0380869 -0.0765642
0.0665302 0.0383654 -0.0768064
0.06675 0.0383293 -0.0768688
0.0668331 0.0385156 -0.0770935
0.0666918 0.0387946 -0.0770701
0.0668186 0.0385186 -0.0772379
0.0666208 0.0386437 -0.0773092
0.0669057 0.0385835 -0.0778422
0.0666106 0.0385974 -0.0773236
0.0668183 0.0385518 -0.077918
0.0667625 0.038667 -0.0777462
0.0668279 0.038759 -0.0781449
0.066842 0.0383683 -0.0782068
0.0667392 0.0387476 -0.0781402
0.066693 0.0386204 -0.078459
0.0666873 0.0387871 -0.0783038
0.0669138 0.038825 -0.0786096
0.0669606 0.0389632 -0.0786394
0.0668406 0.0388599 -0.0785219
0.0669319 0.038779 -0.0786678
0.0667198 0.0388545 -0.0785105
0.0667921 0.0390891 -0.0786746
0.0668996 0.038874 -0.0787473
0.0669977 0.0390204 -0.0789037
0.0669524 0.0390198 -0.0788224
0.0673819 0.038952 -0.0796298
0.0670303 0.0390097 -0.0791006
0.0670296 0.0388901 -0.0793466
0.0671567 0.0390448 -0.0796239
0.0669717 0.0388374 -0.0794327
0.0669859 0.0391775 -0.0793958
0.0671105 0.0393062 -0.0796196
0.0672323 0.0392779 -0.0797439
0.0671356 0.0391397 -0.0797952
0.0670696 0.0391915 -0.079874
0.067187 0.0392103 -0.0799226
0.0670773 0.0391457 -0.0797738
0.0669903 0.0391629 -0.0802983
0.0672342 0.0390793 -0.0802668
0.0672694 0.039156 -0.0804627
0.0669443 0.0393193 -0.0802181
0.0671622 0.0393635 -0.0802593
0.0671313 0.0393146 -0.0802963
0.0672827 0.039262 -0.0806324
0.0672183 0.0393064 -0.080643
0.0670821 0.0393339 -0.0809973
0.0671797 0.0394494 -0.0811296
0.0670207 0.0394141 -0.0812101
0.0671462 0.0394478 -0.0811591
0.067172 0.0394806 -0.081132
0.0671108 0.0394403 -0.0814424
0.0670049 0.0393563 -0.0814142
0.0670579 0.0394789 -0.0815948
0.040616 0.0278848 -0.0619307
0.0406894 0.0277915 -0.061574
0.0406912 0.0279093 -0.0616019
0.0407134 0.0278897 -0.0613095
0.0408873 0.0277997 -0.0610276
0.040776 0.0275583 -0.0610591
0.0408588 0.0275966 -0.0610669
0.0410274 0.0278931 -0.0609776
0.0409709 0.0278781 -0.0609263
0.0410214 0.0276345 -0.0605457
0.0410548 0.027667 -0.060686
0.041062 0.0277993 -0.0605301
0.0412406 0.0278274 -0.0601619
0.0410834 0.0276868 -0.0601149
0.0412309 0.0274184 -0.0601121
0.0414752 0.0278552 -0.0598291
0.0415154 0.0277523 -0.0600138
0.0416712 0.0277861 -0.0598598
0.0416264 0.027784 -0.0596778
0.042045 0.0277687 -0.0594377
0.0414689 0.0278364 -0.0592128
0.0417089 0.0275028 -0.0591066
0.0419484 0.0279103 -0.0589672
0.0417821 0.0277019 -0.0586954
0.042073 0.0276933 -0.0585868
0.0423776 0.0277589 -0.0581731
0.0416494 0.0272218 -0.0566871
0.0416308 0.0269267 -0.0546768
0.0414433 0.0268244 -0.053841
0.0414273 0.0266603 -0.0533315
0.041344 0.0265655 -0.0527883
0.0414219 0.0266114 -0.052345
0.0410956 0.0265511 -0.0522962
0.0412186 0.0263671 -0.0517376
0.0413896 0.0259473 -0.051582
0.0412709 0.026021 -0.0513272
0.0414879 0.0265998 -0.0504038
0.0416034 0.0262849 -0.0501
0.041484 0.0263203 -0.0499327
0.0415079 0.0260015 -0.0498895
0.041929 0.0261517 -0.0490522
0.0416466 0.0258078 -0.0482922
0.0417656 0.02571 -0.0476617
0.0414892 0.0255176 -0.0471829
0.0417257 0.0253598 -0.0465221
0.041995 0.0253077 -0.0460078
0.0415057 0.0259632 -0.0455567
0.0419176 0.0251648 -0.0452631
0.0418756 0.0252703 -0.0450155
0.0418543 0.0253188 -0.0445115
0.0418735 0.025239 -0.0437189
0.042233 0.0251038 -0.0427337
0.0422944 0.0249661 -0.0426135
0.0419583 0.0247827 -0.0425622
0.0426413 0.0248412 -0.0414981
0.0420968 0.0250327 -0.0415094
0.04249 0.024994 -0.040989
0.0423215 0.0248491 -0.0410446
0.0427481 0.0250703 -0.0402724
0.0426286 0.0248838 -0.0401033
0.0428641 0.0248367 -0.0393181
0.0433365 0.02484 -0.0391084
0.0431847 0.0248741 -0.0389731
0.04329 0.0249333 -0.0386961
0.0437749 0.0248964 -0.0385684
0.0439481 0.0252124 -0.0383176
0.0438972 0.024929 -0.0377483
0.0435623 0.0249699 -0.0378591
0.0439294 0.0250295 -0.0374796
0.0438415 0.0255173 -0.0375601
0.0434112 0.0244603 -0.0374447
0.0448765 0.0250635 -0.0366028
0.0447294 0.0245928 -0.036701
0.0449599 0.0254775 -0.0362304
0.0449038 0.0249953 -0.0361236
0.0447662 0.0249618 -0.0358431
0.0450562 0.0247896 -0.0354793
0.0448999 0.0253165 -0.0351958
0.0452434 0.0248904 -0.0352159
0.0454601 0.0249081 -0.035409
0.045673 0.0248791 -0.0352515
0.0457561 0.0251186 -0.0347382
0.0463686 0.0256217 -0.0344816
0.0459392 0.024806 -0.034562
0.046266 0.0255435 -0.0350989
0.0469811 0.0258133 -0.0342018
0.0465315 0.025084 -0.0338898
0.0469591 0.0258939 -0.0345111
0.0472392 0.0251611 -0.0341086
0.0473682 0.0263471 -0.0345918
0.047622 0.0257079 -0.033517
0.0482251 0.025608 -0.0338197
0.0478069 0.0256661 -0.0332938
0.0480944 0.0260716 -0.0330463
0.0482384 0.0255734 -0.0332448
0.0489405 0.0260146 -0.0331289
0.0488283 0.0263531 -0.0331191
0.0492065 0.0259006 -0.0322668
0.0497382 0.0259992 -0.0326946
0.0493838 0.026442 -0.032124
0.049732 0.0265546 -0.0323345
0.0503497 0.0262901 -0.031983
0.0503789 0.0264555 -0.0324624
0.0503958 0.0260641 -0.0320473
0.0503722 0.0267643 -0.0321876
0.0505822 0.0264778 -0.0318785
0.0508558 0.0268245 -0.0324421
0.0506806 0.026627 -0.0312531
0.0514174 0.0263476 -0.0314836
0.0517469 0.0266287 -0.0314159
0.0521995 0.0265107 -0.0312504
0.0525078 0.0270278 -0.031233
0.0520825 0.0267128 -0.0314512
0.0524867 0.0266497 -0.031169
0.0525933 0.026717 -0.0311484
0.0531752 0.0268831 -0.0311144
0.0533618 0.027276 -0.0310636
0.0540524 0.0273895 -0.0306366
0.0544136 0.0271948 -0.0309744
0.0547793 0.0272559 -0.0309131
0.0545571 0.0270153 -0.0307084
0.0558097 0.0277702 -0.0305688
0.0555541 0.0276958 -0.0304841
0.0553587 0.0276529 -0.0305779
0.0554526 0.0276932 -0.0314698
0.0558929 0.0279572 -0.0317479
0.0561365 0.0275954 -0.0304564
0.0563968 0.0277938 -0.0306643
0.0565941 0.0278194 -0.0305664
0.0563121 0.0282213 -0.030499
0.056828 0.0275757 -0.0311057
0.0568208 0.0278559 -0.0305255
0.0575799 0.0282795 -0.0303868
0.0570468 0.0283689 -0.0309232
0.0578037 0.0280691 -0.0305784
0.0578593 0.0283328 -0.0305724
0.0581345 0.0287472 -0.0307328
0.0581026 0.0284178 -0.0309281
0.0585975 0.028797 -0.0309879
0.0588871 0.0288765 -0.0308763
0.0595134 0.0287513 -0.0314135
0.0595299 0.0287859 -0.031751
0.0592421 0.0286295 -0.0319053
0.0601478 0.0291838 -0.0317347
0.0601129 0.0289034 -0.0320981
0.0602092 0.0290598 -0.0322038
0.0605179 0.0291949 -0.0327153
0.060596 0.0297275 -0.0325595
0.0612146 0.0295706 -0.033218
0.0608516 0.0296433 -0.033499
0.0609799 0.0298867 -0.0333956
0.061089 0.0294711 -0.0342208
0.0616342 0.0299092 -0.0342851
0.0619489 0.0300522 -0.0342442
0.0618913 0.029785 -0.0352322
0.0620836 0.0302814 -0.0348797
0.0620865 0.0299205 -0.0356786
0.0621864 0.0304722 -0.0357229
0.0620865 0.0302633 -0.0361261
0.0626894 0.030918 -0.0360961
0.0629503 0.0305941 -0.0369821
0.062571 0.0308027 -0.037033
0.0627985 0.0312341 -0.0370512
0.0629831 0.030957 -0.0382795
0.0630725 0.0311124 -0.0391668
0.0633378 0.0315483 -0.0393607
0.0635751 0.0314534 -0.0403472
0.063378 0.0316928 -0.0405261
0.0635308 0.0314582 -0.0414196
0.06366 0.0315879 -0.041852
0.0637264 0.0317594 -0.0426413
0.0640781 0.0319699 -0.0429766
0.0640396 0.0315808 -0.0435878
0.0639548 0.032323 -0.0438345
0.0634312 0.0324303 -0.043971
0.0640226 0.0324238 -0.0449506
0.0641091 0.0325684 -0.0457464
0.0641319 0.0329479 -0.0462691
0.0639057 0.0326102 -0.0479064
0.0655341 0.0318154 -0.050012
0.0637138 0.0329239 -0.0523427
0.0636822 0.0332496 -0.0558867
0.0631454 0.0330435 -0.0581191
0.0626384 0.033526 -0.058789
0.0627325 0.0338371 -0.0589374
0.0634667 0.0336268 -0.0592029
0.0634423 0.0338836 -0.0595141
0.0634243 0.0336564 -0.0592946
0.0635759 0.0339623 -0.0598306
0.0631675 0.0345919 -0.0597436
0.0629826 0.034445 -0.0598864
0.0636168 0.0342894 -0.0603674
0.0634461 0.0345415 -0.0603576
0.0632065 0.0349372 -0.0595742
0.0637876 0.0343777 -0.0604153
0.06416 0.0352522 -0.0603798
0.0639314 0.0344822 -0.0611962
0.0639779 0.0346992 -0.0610525
0.0643126 0.0352283 -0.0610338
0.0644296 0.0353605 -0.0613153
0.0646411 0.0353999 -0.0614588
0.0646101 0.0355287 -0.0610166
0.0648971 0.0356789 -0.060843
0.0648032 0.035438 -0.061611
0.0645815 0.0356753 -0.0616096
0.0649073 0.0359693 -0.0616213
0.065464 0.035653 -0.0621563
0.0653581 0.0358527 -0.0624444
0.065396 0.0358442 -0.0623806
0.0651453 0.0360924 -0.062423
0.065384 0.0358523 -0.0624296
0.0660599 0.0361905 -0.0629245
0.0659963 0.0361398 -0.0630021
0.0660042 0.0363969 -0.0632059
0.0656425 0.0368064 -0.0629634
0.0660713 0.0365495 -0.0632516
0.0658516 0.0364044 -0.0635645
0.0663589 0.0365519 -0.0640374
0.0661843 0.0363839 -0.0637927
0.0663047 0.0364226 -0.0641576
0.0665886 0.0364989 -0.0643371
0.0665882 0.0365756 -0.0644583
0.0662698 0.0364366 -0.0642748
0.0664416 0.0367185 -0.0645987
0.0663443 0.0365804 -0.0644726
0.0665679 0.0365062 -0.0650808
0.0665606 0.0368488 -0.065106
0.06628 0.0365824 -0.0652246
0.0666104 0.0368383 -0.0654445
0.0672416 0.0369859 -0.0660312
0.0665624 0.0369517 -0.0657531
0.0666992 0.037115 -0.0660359
0.0667522 0.0370136 -0.0662266
0.0669201 0.0371927 -0.066254
0.0667635 0.0370113 -0.0665499
0.0669619 0.0372462 -0.0670025
0.0669251 0.0373774 -0.0672753
0.0668219 0.0372531 -0.0676671
0.0668803 0.0375816 -0.0676562
0.0667114 0.0370779 -0.067929
0.0667014 0.0373763 -0.0681242
0.0670085 0.0375417 -0.0685809
0.066964 0.0374696 -0.0688888
0.0670247 0.0373306 -0.0691631
0.0669392 0.0373357 -0.0693455
0.0669315 0.0374804 -0.0696424
0.0670181 0.0374097 -0.0698373
0.0669707 0.0376333 -0.0697627
0.0671395 0.0373326 -0.0704154
0.0669969 0.0375134 -0.070346
0.0670553 0.0374075 -0.0708466
0.0669486 0.0375624 -0.0709919
0.0667598 0.0375865 -0.0710148
0.0670261 0.0375905 -0.0715322
0.0669372 0.0379443 -0.0716549
0.0669551 0.0380252 -0.0717145
0.0668862 0.0378486 -0.0721737
0.0669094 0.0380602 -0.0723219
0.0669958 0.0378181 -0.0726882
0.0668667 0.0378694 -0.0727135
0.066721 0.0381327 -0.0728392
0.0667987 0.0379889 -0.0730797
0.0671285 0.0378866 -0.07347
0.0669894 0.0383071 -0.0732372
0.066775 0.0380995 -0.073255
0.0669345 0.0380781 -0.0739551
0.0667636 0.0381932 -0.0742368
0.0669344 0.0382007 -0.0742197
0.0670099 0.0381928 -0.0742396
0.0670462 0.0383121 -0.0748782
0.0667228 0.0384862 -0.0748243
0.0668443 0.038287 -0.0750383
0.0666769 0.0382168 -0.0751879
0.0667564 0.0386049 -0.0752513
0.0668042 0.0382185 -0.0754709
0.066771 0.0381581 -0.0757289
0.0668366 0.0384208 -0.0757517
0.0666619 0.0385865 -0.0757686
0.0669169 0.0383154 -0.0760977
0.0668583 0.0384519 -0.0763514
0.0665038 0.0385643 -0.0763922
0.0667406 0.0387117 -0.0764897
0.0666471 0.038533 -0.07625
0.0666806 0.0384699 -0.0765706
0.0668086 0.0384964 -0.0768569
0.066822 0.0385125 -0.0770765
0.0667627 0.0386666 -0.0771963
0.0668959 0.0386538 -0.077388
0.0667269 0.0385024 -0.0771922
0.0666452 0.0389851 -0.0773164
0.0666251 0.0387332 -0.0776466
0.0668027 0.0388062 -0.0777568
0.0668982 0.0385863 -0.0778745
0.0668879 0.0389103 -0.0783683
0.0668299 0.0387546 -0.0781999
0.0667991 0.0386252 -0.0782477
0.0668176 0.0386412 -0.0784038
0.0667304 0.0387601 -0.0783566
0.0667026 0.038915 -0.0784463
0.0669429 0.0388763 -0.0789338
0.066714 0.0388928 -0.07893
0.0667918 0.0390128 -0.0785408
0.0669143 0.0388004 -0.0786199
0.0670488 0.0389772 -0.078634
0.0670595 0.0389794 -0.0790899
0.0669687 0.0390262 -0.0789262
0.0670116 0.0391545 -0.0789392
0.0670589 0.0391038 -0.0792528
0.0671794 0.039289 -0.0792574
0.0668407 0.0390971 -0.0789617
0.0671532 0.0392552 -0.0794102
0.0669122 0.0391628 -0.0794983
0.0670382 0.038884 -0.0795079
0.0670014 0.0393059 -0.0793822
0.0671677 0.0389919 -0.079879
0.0670379 0.0390676 -0.0797371
0.0671881 0.0393029 -0.0800276
0.0671368 0.0394015 -0.0799158
0.0671281 0.0393778 -0.0799479
0.067256 0.0392475 -0.080147
0.067214 0.0391788 -0.0802297
0.067108 0.0390739 -0.0802664
0.0672374 0.0393238 -0.0802431
0.0672447 0.0393142 -0.0805946
0.0671602 0.0393227 -0.080418
0.0671252 0.0392979 -0.0805652
0.0671304 0.0395015 -0.0808139
0.067125 0.0394544 -0.0808904
0.0670518 0.0393292 -0.081196
0.0671203 0.0394831 -0.0811318
0.0670775 0.0394695 -0.0811786
0.0671093 0.0394767 -0.0812743
0.067113 0.0393871 -0.0814933
0.0671514 0.0395522 -0.0815774
0.0405199 0.0278839 -0.0618624
0.0406309 0.0279566 -0.061703
0.0406601 0.0279065 -0.0612757
0.040728 0.0278605 -0.0611228
0.0405756 0.0279411 -0.0611659
0.0406352 0.0278404 -0.0611347
0.0409215 0.0276399 -0.0610167
0.04094 0.0277855 -0.061006
0.0408965 0.0278194 -0.0608655
0.0410014 0.0279618 -0.0604166
0.0412244 0.0278711 -0.0605341
0.0412009 0.0278806 -0.0600125
0.0412878 0.027906 -0.0597071
0.0414824 0.0278882 -0.059595
0.041205 0.0281658 -0.0596324
0.0412723 0.0279267 -0.0595848
0.0414712 0.0280856 -0.0596679
0.041352 0.0279172 -0.0597296
0.0416727 0.0277908 -0.0595625
0.041632 0.0278312 -0.0592439
0.0415506 0.0278696 -0.0590512
0.0415468 0.0277553 -0.0588676
0.0417617 0.0276882 -0.05866
0.0417831 0.0277414 -0.0588104
0.0417093 0.0280891 -0.0584731
0.0421006 0.0278492 -0.0581073
0.0421957 0.0278077 -0.0581047
0.0417002 0.0270669 -0.0557754
0.0411988 0.02679 -0.0546256
0.0414099 0.0268062 -0.0536347
0.0412491 0.0267453 -0.0531893
0.0411328 0.0266091 -0.0529478
0.0412546 0.0268104 -0.0524454
0.0412874 0.0267089 -0.0520212
0.0413943 0.0265909 -0.0513001
0.0415526 0.0261867 -0.0509142
0.0412568 0.0265791 -0.0505099
0.0413135 0.026213 -0.0503805
0.0414696 0.0263707 -0.049636
0.0417088 0.0260475 -0.0495629
0.0417725 0.0260028 -0.0489733
0.0417613 0.0260426 -0.0484013
0.0417513 0.0258213 -0.047686
0.0418463 0.0255603 -0.0474886
0.0418401 0.0255066 -0.0464412
0.0416931 0.0257441 -0.0462007
0.0418404 0.0256499 -0.0457292
0.0419708 0.0255745 -0.0452142
0.0420447 0.0253228 -0.0449122
0.0418554 0.0253485 -0.0444363
0.04203 0.0250168 -0.0436082
0.0422265 0.0251537 -0.0427237
0.0420278 0.0254785 -0.0423003
0.0420296 0.0251532 -0.0420306
0.042264 0.0252267 -0.0414307
0.0424153 0.0245784 -0.0414022
0.0422745 0.0258654 -0.0407107
0.0424721 0.0254581 -0.0408131
0.0427629 0.0253627 -0.0399099
0.0426942 0.025108 -0.0395326
0.0425055 0.0250201 -0.0393773
0.0429656 0.0248422 -0.0386448
0.0426259 0.0251141 -0.038638
0.0431924 0.025019 -0.0381265
0.0432972 0.0245862 -0.037973
0.0437804 0.0249496 -0.0372583
0.0437731 0.0248217 -0.0368621
0.0438729 0.0247176 -0.0371153
0.0443008 0.0251027 -0.0364866
0.0440266 0.0249967 -0.0367702
0.0444178 0.025103 -0.0361125
0.0446656 0.0250706 -0.0356327
0.0446913 0.024902 -0.0355296
0.0450252 0.0247257 -0.0353883
0.0452165 0.0251473 -0.0352759
0.0452178 0.025097 -0.0351932
0.0455017 0.0252974 -0.0351696
0.0452635 0.0252677 -0.0351381
0.0457652 0.0250986 -0.0352935
0.045815 0.0253271 -0.0343565
0.0462112 0.0251373 -0.0344357
0.0460969 0.0253635 -0.0341031
0.0464186 0.0251259 -0.0338044
0.0469813 0.0257306 -0.0334539
0.0470854 0.0254031 -0.033994
0.0472191 0.0261902 -0.0335778
0.0472709 0.0258057 -0.0330715
0.0475714 0.0257396 -0.0336108
0.0478014 0.025806 -0.0332231
0.0485004 0.0259356 -0.0331443
0.0478825 0.0257114 -0.0328556
0.0485487 0.0258615 -0.0330282
0.0487275 0.025561 -0.0328429
0.0483922 0.0256555 -0.0330205
0.0491914 0.025936 -0.0324402
0.0487791 0.0264566 -0.0326542
0.0492456 0.0258555 -0.0324026
0.0500269 0.0259049 -0.0323244
0.0499883 0.0260907 -0.0321616
0.0501509 0.0267392 -0.0331285
0.0503872 0.0264628 -0.033105
0.0506573 0.0271046 -0.0321011
0.0505161 0.026538 -0.0319812
0.0504001 0.0265341 -0.0318133
0.0504701 0.0268505 -0.0311829
0.0507847 0.0268037 -0.0315291
0.0514646 0.0266686 -0.03174
0.051201 0.0268537 -0.0323982
0.0512351 0.0267115 -0.0313618
0.0521284 0.0269354 -0.031744
0.0523036 0.0270703 -0.0316385
0.0524357 0.0266361 -0.0313718
0.052401 0.0267583 -0.0312379
0.0528546 0.0269892 -0.0311553
0.0526049 0.0270453 -0.0310084
0.0530354 0.0271456 -0.0310773
0.0534994 0.0270679 -0.0311005
0.0535019 0.0271937 -0.03106
0.0539821 0.0273099 -0.0308433
0.0538663 0.0270181 -0.0308252
0.0542033 0.0271082 -0.0308148
0.0540166 0.0271913 -0.0309927
0.054494 0.0273179 -0.0309843
0.0543174 0.0274225 -0.0306487
0.0546158 0.0275363 -0.0307604
0.0542492 0.0277131 -0.0302716
0.0557084 0.0277918 -0.0304177
0.0553184 0.0275591 -0.0303615
0.0559563 0.0280395 -0.0306614
0.0560068 0.0277016 -0.0303644
0.056661 0.0281318 -0.0308905
0.0561456 0.0279952 -0.0310466
0.0571028 0.0285748 -0.0301132
0.0572532 0.0282401 -0.0303901
0.0574821 0.0286253 -0.0310645
0.0577621 0.0286901 -0.0306734
0.0576127 0.0282347 -0.0301716
0.0577247 0.0284677 -0.0303517
0.05821 0.0288931 -0.0303659
0.0584188 0.0285335 -0.0306125
0.0583789 0.0287205 -0.0306442
0.0588001 0.0284806 -0.0307731
0.0589335 0.0287945 -0.030822
0.059247 0.0292546 -0.0309018
0.0592446 0.029393 -0.0307819
0.0595436 0.0295394 -0.0308526
0.0596067 0.0289677 -0.0310865
0.0596571 0.0295233 -0.0310178
0.0594617 0.0292641 -0.0315305
0.0598374 0.029344 -0.0316227
0.0600814 0.0292254 -0.0316569
0.0605362 0.0297893 -0.0318676
0.0603115 0.0293666 -0.0324477
0.060757 0.029384 -0.0325815
0.060516 0.0299743 -0.0322911
0.0614112 0.0297632 -0.0331072
0.061296 0.0300128 -0.0328475
0.0610144 0.0300517 -0.0328755
0.0612932 0.0301111 -0.0333925
0.0613833 0.0298741 -0.0340097
0.0614192 0.0301632 -0.0340064
0.0619307 0.0304538 -0.0343714
0.0621422 0.0305999 -0.0351157
0.0624265 0.0305706 -0.0355455
0.0624032 0.0307084 -0.0358785
0.0623773 0.0309743 -0.0355641
0.0626312 0.0306795 -0.0364715
0.0622481 0.030295 -0.0369791
0.062919 0.0308349 -0.0370513
0.0630248 0.0310978 -0.0373044
0.0631025 0.0311923 -0.0381462
0.0632545 0.0313663 -0.038587
0.0633298 0.0313069 -0.0392032
0.0632891 0.0312628 -0.0399135
0.0634347 0.0313553 -0.0404503
0.0636234 0.0317912 -0.0405705
0.0640654 0.0323173 -0.0411967
0.063778 0.0321661 -0.0416617
0.0636437 0.0320062 -0.0425581
0.0639158 0.0320946 -0.0429108
0.0641264 0.0323451 -0.0434481
0.0640091 0.0323689 -0.0441177
0.0637515 0.0323846 -0.0440787
0.0642687 0.0327408 -0.0450525
0.0643894 0.0325127 -0.045864
0.0639433 0.0324024 -0.0466396
0.0646431 0.0326132 -0.0471841
0.0646477 0.0324709 -0.0488708
0.0643788 0.0328323 -0.0507981
0.0638985 0.03357 -0.0544277
0.063567 0.0334994 -0.0570311
0.063098 0.034147 -0.0580637
0.0635943 0.0338239 -0.0591237
0.063476 0.0338621 -0.0595355
0.0633854 0.033678 -0.0595601
0.0628385 0.03428 -0.0597505
0.06292 0.0340467 -0.0599312
0.0633836 0.0345802 -0.0599022
0.0635989 0.0340298 -0.0598378
0.0634783 0.0346158 -0.0601308
0.0641226 0.0346697 -0.0604405
0.0636571 0.0343389 -0.0605173
0.0636138 0.0352122 -0.0603201
0.06411 0.0346988 -0.0606792
0.0638224 0.0351441 -0.0604131
0.0646709 0.0351877 -0.0607736
0.0644147 0.0351148 -0.0608581
0.0642831 0.0350103 -0.060873
0.0644138 0.0353739 -0.0608731
0.064886 0.0354602 -0.0612016
0.064641 0.0352638 -0.0605797
0.0647527 0.035617 -0.0612526
0.0650793 0.0355889 -0.0613609
0.0653937 0.0361597 -0.0602265
0.064908 0.035744 -0.061727
0.0653526 0.035692 -0.0618496
0.0654075 0.0358352 -0.0623446
0.0656035 0.0359083 -0.0621058
0.0655272 0.0360511 -0.0621784
0.0657232 0.036193 -0.0628525
0.0660441 0.0361051 -0.0631696
0.0658139 0.0362945 -0.0628374
0.0658519 0.0365107 -0.0633827
0.066036 0.0363042 -0.0633259
0.0661876 0.0368132 -0.0633682
0.0661437 0.0365663 -0.0636998
0.0661044 0.0369551 -0.0635035
0.0661839 0.0365706 -0.0636708
0.0662512 0.0361083 -0.0637751
0.0658073 0.0366704 -0.0641554
0.0664409 0.0363736 -0.0642805
0.066619 0.0367268 -0.0647443
0.0665249 0.0367724 -0.0645995
0.0666649 0.0366973 -0.0651729
0.066492 0.0368763 -0.0650238
0.0665943 0.0368552 -0.065041
0.0666234 0.0366371 -0.0653645
0.0667476 0.0369415 -0.0653118
0.0668179 0.036939 -0.0658007
0.0667632 0.0369544 -0.0659353
0.0667588 0.0372943 -0.0658217
0.0667905 0.0371793 -0.0661861
0.0671823 0.0369083 -0.0667302
0.0669264 0.0372532 -0.0666873
0.0669977 0.0371101 -0.0671038
0.0665972 0.0373305 -0.0668952
0.0669899 0.0371648 -0.0673146
0.0669716 0.0374076 -0.0677194
0.0671139 0.0372491 -0.0679733
0.067086 0.0371186 -0.068149
0.0669724 0.0372891 -0.0686099
0.0670985 0.0375876 -0.0687592
0.0672623 0.0375701 -0.069128
0.0671338 0.0372512 -0.0694337
0.066895 0.0376264 -0.0698364
0.0670354 0.037576 -0.0699416
0.0671756 0.0377222 -0.0700427
0.0669635 0.0377058 -0.0701129
0.0670712 0.037833 -0.0703459
0.0670204 0.0377452 -0.0705549
0.0670419 0.0377843 -0.0707653
0.0669538 0.0377525 -0.071182
0.0670305 0.0378423 -0.071192
0.0671322 0.0378669 -0.0715203
0.0670925 0.0378829 -0.0718736
0.0670768 0.0381176 -0.0722595
0.06697 0.0380331 -0.0725961
0.067164 0.0381416 -0.0727665
0.0670985 0.0379494 -0.0729223
0.0671255 0.0381842 -0.0726341
0.0669667 0.0379601 -0.0730198
0.067104 0.0380202 -0.0730891
0.067031 0.0381107 -0.0736233
0.0668629 0.038203 -0.0738646
0.0667934 0.0379328 -0.0739843
0.0669088 0.0383598 -0.0741224
0.0667781 0.038312 -0.0743994
0.0670658 0.0383343 -0.0743515
0.0667853 0.0382714 -0.0748002
0.0669074 0.0385031 -0.0750033
0.0669422 0.0383804 -0.0754151
0.0668407 0.0385013 -0.0754898
0.0667901 0.0385248 -0.0756719
0.0667608 0.0386107 -0.075825
0.0667083 0.038315 -0.0759482
