ply
format ascii 1.0
comment Created by Open3D
element vertex 1613
property double x
property double y
property double z
end_header
0.0546182 0.106467 -0.0882008
0.0544683 0.106385 -0.0883272
0.0546434 0.106206 -0.0883236
0.0544282 0.106429 -0.0882702
0.0543691 0.106395 -0.0884032
0.0540495 0.106224 -0.0884797
0.0542555 0.106261 -0.0882206
0.0544162 0.106212 -0.0880961
0.0541087 0.106256 -0.0883707
0.0542009 0.106337 -0.0883351
0.0539816 0.106068 -0.088582
0.0538848 0.106333 -0.0883342
0.0538502 0.106122 -0.0882031
0.0537901 0.106047 -0.0883032
0.0539653 0.106104 -0.0881591
0.0538791 0.105877 -0.088043
0.0539144 0.106043 -0.0882511
0.0536632 0.105949 -0.0883977
0.0537342 0.106034 -0.0881005
0.0537445 0.105635 -0.0883273
0.0535927 0.105798 -0.0879297
0.0535579 0.105853 -0.0882082
0.0535745 0.105725 -0.0882493
0.0535007 0.105807 -0.0881214
0.0537189 0.105811 -0.0880768
0.0533858 0.105703 -0.0881784
0.0534187 0.105695 -0.0883158
0.0537876 0.105368 -0.0880904
0.053528 0.105669 -0.0880076
0.0531872 0.105706 -0.0882302
0.0537043 0.105581 -0.0878264
0.0532399 0.105527 -0.0881356
0.0529237 0.105313 -0.0886108
0.0532003 0.105511 -0.0881381
0.0534567 0.10532 -0.0878169
0.0531506 0.105439 -0.088224
0.0529907 0.105279 -0.0882548
0.0533964 0.105198 -0.0880534
0.0531113 0.105352 -0.0881815
0.0527827 0.105644 -0.0881382
0.0530064 0.105202 -0.0881666
0.0527195 0.105027 -0.0884488
0.0527832 0.105355 -0.088338
0.0529213 0.105099 -0.0882974
0.052538 0.105226 -0.0885918
0.0526705 0.105293 -0.0884076
0.0526805 0.104909 -0.0887697
0.0524754 0.105107 -0.0884875
0.0525378 0.105159 -0.0885313
0.0525199 0.105173 -0.0884262
0.0525742 0.105241 -0.088566
0.0525815 0.105228 -0.0884638
0.0524285 0.105113 -0.0886099
0.052369 0.105191 -0.0887062
0.0523613 0.105293 -0.0886551
0.0522567 0.105087 -0.0886666
0.0520597 0.105266 -0.0888903
0.0522759 0.104844 -0.0887428
0.052256 0.105348 -0.0883936
0.0522629 0.105271 -0.0885706
0.0524233 0.10498 -0.0885696
0.0523289 0.104945 -0.0888019
0.0522353 0.105124 -0.0887347
0.052263 0.105498 -0.0884915
0.0522161 0.104905 -0.0888385
0.0520123 0.104634 -0.0888245
0.0519496 0.10491 -0.0890828
0.0519438 0.104902 -0.0889976
0.0519634 0.10536 -0.0889326
0.0520215 0.10517 -0.0890517
0.0519826 0.105117 -0.0892471
0.05201 0.105287 -0.089117
0.0521034 0.104987 -0.0891319
0.0520611 0.104991 -0.0893472
0.0518776 0.10524 -0.0892453
0.0521059 0.105231 -0.0890566
0.0518541 0.105316 -0.0891588
0.0518737 0.105264 -0.0893637
0.0516898 0.105252 -0.0892712
0.0519732 0.105057 -0.0892713
0.0518339 0.105062 -0.0892039
0.0517942 0.105204 -0.0891665
0.0518527 0.104963 -0.089365
0.0519068 0.10511 -0.0894196
0.0517285 0.105289 -0.0891323
0.0517799 0.10519 -0.0893169
0.051692 0.105401 -0.0893545
0.0517363 0.105307 -0.089347
0.0516312 0.105326 -0.0896136
0.0515677 0.105322 -0.0893909
0.0515469 0.105395 -0.089631
0.0515899 0.10512 -0.0897621
0.0514628 0.105327 -0.0893677
0.0515911 0.105105 -0.0898873
0.0516087 0.105099 -0.0899688
0.051259 0.105536 -0.089862
0.0514669 0.105386 -0.0897699
0.0514275 0.105357 -0.0898742
0.0513147 0.105622 -0.0898467
0.0514672 0.105464 -0.0898695
0.0514223 0.105555 -0.0899424
0.0513196 0.105413 -0.0901692
0.0513551 0.105555 -0.0899689
0.0514296 0.10547 -0.0900586
0.0511545 0.105466 -0.0902633
0.0513108 0.105524 -0.0898615
0.0512463 0.10554 -0.0901451
0.0512036 0.105532 -0.0900497
0.051498 0.10537 -0.0900617
0.051289 0.105291 -0.0902188
0.0512439 0.105435 -0.090075
0.051179 0.105674 -0.0905238
0.0512198 0.105408 -0.0904429
0.050821 0.105676 -0.0903964
0.0511186 0.105608 -0.0903425
0.0512244 0.105522 -0.0901723
0.0510998 0.105632 -0.0903658
0.0513405 0.105467 -0.0903637
0.0511441 0.10556 -0.0907568
0.0509304 0.105776 -0.0905996
0.0509287 0.105865 -0.090587
0.0512468 0.105593 -0.0905994
0.0506362 0.10589 -0.0909228
0.0509795 0.105757 -0.0907695
0.0508496 0.105886 -0.0908056
0.0509145 0.105659 -0.090715
0.0509341 0.10578 -0.0908913
0.0509972 0.10582 -0.0907931
0.0511492 0.105795 -0.0908082
0.0507248 0.10593 -0.0909434
0.0506942 0.10599 -0.0910345
0.0508364 0.10587 -0.0910388
0.0509509 0.105757 -0.0911118
0.0508653 0.105846 -0.0909428
0.0505452 0.10592 -0.0913756
0.0510195 0.105828 -0.0911992
0.0506566 0.106104 -0.0910769
0.050963 0.105743 -0.0909792
0.050579 0.105915 -0.0912219
0.0510508 0.105966 -0.0914842
0.0508022 0.105805 -0.0913958
0.0511261 0.105947 -0.0913828
0.0505201 0.106403 -0.0911352
0.0506564 0.105872 -0.0913687
0.0508331 0.105945 -0.091311
0.0509737 0.106032 -0.0914356
0.0505319 0.106206 -0.0915429
0.0506025 0.105961 -0.0914896
0.0507984 0.106168 -0.0913189
0.050485 0.106425 -0.0915765
0.0504123 0.106216 -0.0918484
0.050573 0.106145 -0.0915232
0.050797 0.105735 -0.091673
0.0510405 0.105634 -0.0917718
0.0501512 0.106407 -0.0918627
0.0507118 0.105961 -0.0919567
0.0503889 0.106518 -0.0916904
0.0504457 0.106397 -0.0917733
0.0503879 0.10649 -0.0917899
0.050548 0.105967 -0.0918791
0.0504804 0.106221 -0.0920681
0.0501821 0.106462 -0.0921708
0.0501755 0.106658 -0.0921053
0.0504597 0.106123 -0.0923367
0.0504933 0.106275 -0.0919254
0.0505807 0.106151 -0.0921432
0.0504392 0.106241 -0.0921466
0.050249 0.106169 -0.0924635
0.0500321 0.106605 -0.0922805
0.0503913 0.10646 -0.0919832
0.0503535 0.106162 -0.0923077
0.0503251 0.106287 -0.0922116
0.0501358 0.106559 -0.0923665
0.0500373 0.106665 -0.092482
0.050367 0.106495 -0.0922325
0.0501941 0.106453 -0.0923968
0.0503807 0.106306 -0.0922134
0.0501291 0.106469 -0.0924222
0.0499413 0.10707 -0.0924013
0.0501386 0.106477 -0.0924787
0.0503454 0.106559 -0.0925901
0.050179 0.10643 -0.0927985
0.0499547 0.106827 -0.0926786
0.0501955 0.106423 -0.0927526
0.0501877 0.106292 -0.0929313
0.0503094 0.106387 -0.0927502
0.0499579 0.106683 -0.0928434
0.049885 0.106922 -0.0928166
0.049895 0.106736 -0.0931146
0.0501828 0.10646 -0.0925896
0.0499402 0.106786 -0.0930815
0.0498373 0.106911 -0.0929247
0.0499942 0.106733 -0.0927786
0.0498048 0.107046 -0.0932033
0.0497674 0.106979 -0.0930641
0.0500375 0.106608 -0.0929661
0.0501634 0.106797 -0.0929512
0.0499223 0.106752 -0.0931593
0.0502147 0.106583 -0.0930873
0.0500182 0.106744 -0.0931116
0.0498697 0.106978 -0.0932049
0.0499194 0.10681 -0.0930546
0.0498719 0.107051 -0.0930258
0.049893 0.106895 -0.0933406
0.0498127 0.106931 -0.0935524
0.0498752 0.106874 -0.0933269
0.0498617 0.106969 -0.0931962
0.0498947 0.106966 -0.0933995
0.0497714 0.107043 -0.0935405
0.0497016 0.107432 -0.0933931
0.0494964 0.107266 -0.0935564
0.0497071 0.10681 -0.0937042
0.0494672 0.107342 -0.0937132
0.0496757 0.107424 -0.0936538
0.0498596 0.106636 -0.0936717
0.0497223 0.107066 -0.0936994
0.0497275 0.106922 -0.0938809
0.0496408 0.107535 -0.0934904
0.049791 0.106953 -0.0936905
0.0497851 0.107068 -0.0937321
0.0497951 0.107303 -0.0939954
0.0496799 0.107374 -0.0937074
0.049473 0.107307 -0.0941205
0.0498864 0.106985 -0.0938652
0.0495831 0.107291 -0.0939914
0.0496905 0.107216 -0.094009
0.0497811 0.10699 -0.094014
0.050005 0.107222 -0.0939981
0.0496612 0.107387 -0.0940305
0.0495456 0.107454 -0.0943594
0.0502277 0.107187 -0.0943098
0.0496815 0.107334 -0.0941604
0.0498333 0.107354 -0.0942688
0.0495449 0.107439 -0.0943759
0.0497834 0.10753 -0.0942266
0.0497395 0.107559 -0.0941808
0.0496804 0.107645 -0.0941787
0.0499443 0.107773 -0.0943528
0.0496675 0.108036 -0.0940798
0.0496062 0.107715 -0.0944477
0.0498395 0.107246 -0.0941058
0.0497407 0.10751 -0.094397
0.0497039 0.107728 -0.0944948
0.0497536 0.107919 -0.0946854
0.0496991 0.107818 -0.0946951
0.0495902 0.107742 -0.0943861
0.0496496 0.107793 -0.0943223
0.0497992 0.10754 -0.0944173
0.0497299 0.107823 -0.0947503
0.0500871 0.107615 -0.0946319
0.0497681 0.107647 -0.0945775
0.0498358 0.107744 -0.0947461
0.0495753 0.107959 -0.0948248
0.0496466 0.108087 -0.0948956
0.0496677 0.108057 -0.094773
0.0496285 0.108126 -0.0951007
0.0498678 0.107964 -0.0948753
0.0495224 0.108196 -0.0949353
0.0495042 0.108299 -0.0953084
0.0496066 0.108157 -0.095065
0.0500183 0.107794 -0.0949878
0.049805 0.108189 -0.0950701
0.0497198 0.108078 -0.0951162
0.0496841 0.108301 -0.0954402
0.0500077 0.10809 -0.0951743
0.049591 0.108431 -0.0952084
0.0496958 0.108375 -0.0951624
0.0497197 0.108145 -0.0948458
0.0494963 0.108455 -0.0953211
0.0499826 0.107906 -0.0952627
0.0497486 0.108243 -0.0950364
0.0499997 0.107729 -0.0955389
0.0496874 0.108253 -0.0951391
0.0497217 0.108229 -0.0953822
0.0496771 0.108414 -0.0954877
0.0496318 0.108395 -0.0956129
0.0497785 0.108176 -0.095568
0.0496459 0.108623 -0.0955993
0.0500525 0.108153 -0.0956573
0.049541 0.108356 -0.0957045
0.0496361 0.108747 -0.0954774
0.0498272 0.10849 -0.0954976
0.0494316 0.108732 -0.095713
0.0497272 0.108607 -0.0958085
0.0497971 0.108507 -0.0955303
0.0495176 0.108587 -0.0957861
0.049604 0.108689 -0.0958517
0.0496068 0.108557 -0.0955952
0.0499163 0.108276 -0.0957996
0.0496523 0.108724 -0.0958823
0.049737 0.108698 -0.0959855
0.049754 0.108962 -0.0958458
0.0497953 0.108703 -0.0958824
0.049803 0.108834 -0.0960328
0.0498054 0.108711 -0.096027
0.049781 0.108802 -0.0960143
0.0498367 0.108966 -0.096067
0.0496702 0.109199 -0.0959801
0.0496616 0.109025 -0.0960713
0.0498777 0.108973 -0.0962998
0.0499958 0.108829 -0.0959584
0.0495154 0.109188 -0.096283
0.0501511 0.108836 -0.0961749
0.0499479 0.108604 -0.0958975
0.0499099 0.109053 -0.0962584
0.0496972 0.109222 -0.0961659
0.049605 0.109201 -0.096108
0.0498759 0.108799 -0.0964788
0.0498466 0.109063 -0.096161
0.049834 0.109008 -0.0962567
0.0499166 0.109073 -0.0961811
0.0500652 0.108759 -0.096525
0.0498698 0.109385 -0.0966413
0.0498576 0.109163 -0.0966191
0.0496176 0.109545 -0.0964293
0.0497421 0.10951 -0.0967956
0.0497943 0.109418 -0.0964854
0.0499088 0.109322 -0.0967473
0.0497238 0.109419 -0.0962893
0.0498513 0.109335 -0.096822
0.0498008 0.109482 -0.0966834
0.0497533 0.109522 -0.0964959
0.0502079 0.109284 -0.0966165
0.049649 0.10954 -0.0967335
0.049897 0.109523 -0.0966192
0.0497552 0.109671 -0.0967294
0.0497899 0.109691 -0.0968629
0.0500019 0.109325 -0.0967281
0.0499854 0.109322 -0.0967249
0.0497413 0.109598 -0.0965965
0.049848 0.109523 -0.0967534
0.0500739 0.109203 -0.0967746
0.0497466 0.109756 -0.096852
0.0498838 0.109418 -0.0967651
0.0498106 0.109594 -0.0969369
0.0499293 0.109716 -0.0969238
0.049766 0.109591 -0.0970558
0.0496962 0.11003 -0.0970369
0.0498816 0.109952 -0.0968514
0.0499827 0.109517 -0.0969316
0.050046 0.109582 -0.0968741
0.0498661 0.10988 -0.0970755
0.0500208 0.109765 -0.0969196
0.0499628 0.109998 -0.0970529
0.0499518 0.109627 -0.0967087
0.0500578 0.109481 -0.0968444
0.0498441 0.110161 -0.0971167
0.0499285 0.109943 -0.097228
0.0499683 0.109914 -0.0972877
0.0498403 0.109878 -0.0972947
0.0498247 0.11004 -0.0973439
0.0498946 0.109978 -0.0971219
0.0498369 0.11005 -0.0971456
0.0501642 0.109724 -0.0972587
0.0500602 0.109825 -0.0973269
0.0499155 0.109905 -0.09722
0.0498342 0.109991 -0.097212
0.0502108 0.109782 -0.09731
0.0501424 0.109653 -0.0973384
0.0549292 0.10661 -0.0881375
0.0550046 0.106635 -0.0880899
0.0550666 0.106518 -0.0883484
0.0549055 0.106692 -0.0881877
0.0549808 0.10674 -0.0880325
0.0553885 0.106293 -0.0883125
0.054857 0.106903 -0.0879734
0.0549864 0.106711 -0.0880195
0.0546025 0.106583 -0.0883299
0.0547314 0.106646 -0.0882598
0.0549777 0.106708 -0.0881526
0.0547003 0.106715 -0.0882341
0.0546599 0.106439 -0.0883572
0.0546936 0.106891 -0.0880536
0.0545391 0.106536 -0.0883613
0.0546991 0.106671 -0.0881521
0.0545774 0.106243 -0.0883869
0.0543815 0.106373 -0.0884036
0.0546175 0.106326 -0.0880723
0.0545873 0.106593 -0.0879598
0.0545378 0.106581 -0.0882173
0.0544546 0.106358 -0.0882629
0.0544155 0.106583 -0.0880812
0.0544727 0.106084 -0.0884597
0.0544696 0.106323 -0.0883651
0.0544393 0.106003 -0.0882624
0.0543776 0.106244 -0.0886207
0.0543483 0.106463 -0.0885674
0.0542884 0.10619 -0.0886022
0.0543871 0.106617 -0.0883868
0.0542031 0.106452 -0.0885237
0.0541301 0.106197 -0.088435
0.0541719 0.106391 -0.0883316
0.0542484 0.106329 -0.0881552
0.0538584 0.106132 -0.0883734
0.0543009 0.106197 -0.0882121
0.0540437 0.106099 -0.0884709
0.0539701 0.10625 -0.0882186
0.0541325 0.106113 -0.0881092
0.0537504 0.106057 -0.0883663
0.0539579 0.106104 -0.0881775
0.0540615 0.105981 -0.0881596
0.0536115 0.106035 -0.0884235
0.0535375 0.105412 -0.0882336
0.0534981 0.105786 -0.0882821
0.053405 0.105782 -0.0883692
0.0534985 0.105696 -0.0882406
0.0534867 0.105767 -0.0883052
0.0535389 0.105765 -0.0882073
0.0534177 0.105696 -0.0883134
0.0536409 0.10567 -0.087948
0.053545 0.105684 -0.0879827
0.0535872 0.105468 -0.0879732
0.0534871 0.105274 -0.0880428
0.0532415 0.105202 -0.0879573
0.0532215 0.105461 -0.0881625
0.0532799 0.105216 -0.0879814
0.0531931 0.10523 -0.0878619
0.0529106 0.105516 -0.0881744
0.0531273 0.105206 -0.0882082
0.0531465 0.105164 -0.0881317
0.0527581 0.105316 -0.0882575
0.0527766 0.105437 -0.0878708
0.0529913 0.10534 -0.0883317
0.0527873 0.105096 -0.0884752
0.0527164 0.105104 -0.0885642
0.0526696 0.105108 -0.0885393
0.0526045 0.105159 -0.0883778
0.0529763 0.105207 -0.0883688
0.0528205 0.104944 -0.0881698
0.0525409 0.105215 -0.0884414
0.0525825 0.105274 -0.0884755
0.0527458 0.104935 -0.0887374
0.0525264 0.10498 -0.088484
0.0522633 0.104801 -0.0888041
0.0525743 0.105196 -0.0884412
0.0525904 0.104615 -0.0884544
0.0523918 0.105176 -0.0884678
0.0525966 0.105227 -0.0886299
0.0525138 0.105176 -0.0886078
0.0524829 0.105237 -0.0885701
0.0524144 0.10513 -0.0885826
0.052223 0.105309 -0.0885709
0.0523541 0.105107 -0.088727
0.0524758 0.105081 -0.0886866
0.0520822 0.105283 -0.0888844
0.0522149 0.105101 -0.0884566
0.052169 0.104984 -0.0889331
0.0522202 0.105036 -0.0888145
0.0523225 0.105001 -0.0888175
0.0521635 0.10524 -0.0888024
0.0521001 0.105291 -0.0885248
0.0522038 0.104837 -0.0890224
0.0518386 0.105171 -0.0888404
0.0515637 0.105163 -0.0892515
0.0519196 0.105186 -0.0892563
0.0519595 0.105158 -0.089049
0.0519396 0.10515 -0.0891863
0.0515821 0.105243 -0.0893022
0.0515514 0.105402 -0.0891943
0.0519671 0.105075 -0.0891365
0.0516588 0.104852 -0.0894296
0.0517447 0.105152 -0.0894089
0.051798 0.104918 -0.089359
0.0517401 0.104948 -0.0895785
0.0519407 0.105215 -0.0890405
0.0516739 0.105212 -0.0894206
0.0515563 0.105296 -0.0893125
0.0518685 0.1052 -0.0893067
0.0517248 0.105199 -0.0894003
0.0516094 0.105154 -0.0892975
0.0515765 0.105414 -0.0896009
0.051605 0.105331 -0.0895806
0.0516011 0.105399 -0.0898607
0.0515796 0.105396 -0.089584
0.0512147 0.10536 -0.0896139
0.0516836 0.104992 -0.089333
0.0514021 0.105531 -0.0896026
0.0515424 0.105385 -0.0896753
0.0515847 0.105192 -0.0896166
0.0512773 0.105502 -0.0898853
0.0517064 0.105363 -0.0900016
0.0516439 0.105114 -0.0899273
0.0514322 0.105597 -0.0897745
0.0512456 0.105345 -0.0898844
0.051255 0.105554 -0.0899328
0.0516299 0.105138 -0.0899641
0.0513649 0.105598 -0.0900114
0.0511497 0.105419 -0.0901458
0.0513533 0.105486 -0.0899286
0.051284 0.105616 -0.0899935
0.0513962 0.105635 -0.0899337
0.0513101 0.105357 -0.0903253
0.0512513 0.10559 -0.0901749
0.0510219 0.105473 -0.0904402
0.0512189 0.10562 -0.0901691
0.0514133 0.105229 -0.0901806
0.0511868 0.105513 -0.090367
0.0511989 0.105643 -0.0903257
0.0512169 0.105445 -0.0906222
0.0511509 0.105521 -0.0903887
0.0510993 0.105389 -0.0907564
0.0510759 0.105327 -0.0907473
0.0511908 0.105547 -0.0905567
0.0508761 0.105804 -0.0907002
0.051088 0.105724 -0.0904042
0.0512105 0.105708 -0.0906031
0.0509371 0.105503 -0.0907199
0.051082 0.10574 -0.0906598
0.0510445 0.105788 -0.0905207
0.0511368 0.105853 -0.0908591
0.0509041 0.10576 -0.0907456
0.0509013 0.105864 -0.0909922
0.0508901 0.105525 -0.0911489
0.0507899 0.106158 -0.0909473
0.0508755 0.105842 -0.0908102
0.050595 0.105717 -0.0913063
0.0508989 0.106011 -0.0910175
0.0511805 0.105897 -0.0910921
0.0507767 0.105714 -0.0912728
0.0507725 0.105611 -0.0913156
0.0507176 0.105817 -0.091308
0.0507911 0.106117 -0.0910901
0.0507616 0.106073 -0.0910447
0.0507026 0.106036 -0.0912034
0.0508537 0.105907 -0.0912612
0.0512446 0.105958 -0.0916782
0.0505874 0.106135 -0.0914299
0.0506954 0.105941 -0.0914695
0.0505464 0.106314 -0.0914001
0.050469 0.106095 -0.0914066
0.0506837 0.106029 -0.0914973
0.050659 0.106192 -0.0914833
0.0505673 0.106068 -0.0916437
0.0505524 0.106116 -0.0915201
0.0507082 0.105688 -0.0916642
0.0506237 0.106093 -0.0915701
0.0503401 0.106204 -0.0919102
0.0505028 0.106289 -0.0916872
0.0503309 0.106222 -0.0919149
0.0502514 0.1063 -0.0920071
0.0502161 0.106285 -0.0921107
0.0504297 0.106389 -0.0919604
0.050699 0.105972 -0.0918287
0.0505532 0.106061 -0.0919033
0.0507003 0.106241 -0.0917663
0.0502281 0.106252 -0.092254
0.0502045 0.106431 -0.0922058
0.0502252 0.106514 -0.0920832
0.0503061 0.106285 -0.0922583
0.0505672 0.106123 -0.0919944
0.0502272 0.106586 -0.0921166
0.0502287 0.106282 -0.092159
0.0502291 0.106724 -0.092035
0.050087 0.106941 -0.0921392
0.0503963 0.106435 -0.0924242
0.0500226 0.106632 -0.0924803
0.0501344 0.106479 -0.0924743
0.0501785 0.106638 -0.09231
0.0502445 0.106195 -0.0926968
0.0501372 0.106586 -0.0923818
0.0501312 0.106595 -0.0924816
0.0502076 0.106543 -0.0925445
0.0498579 0.106523 -0.0928521
0.0504734 0.106195 -0.0923727
0.0500382 0.106635 -0.0926732
0.05033 0.106468 -0.0929243
0.0501869 0.106353 -0.0926985
0.050227 0.106443 -0.0925549
0.050056 0.106668 -0.0926611
0.050183 0.106602 -0.0926246
0.0502003 0.106388 -0.0930595
0.0500591 0.10668 -0.0929004
0.0499139 0.106757 -0.0930208
0.0497644 0.106801 -0.0928541
0.0499118 0.10681 -0.0930143
0.0500975 0.106653 -0.092858
0.0502136 0.106415 -0.0929431
0.049957 0.106513 -0.0932665
0.0500097 0.106698 -0.093078
0.0498757 0.10697 -0.0931084
0.0497849 0.106935 -0.0931159
0.0500743 0.106542 -0.0931599
0.0499777 0.106803 -0.093059
0.0498443 0.10653 -0.0934473
0.0498894 0.10685 -0.0932963
0.0498228 0.106985 -0.0932245
0.0500794 0.106689 -0.0931417
0.0499272 0.106791 -0.0933154
0.0498095 0.106824 -0.0934628
0.0500116 0.106642 -0.093335
0.0500377 0.106763 -0.0935022
0.0496297 0.107202 -0.0933719
0.0497403 0.107059 -0.09336
0.0499163 0.106613 -0.0934959
0.0498284 0.106894 -0.0935632
0.050045 0.106819 -0.0937714
0.0498747 0.106836 -0.0936892
0.0497599 0.107143 -0.0936772
0.0497969 0.107069 -0.0935756
0.0499536 0.107054 -0.0934373
0.0498825 0.10717 -0.0939802
0.0496864 0.107217 -0.0938441
0.0497612 0.107184 -0.0938525
0.0501722 0.106904 -0.0938385
0.0499014 0.107181 -0.0938528
0.0496247 0.107279 -0.09405
0.0498927 0.107399 -0.0939463
0.0498382 0.107143 -0.0938485
0.049604 0.107317 -0.0940426
0.0500682 0.107198 -0.0938958
0.0497394 0.107475 -0.0940886
0.0496725 0.107497 -0.0940978
0.0497573 0.107283 -0.09432
0.0497574 0.107278 -0.0942344
0.049579 0.107623 -0.0942477
0.0497916 0.10731 -0.0944579
0.0498441 0.107238 -0.0943174
0.0496231 0.107736 -0.0941321
0.0495968 0.107408 -0.0941444
0.0496806 0.107817 -0.0943868
0.0495734 0.10764 -0.0943193
0.0496593 0.10758 -0.094454
0.049744 0.107409 -0.0944368
0.0499483 0.10748 -0.0943813
0.0495433 0.107873 -0.0949012
0.0496657 0.107567 -0.0946268
0.0495097 0.107943 -0.0944811
0.049662 0.107803 -0.0948073
0.0496586 0.107974 -0.0947027
0.0497083 0.107815 -0.0947988
0.0496916 0.107868 -0.0946786
0.0498271 0.107703 -0.0947488
0.0496083 0.108037 -0.0949163
0.0497763 0.107766 -0.0945473
0.0498574 0.107759 -0.094723
0.0496728 0.107971 -0.0947989
0.0499255 0.10778 -0.0946185
0.0497041 0.107944 -0.094958
0.0497494 0.107804 -0.094876
0.0497044 0.10783 -0.0946698
0.0499093 0.107816 -0.0949724
0.0496034 0.108228 -0.09502
0.0499676 0.107959 -0.0951574
0.0497104 0.107805 -0.0948818
0.0496335 0.108102 -0.0949753
0.0499382 0.107843 -0.0952465
0.0496576 0.108275 -0.0951343
0.0497948 0.108216 -0.0952952
0.0497425 0.108171 -0.0950546
0.0493927 0.108503 -0.095634
0.0496452 0.108613 -0.0954871
0.0495803 0.108304 -0.0953562
0.0496523 0.10825 -0.0953843
0.0497056 0.108274 -0.0952981
0.0495214 0.108727 -0.0957398
0.0495365 0.108495 -0.095693
0.0496332 0.108593 -0.0958351
0.0500394 0.108197 -0.0954834
0.049767 0.108499 -0.0955536
0.0495578 0.108571 -0.0955042
0.0498647 0.108446 -0.0953839
0.0496756 0.10837 -0.0956367
0.0497824 0.108447 -0.0955063
0.0497146 0.10849 -0.0957572
0.0497968 0.108619 -0.0958228
0.0497574 0.108523 -0.0956312
0.0497734 0.108256 -0.0955071
0.049738 0.108587 -0.0957091
0.0496203 0.108481 -0.0957773
0.0496199 0.10899 -0.095756
0.0496141 0.108963 -0.0957998
0.0497466 0.108717 -0.095908
0.0496384 0.108737 -0.0958056
0.049841 0.108419 -0.0961346
0.0497484 0.108774 -0.0960369
0.049855 0.10875 -0.0959906
0.0498385 0.108794 -0.0958623
0.0498961 0.108599 -0.0960321
0.0497394 0.109016 -0.0962548
0.0498189 0.108824 -0.0959004
0.0496695 0.108881 -0.096099
0.0500108 0.108782 -0.0960289
0.0496518 0.108943 -0.0960131
0.0497547 0.108925 -0.0961374
0.0497513 0.10908 -0.0961284
0.049722 0.109096 -0.0961439
0.0496793 0.109096 -0.0964514
0.049799 0.108973 -0.0962074
0.0498004 0.109166 -0.0961812
0.0496385 0.108816 -0.0963899
0.050102 0.108856 -0.0961423
0.0496876 0.109234 -0.0964634
0.0496253 0.109035 -0.0964203
0.0496098 0.109604 -0.0964839
0.049667 0.109172 -0.0964064
0.0498755 0.108903 -0.0963306
0.0498153 0.109437 -0.0964717
0.0498111 0.109301 -0.0964252
0.0497757 0.109297 -0.0963953
0.0499772 0.108992 -0.0964916
0.0499708 0.109435 -0.0965167
0.0498996 0.109129 -0.0964207
0.0498401 0.109474 -0.0966543
0.0499152 0.109239 -0.0967051
0.0499154 0.109491 -0.0966377
0.0501319 0.109021 -0.0964579
0.0499719 0.109299 -0.0966781
0.0497847 0.109269 -0.0967307
0.0497175 0.109593 -0.0968599
0.0498623 0.10941 -0.0966368
0.0500478 0.108864 -0.0968195
0.0497025 0.109417 -0.0969271
0.0497305 0.109266 -0.0968549
0.0498222 0.109824 -0.0966809
0.0497169 0.109864 -0.0968028
0.0499727 0.109466 -0.0969933
0.0498392 0.109683 -0.0966179
0.0502614 0.109353 -0.0969023
0.0498543 0.109683 -0.0972012
0.0499641 0.109644 -0.0968532
0.0498728 0.109653 -0.0968544
0.0498975 0.109621 -0.0968695
0.0498997 0.109391 -0.0965974
0.0498962 0.109538 -0.0967423
0.0499629 0.109521 -0.0970623
0.049823 0.109739 -0.0968839
0.0499024 0.109465 -0.0968453
0.0499007 0.109804 -0.0972601
0.0500239 0.109803 -0.0971496
0.0499305 0.109846 -0.0971062
0.0502323 0.109454 -0.0968484
0.0500109 0.110019 -0.0972696
0.0500182 0.109996 -0.0972952
0.0500449 0.11003 -0.0972625
0.0498912 0.110037 -0.0973907
0.0499666 0.109691 -0.0969889
0.050105 0.109921 -0.0973037
0.0500027 0.110151 -0.0973903
0.050106 0.109949 -0.0973936
0.0498895 0.110171 -0.097169
0.0499537 0.110177 -0.0973201
0.050026 0.109726 -0.0974073
0.0551767 0.106315 -0.0883157
0.0549542 0.106615 -0.0881294
0.0551284 0.106313 -0.0883718
0.0550353 0.106636 -0.0882992
0.0551616 0.106656 -0.0880544
0.0546746 0.106793 -0.0879765
0.0549181 0.106722 -0.0881559
0.0550404 0.106694 -0.0880986
0.0545936 0.106633 -0.0881608
0.0549607 0.106374 -0.0881946
0.0549059 0.106633 -0.0883257
0.0549886 0.106648 -0.0879759
0.0545025 0.106476 -0.0885112
0.0546358 0.10696 -0.0880156
0.0547185 0.106534 -0.0884594
0.0546705 0.106614 -0.088371
0.0549218 0.106779 -0.0880706
0.0547756 0.106455 -0.0884251
0.054642 0.106116 -0.0883568
0.0545163 0.106537 -0.0883346
0.0541317 0.106308 -0.0884199
0.0544479 0.106561 -0.0884356
0.0546501 0.106574 -0.0881238
0.0542953 0.106398 -0.0883942
0.0545409 0.106222 -0.0884718
0.0545695 0.106456 -0.0883085
0.0544 0.106027 -0.0884198
0.0545012 0.106108 -0.0885391
0.054391 0.106358 -0.0883705
0.054282 0.106347 -0.0884048
0.0543026 0.106325 -0.0880829
0.0540854 0.10629 -0.0884079
0.0540234 0.106096 -0.0884483
0.0543188 0.106407 -0.0883595
0.0542347 0.10638 -0.0880163
0.0541935 0.106253 -0.088246
0.0537157 0.105973 -0.0883125
0.0538275 0.106107 -0.0883659
0.0538166 0.106137 -0.0881839
0.0542812 0.105734 -0.0881719
0.0538667 0.105977 -0.0882443
0.0541995 0.105715 -0.0880862
0.0539924 0.105576 -0.0881277
0.0539724 0.105575 -0.0880559
0.0533868 0.105934 -0.0883209
0.0537286 0.105544 -0.0882446
0.0535936 0.105765 -0.088241
0.0534769 0.105461 -0.0882432
0.0534933 0.105691 -0.0882077
0.053395 0.105688 -0.0882456
0.0536352 0.105631 -0.0879294
0.0530851 0.10581 -0.0880257
0.0532043 0.10536 -0.0881019
0.0532 0.105146 -0.0882213
0.0531726 0.105364 -0.0880693
0.0527222 0.105292 -0.0880132
0.0530985 0.105305 -0.0879345
0.0530436 0.105057 -0.0881825
0.0529464 0.10528 -0.0882866
0.0528846 0.105288 -0.0881382
0.0529179 0.105255 -0.0881044
0.0530658 0.105256 -0.088107
0.0528516 0.105381 -0.0880552
0.0529003 0.104943 -0.0882622
0.0528434 0.10547 -0.0878464
0.052502 0.105302 -0.0882889
0.0529755 0.104857 -0.0882484
0.0529485 0.105153 -0.0885059
0.0522941 0.105277 -0.0882767
0.0524663 0.105275 -0.0882521
0.0524649 0.105217 -0.088237
0.0525778 0.104868 -0.0884081
0.05243 0.105165 -0.0881616
0.0523616 0.104905 -0.0883942
0.0524246 0.105241 -0.0882959
0.0525991 0.10441 -0.0885507
0.0524972 0.104269 -0.0885875
0.0522664 0.105319 -0.0884823
0.0525868 0.104908 -0.0886231
0.0522604 0.105179 -0.0886762
0.0521834 0.10519 -0.0884673
0.0524197 0.105137 -0.0886366
0.0524322 0.104988 -0.0887371
0.0522755 0.105079 -0.0887849
0.052324 0.105133 -0.0885417
0.0522305 0.105065 -0.0886339
0.0522191 0.105331 -0.0888988
0.0521715 0.105223 -0.0887841
0.0520993 0.104839 -0.0887856
0.0520761 0.105085 -0.0887626
0.0520522 0.105162 -0.0887037
0.0520911 0.104793 -0.088869
0.0522603 0.105168 -0.0885908
0.0518606 0.10524 -0.0887515
0.0520682 0.105221 -0.0889145
0.0521253 0.105377 -0.0886032
0.0518735 0.105198 -0.088821
0.0516809 0.105145 -0.0893574
0.0518991 0.105309 -0.089042
0.0518931 0.105105 -0.0891837
0.0515658 0.105196 -0.089229
0.0517296 0.10534 -0.0892313
0.0517255 0.105208 -0.0891427
0.0519857 0.105233 -0.0895785
0.0517236 0.104826 -0.0893659
0.0516397 0.105128 -0.0893254
0.0515611 0.105134 -0.0893202
0.051715 0.104935 -0.089467
0.051699 0.105286 -0.0894291
0.0516406 0.105293 -0.08951
0.0516636 0.104883 -0.0897302
0.0518244 0.105271 -0.0895949
0.0515089 0.105313 -0.0895276
0.0512155 0.105363 -0.0897904
0.0514506 0.105362 -0.0895872
0.05146 0.105405 -0.089469
0.0513837 0.104841 -0.0897988
0.0515482 0.105552 -0.0895887
0.0512845 0.105481 -0.0897427
0.0512622 0.105539 -0.0897765
0.0511843 0.10546 -0.0897809
0.0515698 0.105319 -0.0897873
0.0516979 0.105171 -0.0898447
0.051329 0.105007 -0.0900632
0.0513025 0.105387 -0.0899308
0.0511362 0.105432 -0.0899045
0.0512938 0.105396 -0.0899232
0.0514983 0.10548 -0.0898465
0.0515924 0.10514 -0.0903743
0.0514434 0.105577 -0.0900046
0.051437 0.105576 -0.0899601
0.0511737 0.105604 -0.0901528
0.0512698 0.105158 -0.0905991
0.0513576 0.105242 -0.0902568
0.0513007 0.105205 -0.090295
0.0510688 0.106054 -0.0901174
0.0510177 0.105544 -0.0904888
0.0512008 0.1053 -0.0905023
0.0509626 0.10546 -0.0903624
0.0516432 0.105493 -0.0906474
0.0508241 0.10587 -0.0905203
0.0510684 0.105831 -0.0902518
0.0511081 0.105461 -0.0906561
0.0513954 0.105717 -0.0907842
0.050867 0.105761 -0.0908479
0.0510673 0.105498 -0.0908241
0.051322 0.105197 -0.0911212
0.0509137 0.105725 -0.0908012
0.0509659 0.106076 -0.0907048
0.0511212 0.105467 -0.0910703
0.05126 0.105714 -0.091309
0.0507714 0.105915 -0.0908061
0.0510821 0.105891 -0.0907577
0.050634 0.105925 -0.0910649
0.0508349 0.105992 -0.0908704
0.0506786 0.105961 -0.0911661
0.0506302 0.105837 -0.0913208
0.0508617 0.105899 -0.0910024
0.0507984 0.105886 -0.0909692
0.0507585 0.105961 -0.0910004
0.0508858 0.105756 -0.0912596
0.0508274 0.105898 -0.0912079
0.0507863 0.105828 -0.0913398
0.0506089 0.106116 -0.0911938
0.0505614 0.105916 -0.0915069
0.0505633 0.10586 -0.0914899
0.0508719 0.105725 -0.0913823
0.0507341 0.106079 -0.0911528
0.0509102 0.106017 -0.0913233
0.0506295 0.105742 -0.091688
0.0506773 0.106092 -0.091392
0.050803 0.105748 -0.0914298
0.0505279 0.105807 -0.0916686
0.0506363 0.105835 -0.0917319
0.0505346 0.105959 -0.0918008
0.050528 0.106267 -0.0915081
0.0505955 0.106136 -0.0915883
0.0505242 0.106215 -0.0916718
0.0505148 0.10614 -0.0916468
0.0505403 0.106055 -0.0918252
0.0505013 0.106291 -0.0918428
0.0503916 0.106414 -0.0918127
0.0501859 0.106449 -0.0920841
0.0503308 0.106187 -0.0921304
0.050322 0.106399 -0.092039
0.0503188 0.106266 -0.0921752
0.0502625 0.106518 -0.0918959
0.0505366 0.106265 -0.0923205
0.0503959 0.106171 -0.0922625
0.0500208 0.106758 -0.0922857
0.0501691 0.106421 -0.0921879
0.0500972 0.106627 -0.0921301
0.0501444 0.106482 -0.0923146
0.0501665 0.106488 -0.0923491
0.0501575 0.106297 -0.0925055
0.0504201 0.106263 -0.092247
0.0502417 0.106416 -0.0922774
0.0503242 0.10606 -0.0925784
0.0503635 0.106255 -0.092592
0.0501612 0.106473 -0.0926334
0.0500801 0.106589 -0.0925889
0.0499824 0.106448 -0.0927861
0.0502718 0.106703 -0.0927818
0.0499724 0.106504 -0.0927883
0.0502651 0.106486 -0.0926153
0.0500196 0.106625 -0.0927905
0.0499827 0.106585 -0.0927247
0.0499415 0.106793 -0.0927647
0.0500984 0.10662 -0.0927423
0.0502732 0.1066 -0.0927448
0.0499745 0.106691 -0.0929231
0.0499749 0.106637 -0.0928733
0.0498949 0.106731 -0.0929895
0.0500129 0.106423 -0.0930956
0.0501608 0.106652 -0.0927864
0.0499643 0.106746 -0.0930729
0.0499695 0.106707 -0.0928563
0.0500645 0.106625 -0.0930084
0.0499912 0.106594 -0.0930749
0.0504055 0.106473 -0.0932039
0.0499133 0.106518 -0.0932124
0.0498516 0.106965 -0.0932218
0.0498227 0.106749 -0.093067
0.050037 0.106867 -0.0931956
0.0502035 0.106739 -0.0932168
0.049614 0.107125 -0.0934279
0.0497494 0.106878 -0.0934055
0.0497519 0.10695 -0.0934792
0.0497515 0.106905 -0.0933365
0.0498093 0.106925 -0.0932622
0.0497707 0.107151 -0.0934773
0.0501143 0.106608 -0.0934844
0.0496211 0.10725 -0.0933904
0.0494938 0.107326 -0.0936119
0.0498961 0.106757 -0.0935124
0.049769 0.107025 -0.093518
0.0498 0.107013 -0.0936602
0.0496755 0.107278 -0.0935555
0.0497934 0.107273 -0.093701
0.0499483 0.106752 -0.0936385
0.049756 0.107132 -0.0937547
0.0498961 0.107054 -0.0938207
0.0497078 0.107101 -0.0939024
0.0499306 0.10704 -0.0938207
0.0497659 0.107252 -0.093828
0.0497747 0.10722 -0.0939773
0.0496385 0.107369 -0.0938404
0.0498127 0.10728 -0.0941564
0.0496831 0.107338 -0.09401
0.0498517 0.107176 -0.094223
0.049694 0.107512 -0.0938862
0.0498416 0.107261 -0.0941536
0.0498684 0.10725 -0.0942409
0.0497512 0.107431 -0.0938921
0.0496445 0.107564 -0.0943038
0.0496332 0.107502 -0.0943112
0.0498268 0.107125 -0.0943962
0.0499616 0.107162 -0.0942058
0.0496695 0.107675 -0.0944783
0.0494262 0.108018 -0.0944012
0.0495948 0.107603 -0.0945505
0.0496474 0.107597 -0.0944427
0.0498906 0.107384 -0.0943557
0.049695 0.107695 -0.0945459
0.0498027 0.107607 -0.0943754
0.0496547 0.10778 -0.0946412
0.0497866 0.107574 -0.0945916
0.0495469 0.107905 -0.0949282
0.0497456 0.107823 -0.0946361
0.0497307 0.107763 -0.0947279
0.0495322 0.10794 -0.0947903
0.0495698 0.107957 -0.0946174
0.0498679 0.107702 -0.0944606
0.0497189 0.107785 -0.0948705
0.0495085 0.108042 -0.0949829
0.0496823 0.108099 -0.0945937
0.0495408 0.108213 -0.0949803
0.0495665 0.107955 -0.0947754
0.0498516 0.107856 -0.0948443
0.0497101 0.108081 -0.0951203
0.0498005 0.107909 -0.0948884
0.0495471 0.108203 -0.0952722
0.0498318 0.107997 -0.095086
0.0495019 0.108075 -0.0950098
0.0499006 0.108111 -0.0953308
0.0497297 0.108093 -0.0950636
0.0497152 0.10833 -0.0949076
0.0496949 0.108496 -0.0953894
0.0494529 0.108671 -0.0950872
0.0497995 0.107953 -0.0950192
0.0498981 0.107734 -0.0952139
0.0497174 0.108599 -0.0956962
0.0500276 0.108178 -0.0952598
0.0497961 0.108232 -0.0952984
0.0495989 0.108614 -0.0955392
0.049854 0.108196 -0.0952582
0.0498285 0.108523 -0.0954501
0.0496616 0.108438 -0.095731
0.0498713 0.108273 -0.095219
0.0497941 0.10835 -0.0953219
0.0495435 0.108598 -0.0956729
0.0497261 0.108247 -0.0954048
0.0500953 0.10839 -0.095639
0.0499521 0.108318 -0.0955398
0.0497307 0.108497 -0.0954791
0.0496806 0.108904 -0.0959617
0.0496679 0.108876 -0.0960596
0.0498362 0.108454 -0.0956109
0.0497724 0.108822 -0.0960123
0.0498128 0.108399 -0.0959448
0.0496962 0.108751 -0.0959077
0.0499645 0.108228 -0.0958007
0.0495837 0.108706 -0.0959904
0.0497372 0.108581 -0.0959468
0.0498755 0.108451 -0.0956166
0.0498723 0.108686 -0.0960495
0.0496693 0.108752 -0.0957586
0.0499097 0.108521 -0.0962766
0.0497025 0.108956 -0.0960398
0.049745 0.108965 -0.096319
0.049765 0.108813 -0.0961801
0.0499219 0.108636 -0.0961513
0.0496742 0.109058 -0.0962282
0.049737 0.108954 -0.0960347
0.04973 0.108794 -0.0961377
0.0497689 0.108997 -0.0960396
0.0497227 0.108917 -0.0961742
0.0497906 0.109035 -0.0964812
0.0498716 0.108942 -0.096282
0.0498069 0.109142 -0.0965671
0.049869 0.109157 -0.0963607
0.0498999 0.109162 -0.0963551
0.0498024 0.1093 -0.0963184
0.049675 0.109041 -0.0962859
0.0498251 0.10899 -0.0963174
0.0498064 0.10926 -0.0964104
0.050001 0.109107 -0.096364
0.0498134 0.109687 -0.0965165
0.049887 0.109243 -0.0967926
0.0499268 0.109358 -0.0967275
0.0499916 0.109188 -0.0965963
0.0497905 0.109418 -0.0966455
0.049715 0.109566 -0.0965464
0.0498666 0.109692 -0.0967057
0.0498742 0.109416 -0.0966847
0.0499236 0.109084 -0.096881
0.050047 0.109244 -0.0966438
0.0498868 0.109675 -0.0968913
0.0501279 0.108991 -0.0968561
0.0498393 0.109616 -0.0967787
0.0497969 0.109588 -0.0969233
0.049759 0.109544 -0.0965566
0.0498213 0.109635 -0.0964708
0.0497011 0.109903 -0.0969992
0.0499122 0.109648 -0.0969132
0.0498065 0.109453 -0.0968458
0.0500678 0.109594 -0.0968405
0.0499351 0.109333 -0.0966996
0.0497339 0.109691 -0.0969959
0.0502124 0.109681 -0.0969491
0.0499922 0.109776 -0.0969173
0.049909 0.109653 -0.096867
0.0498937 0.109461 -0.097428
0.0500006 0.109625 -0.0972061
0.0499787 0.109507 -0.096972
0.0499057 0.109964 -0.0973941
0.050066 0.109843 -0.0971353
0.0498297 0.109943 -0.096904
0.0499513 0.109733 -0.0971337
0.0502107 0.109545 -0.0971699
0.0498326 0.109675 -0.097055
0.0500975 0.109862 -0.0972134
0.0499836 0.109684 -0.097376
0.049904 0.110041 -0.0973825
0.0499611 0.109691 -0.0970121
0.049906 0.109912 -0.0973028
0.0500928 0.109982 -0.0972494
0.0501822 0.109737 -0.0972192
0.0499426 0.11004 -0.0972738
0.0500361 0.11012 -0.0974135
0.0500849 0.109434 -0.0970415
0.054996 0.106262 -0.0884299
0.0552048 0.106532 -0.0881
0.0550989 0.106515 -0.087985
0.0552636 0.106441 -0.0881168
0.0548193 0.106247 -0.088522
0.0549839 0.106376 -0.0881975
0.0550351 0.106376 -0.088214
0.0549204 0.106359 -0.0883717
0.0549414 0.106665 -0.0885978
0.0548513 0.106865 -0.0879685
0.0547373 0.106406 -0.0884645
0.0544546 0.106505 -0.0885129
0.0546815 0.106584 -0.0883916
0.0547603 0.106281 -0.0883099
0.0548079 0.106844 -0.0881031
0.0548665 0.105947 -0.0884915
0.0545755 0.106638 -0.0882977
0.054563 0.106556 -0.0883326
0.0546603 0.106437 -0.0882421
0.0545949 0.106581 -0.088129
0.054467 0.106226 -0.0884621
0.0544364 0.106224 -0.0885439
0.0544533 0.106069 -0.0882772
0.0543042 0.106319 -0.0883756
0.0543525 0.106435 -0.0883658
0.0541722 0.106321 -0.0883669
0.0545076 0.106187 -0.0885104
0.0543131 0.106187 -0.0885835
0.0541926 0.106258 -0.0882493
0.0541712 0.106476 -0.0882467
0.05386 0.106278 -0.0883109
0.0541519 0.105817 -0.0884584
0.053841 0.106046 -0.0882608
0.0543176 0.105603 -0.0881315
0.0540613 0.106022 -0.0881029
0.0540107 0.106016 -0.0881884
0.0537525 0.105977 -0.0881693
0.0540669 0.105902 -0.0880391
0.0539744 0.106173 -0.0877745
0.0540292 0.105933 -0.0880463
0.0537179 0.105992 -0.0880987
0.0534823 0.106323 -0.0881854
0.0537135 0.105917 -0.0883477
0.0536786 0.105689 -0.0883982
0.0532305 0.105601 -0.0881981
0.053282 0.1054 -0.0878493
0.0531705 0.105527 -0.0875822
0.0530239 0.105021 -0.0873857
0.0526416 0.104832 -0.0874925
0.0526782 0.104894 -0.08728
0.0528662 0.104766 -0.0868498
0.0531011 0.104309 -0.0871725
0.0525956 0.104812 -0.0871373
0.0527416 0.104929 -0.0872282
0.0528045 0.104772 -0.0874507
0.0525423 0.105046 -0.0878557
0.0527916 0.104913 -0.0878975
0.0528018 0.104993 -0.0878415
0.0528887 0.105182 -0.0880414
0.0525755 0.105142 -0.0884337
0.0527556 0.105037 -0.0880917
0.0524495 0.105119 -0.0884669
0.0528541 0.105135 -0.087872
0.0525733 0.104562 -0.0882043
0.0524498 0.105008 -0.0882957
0.0526913 0.104998 -0.0879903
0.0526021 0.105277 -0.0880806
0.0524539 0.104971 -0.0881556
0.0526736 0.105088 -0.0887465
0.0521878 0.105203 -0.0884131
0.0523019 0.104868 -0.0885623
0.0522463 0.104918 -0.0885338
0.0521739 0.104837 -0.0884164
0.0522622 0.104742 -0.0887323
0.0522002 0.105076 -0.0886403
0.0520956 0.105188 -0.0882941
0.0523181 0.105193 -0.088635
0.0525204 0.104697 -0.088466
0.0521925 0.105254 -0.0883482
0.0520312 0.105264 -0.0885963
0.0524249 0.105102 -0.0885008
0.0523525 0.1046 -0.0887332
0.0521246 0.105118 -0.0886087
0.0522204 0.105376 -0.0887197
0.0521929 0.105023 -0.0887697
0.05225 0.104845 -0.0887223
0.0522135 0.105111 -0.0885071
0.0519153 0.105166 -0.0889414
0.052061 0.105233 -0.0889054
0.0521517 0.104741 -0.0888156
0.0521613 0.104903 -0.0888548
0.0522629 0.104966 -0.0888998
0.0517462 0.105212 -0.0888925
0.0519922 0.104758 -0.0892126
0.0518701 0.105558 -0.0887727
0.0520087 0.104564 -0.0889939
0.0518981 0.104918 -0.0889881
0.0520161 0.104938 -0.0894086
0.0517073 0.105629 -0.0890621
0.0517245 0.105323 -0.0892078
0.0514863 0.105277 -0.089125
0.0518771 0.10495 -0.0892518
0.051673 0.10478 -0.0894488
0.0521528 0.105114 -0.0897282
0.0517066 0.105056 -0.0893917
0.0516868 0.105237 -0.0892561
0.0518682 0.105043 -0.0893941
0.0516997 0.105235 -0.0894178
0.0520801 0.105221 -0.0897184
0.0516245 0.105273 -0.0890612
0.0516389 0.104842 -0.0894372
0.0512043 0.10525 -0.0897743
0.0513468 0.104974 -0.0896638
0.0514814 0.105309 -0.089623
0.0511725 0.105427 -0.0896951
0.0514351 0.105131 -0.0897556
0.0514689 0.105416 -0.0896201
0.0515077 0.105338 -0.0897757
0.0510104 0.105582 -0.0900155
0.0516112 0.105113 -0.0899175
0.05158 0.105341 -0.0897161
0.051416 0.105284 -0.0903304
0.0514437 0.105507 -0.0897937
0.0514016 0.105137 -0.0900339
0.0513263 0.105321 -0.0899609
0.0512032 0.105478 -0.090089
0.0511225 0.105332 -0.0900704
0.0512819 0.105553 -0.0899113
0.0511055 0.105052 -0.0903009
0.0512927 0.105223 -0.0904609
0.0511128 0.10559 -0.0903532
0.0510662 0.105731 -0.0900549
0.0513727 0.105769 -0.0899763
0.0510492 0.10545 -0.0902447
0.050842 0.105586 -0.0905115
0.0510278 0.105626 -0.090438
0.0509404 0.105781 -0.0904355
0.0512032 0.105466 -0.0903738
0.0511943 0.105278 -0.0907269
0.0509885 0.105602 -0.0906551
0.0509096 0.105605 -0.0907715
0.0510283 0.105626 -0.0903189
0.0511057 0.105283 -0.0906926
0.0510483 0.105529 -0.0905356
0.05072 0.105544 -0.0910985
0.0507694 0.105855 -0.0909214
0.0509596 0.105675 -0.09079
0.0509 0.105906 -0.0908686
0.0510034 0.10556 -0.0910546
0.0511895 0.105424 -0.0910633
0.0506373 0.106025 -0.091085
0.0507746 0.105732 -0.0910129
0.0507436 0.105892 -0.0909813
0.0509693 0.105489 -0.0911474
0.0508399 0.105918 -0.0910536
0.0508511 0.105917 -0.0910483
0.0506172 0.105931 -0.091252
0.0507631 0.106026 -0.0910991
0.0507254 0.105898 -0.0911763
0.0506671 0.105734 -0.0914924
0.0506821 0.105951 -0.0912067
0.0506658 0.105615 -0.0915171
0.0503701 0.106191 -0.0914994
0.0508097 0.105816 -0.0913429
0.0507308 0.105938 -0.0914012
0.0506631 0.105697 -0.0916376
0.0505783 0.105952 -0.0915614
0.0509563 0.105656 -0.091487
0.0506974 0.105782 -0.0915367
0.0505952 0.106016 -0.0916997
0.0504751 0.106189 -0.0916902
0.0506272 0.106074 -0.0913908
0.0504721 0.105984 -0.0918479
0.0504883 0.10593 -0.0919522
0.0505143 0.106289 -0.0917074
0.0506376 0.105874 -0.0919062
0.0502028 0.106366 -0.0920074
0.0505426 0.1059 -0.0920006
0.0505368 0.106222 -0.0917659
0.0503433 0.106401 -0.0918659
0.0504643 0.106064 -0.0920162
0.0503815 0.10583 -0.0923759
0.0501984 0.106384 -0.0922233
0.0504334 0.106238 -0.0921078
0.0504535 0.106204 -0.0920911
0.050227 0.106669 -0.091969
0.0507455 0.105962 -0.0920258
0.050109 0.106406 -0.0923088
0.0502926 0.106327 -0.0923137
0.050164 0.106505 -0.0923201
0.0504017 0.106169 -0.0922784
0.0504092 0.106216 -0.0922795
0.0504392 0.106038 -0.0924278
0.0501233 0.106333 -0.0927397
0.0503146 0.106475 -0.0923415
0.0500028 0.10649 -0.0926466
0.0500551 0.106561 -0.0926712
0.0500164 0.106534 -0.0927597
0.0501737 0.106555 -0.0925386
0.0501441 0.10642 -0.0927502
0.0503508 0.105985 -0.0929634
0.050083 0.106687 -0.0925393
0.0504151 0.106627 -0.0926986
0.0504173 0.106074 -0.0927145
0.0500033 0.106692 -0.0928087
0.0501142 0.106674 -0.0927212
0.0499508 0.106655 -0.0932837
0.0501793 0.106392 -0.0929336
0.0498284 0.106728 -0.0930845
0.0502961 0.106664 -0.0931668
0.0498018 0.106789 -0.0933162
0.049759 0.106912 -0.0930685
0.049938 0.106672 -0.0931443
0.0502746 0.106616 -0.0933785
0.0501701 0.106701 -0.0932146
0.0495126 0.107148 -0.0934998
0.0500591 0.106711 -0.0929124
0.0501489 0.106556 -0.0932461
0.050076 0.106567 -0.0933876
0.0499461 0.106671 -0.0931738
0.0499778 0.106617 -0.0931277
0.0497497 0.107051 -0.0935382
0.0500466 0.10657 -0.0935354
0.0497809 0.10647 -0.093579
0.0500874 0.106755 -0.0936008
0.0496728 0.107045 -0.0935708
0.0498007 0.106886 -0.0935168
0.0499758 0.106892 -0.0935587
0.0498309 0.10684 -0.0937066
0.049856 0.10679 -0.0938625
0.0496082 0.107098 -0.0938409
0.0498299 0.10691 -0.0937444
0.0499095 0.106894 -0.0937634
0.0498886 0.106855 -0.0938293
0.0498749 0.107035 -0.0939554
0.0497169 0.106895 -0.0941097
0.0498528 0.107091 -0.0939315
0.0497776 0.106923 -0.093956
0.0498737 0.106847 -0.0939405
0.0495729 0.106896 -0.0943124
0.0495662 0.107294 -0.0940815
0.0497021 0.107239 -0.0942013
0.0496844 0.10723 -0.0941959
0.0498204 0.107334 -0.0939758
0.0499048 0.107052 -0.0940147
0.0495791 0.107521 -0.0943383
0.0496094 0.107451 -0.0942398
0.0496668 0.107339 -0.094146
0.0500037 0.106847 -0.094298
0.0497107 0.107411 -0.0944963
0.0499384 0.107401 -0.0941778
0.0495346 0.107728 -0.0941932
0.0495711 0.107799 -0.0945608
0.0496491 0.107473 -0.0944857
0.0495313 0.107782 -0.0943581
0.0497295 0.107549 -0.0943049
0.0495612 0.107579 -0.0946046
0.0497811 0.107587 -0.0946277
0.0497692 0.10769 -0.0948324
0.0497789 0.107522 -0.0948549
0.0495906 0.10765 -0.0948196
0.0498093 0.107975 -0.0947261
0.0501439 0.107483 -0.0946446
0.0496804 0.107806 -0.094781
0.0497327 0.107732 -0.0946492
0.0493787 0.108323 -0.0950192
0.0495786 0.108076 -0.094811
0.0494515 0.107948 -0.0949614
0.0494468 0.108028 -0.0947238
0.0496164 0.108176 -0.0949059
0.0497003 0.107822 -0.0946085
0.0498483 0.107725 -0.0949497
0.0498978 0.108011 -0.0948443
0.0496059 0.10826 -0.0953718
0.0496785 0.108163 -0.0952079
0.0499189 0.107892 -0.0950389
0.0499862 0.108078 -0.0952971
0.0497796 0.107938 -0.0952846
0.0497398 0.108073 -0.0950709
0.0497256 0.108135 -0.0951715
0.0497491 0.108337 -0.0952448
0.049626 0.10823 -0.0953727
0.0498255 0.108177 -0.0953193
0.049424 0.108749 -0.0954683
0.0498279 0.108261 -0.0952422
0.0496401 0.108406 -0.0954862
0.049609 0.108621 -0.0952984
0.0499154 0.108472 -0.0956305
0.0497108 0.108318 -0.0954588
0.0496489 0.108445 -0.0954893
0.0497262 0.108607 -0.0957596
0.0497303 0.108296 -0.0955785
0.0496473 0.108687 -0.0957658
0.0496765 0.108454 -0.0956955
0.0500381 0.108302 -0.0954856
0.0495594 0.108957 -0.0957435
0.0498076 0.108533 -0.0956116
0.049671 0.108224 -0.0961199
0.049779 0.108761 -0.0956196
0.0494007 0.109102 -0.0960028
0.0496542 0.109092 -0.0959852
0.0498225 0.108632 -0.0957787
0.0496928 0.108739 -0.095917
0.0498811 0.108462 -0.0955202
0.0496751 0.10889 -0.0959153
0.0496391 0.108867 -0.0959067
0.0496395 0.108887 -0.0961767
0.0497472 0.108769 -0.0962021
0.0500014 0.108894 -0.095947
0.0499518 0.108677 -0.0961378
0.0499587 0.10868 -0.0957409
0.0500264 0.10883 -0.0959651
0.0498333 0.108628 -0.0958393
0.0497051 0.108794 -0.0960349
0.0497519 0.108819 -0.0960616
0.0499304 0.10873 -0.0962594
0.0497256 0.109051 -0.0962125
0.0500425 0.10897 -0.0963066
0.0495508 0.109142 -0.0963833
0.0497868 0.108811 -0.0960867
0.0499832 0.109126 -0.096252
0.0496041 0.108827 -0.096101
0.0496754 0.109206 -0.0964652
0.0498862 0.109267 -0.0963454
0.0498659 0.109068 -0.0963111
0.049786 0.109225 -0.096459
0.0499162 0.109176 -0.096367
0.0497318 0.109185 -0.096513
0.0499038 0.108716 -0.0962699
0.0497786 0.109312 -0.0965372
0.0500806 0.109065 -0.0964508
0.0499429 0.108994 -0.0963132
0.0499975 0.109447 -0.0966917
0.0498391 0.109266 -0.0963604
0.0498533 0.109248 -0.096321
0.0497628 0.109438 -0.0966411
0.0497956 0.109399 -0.0964172
0.0499295 0.109372 -0.0967425
0.0500291 0.109378 -0.0966777
0.0496995 0.109727 -0.0966964
0.0495846 0.10999 -0.0972519
0.0497921 0.10962 -0.09673
0.0500217 0.109163 -0.0970783
0.049816 0.109461 -0.0966727
0.0497664 0.109776 -0.0966319
0.0500917 0.109293 -0.0967611
0.0497207 0.109712 -0.0970238
0.0499059 0.109552 -0.0968576
0.0498656 0.109724 -0.0967978
0.0497159 0.109817 -0.0969706
0.0498145 0.109485 -0.0969019
0.0499418 0.109763 -0.097034
0.0499127 0.109402 -0.0966215
0.0499115 0.109367 -0.0969191
0.0503143 0.109656 -0.097063
0.0501311 0.109668 -0.0970549
0.0499191 0.109845 -0.0972702
0.0499648 0.109601 -0.0971952
0.0502253 0.109799 -0.0971209
0.0500332 0.109919 -0.0972805
0.0498533 0.109763 -0.0970616
0.0502863 0.109501 -0.0971932
0.049741 0.109997 -0.0970509
0.0499939 0.109695 -0.0972202
0.0497892 0.109951 -0.0972154
0.050007 0.110047 -0.0974024
0.0501074 0.109739 -0.0971195
0.0499568 0.110119 -0.0972834
0.0502884 0.109698 -0.0973895
0.0500995 0.109603 -0.0972609
0.0499838 0.109872 -0.0973694
0.0498905 0.10977 -0.0973442
0.049944 0.109905 -0.0972578
0.0500157 0.11007 -0.0974277
0.0552424 0.106695 -0.0881243
0.0549466 0.106416 -0.0882327
0.055181 0.106594 -0.0880397
0.0550371 0.106231 -0.0884081
0.0550572 0.106669 -0.0880357
0.0552114 0.106613 -0.0879926
0.0549976 0.10669 -0.0880214
0.0552726 0.106192 -0.0883795
0.0549483 0.106713 -0.0880121
0.0548892 0.106679 -0.0881853
0.0547362 0.106877 -0.0880299
0.0545739 0.10663 -0.0882263
0.0548504 0.106609 -0.0881393
0.0547018 0.106474 -0.0881101
0.0548898 0.106565 -0.0881974
0.054388 0.106437 -0.0884469
0.0549019 0.106826 -0.0879887
0.0544962 0.106506 -0.0883617
0.0545697 0.106173 -0.0884324
0.0545403 0.106714 -0.0881208
0.0545301 0.106257 -0.0884099
0.054375 0.106382 -0.0882959
0.0543457 0.106623 -0.0882051
0.0545029 0.106161 -0.0885111
0.0544344 0.106039 -0.0883655
0.0541851 0.106304 -0.0885459
0.0543457 0.106076 -0.0884892
0.05411 0.105844 -0.0883615
0.0542702 0.106114 -0.0883823
0.0541628 0.106388 -0.0883394
0.0542658 0.106481 -0.0878043
0.0538242 0.10626 -0.0882983
0.0541328 0.106439 -0.0883673
0.0538366 0.106301 -0.0883311
0.0541744 0.10626 -0.088358
0.0538675 0.106137 -0.0882254
0.054047 0.106105 -0.0882396
0.0539334 0.105826 -0.0882648
0.0541413 0.105696 -0.0881446
0.0537719 0.105909 -0.088267
0.0539234 0.106025 -0.0880951
0.0539064 0.106064 -0.0882443
0.0536452 0.105848 -0.088198
0.0536542 0.105419 -0.0880751
0.0534294 0.10514 -0.0874794
0.0532072 0.104747 -0.0866783
0.0526839 0.103883 -0.0859374
0.052023 0.10299 -0.08544
0.0516283 0.10218 -0.0847001
0.0519359 0.101174 -0.0842262
0.0514374 0.100458 -0.0839283
0.0513027 0.100342 -0.0838387
0.0513718 0.100525 -0.0840526
0.0513437 0.100534 -0.0841189
0.0512537 0.101001 -0.0844513
0.051351 0.101113 -0.0851403
0.0517206 0.101369 -0.0848139
0.0516348 0.10198 -0.0854524
0.0516328 0.102336 -0.0858582
0.0517383 0.102635 -0.0862015
0.0522017 0.103105 -0.0862926
0.052035 0.103418 -0.0868743
0.0524226 0.103829 -0.0869918
0.0524245 0.104581 -0.0872866
0.0524165 0.104851 -0.0873669
0.0525747 0.104239 -0.0878149
0.0525707 0.104529 -0.0879852
0.0525854 0.104297 -0.0878169
0.0524728 0.105257 -0.0880208
0.0521481 0.104636 -0.0884976
0.0522938 0.104927 -0.0881918
0.0523368 0.104998 -0.0880326
0.0521495 0.105198 -0.0882828
0.0523129 0.104635 -0.0884266
0.0523481 0.104668 -0.0883049
0.0525451 0.104521 -0.0884676
0.052111 0.105096 -0.0883385
0.0524208 0.105275 -0.0882709
0.0522104 0.105115 -0.0886279
0.0523687 0.105125 -0.0884949
0.0520323 0.104907 -0.0885771
0.0521256 0.105073 -0.0886066
0.0521115 0.105645 -0.0883866
0.052213 0.104833 -0.0888169
0.0520404 0.105346 -0.0885924
0.0521173 0.10517 -0.0886935
0.0520046 0.104683 -0.0888361
0.0520064 0.105313 -0.0886731
0.0522327 0.104456 -0.0889413
0.0520838 0.104801 -0.0890916
0.0518429 0.1048 -0.0893199
0.0520949 0.105099 -0.0886259
0.0520378 0.105124 -0.0888205
0.0518432 0.105072 -0.088884
0.0518334 0.10505 -0.0891284
0.051459 0.105199 -0.0891669
0.0518465 0.104847 -0.0892934
0.05169 0.104976 -0.0890325
0.0517786 0.105067 -0.0890913
0.0518072 0.1053 -0.0889484
0.0515646 0.105185 -0.0893015
0.0519342 0.104727 -0.0895251
0.0517666 0.105165 -0.0892866
0.051687 0.105371 -0.0892964
0.0518629 0.10478 -0.08943
0.0516832 0.105342 -0.08916
0.0514971 0.105338 -0.0892275
0.0517903 0.105135 -0.0893601
0.0517262 0.104894 -0.0893202
0.0516761 0.104968 -0.0895812
0.0514371 0.105565 -0.0892752
0.0516759 0.105228 -0.0896884
0.0517308 0.104963 -0.0894426
0.0514519 0.105473 -0.0899004
0.0515335 0.105222 -0.0897334
0.0514878 0.105202 -0.0898706
