ply
format ascii 1.0
comment Created by Open3D
element vertex 1545
property double x
property double y
property double z
end_header
0.0623514 0.0369862 -0.0487723
0.0411256 0.0381002 -0.0365063
0.0412391 0.0383098 -0.0362299
0.0414776 0.0384749 -0.036007
0.0414059 0.0383772 -0.0360169
0.0415373 0.0385359 -0.0359191
0.0414648 0.0387265 -0.0359382
0.0415746 0.0386072 -0.0358574
0.0414079 0.0385737 -0.035886
0.0410834 0.038804 -0.0360981
0.041149 0.0385607 -0.0359383
0.0412596 0.0384435 -0.0355067
0.0410458 0.039089 -0.0352924
0.0410215 0.0390995 -0.0346846
0.0412891 0.0397237 -0.0340528
0.0412365 0.039939 -0.0333784
0.0408392 0.0396416 -0.0332066
0.040878 0.0402167 -0.0336355
0.0409933 0.0406169 -0.0324741
0.0403509 0.0406687 -0.0327025
0.0407449 0.0403444 -0.032181
0.0408212 0.0406999 -0.0316953
0.0406511 0.0406418 -0.0315958
0.0408571 0.0414409 -0.0312055
0.0402457 0.0413987 -0.0311357
0.0401828 0.041749 -0.0304895
0.0402861 0.0423342 -0.029925
0.0402154 0.0417162 -0.0297565
0.0402726 0.0416404 -0.0290196
0.0404925 0.0424869 -0.0285669
0.0405135 0.0429825 -0.0275071
0.0404776 0.0432046 -0.0279493
0.0403669 0.043136 -0.0275458
0.0400509 0.0429065 -0.0276189
0.0401095 0.0428142 -0.0274866
0.0399274 0.0449091 -0.025076
0.0397836 0.0431938 -0.027122
0.0402595 0.0443171 -0.024826
0.0397595 0.0436224 -0.0255725
0.0397011 0.0437236 -0.0269884
0.0404494 0.0447773 -0.0242271
0.0407502 0.0461549 -0.0248867
0.0401919 0.0448888 -0.0242878
0.0403352 0.0443212 -0.0236928
0.0394949 0.0461196 -0.0243265
0.040274 0.0448734 -0.0240467
0.0397525 0.0445169 -0.0239449
0.0404511 0.0440735 -0.0228945
0.0396946 0.0447618 -0.024249
0.0403166 0.0463953 -0.0245152
0.0393768 0.0455528 -0.0242084
0.0395941 0.0447382 -0.0239903
0.039982 0.0461389 -0.0223872
0.0399515 0.046 -0.0224575
0.0415417 0.0465243 -0.0232447
0.0422628 0.0462491 -0.0234787
0.0401672 0.0460414 -0.0224478
0.0406396 0.0444606 -0.0227461
0.0405537 0.0443 -0.0225014
0.0406508 0.0461308 -0.0223008
0.0409057 0.0461823 -0.022518
0.0404012 0.0460416 -0.0209318
0.0396433 0.0484793 -0.0180413
0.0404932 0.0495051 -0.0157945
0.0399068 0.0496066 -0.0159517
0.0401895 0.0496564 -0.0159464
0.0401144 0.0492839 -0.013377
0.0404733 0.0510024 -0.0131731
0.040071 0.0497524 -0.0142994
0.0393644 0.0506843 -0.0100315
0.0403855 0.0545306 -0.0108767
0.039851 0.0509947 -0.0121454
0.0405187 0.0509705 -0.0131912
0.0414064 0.0511941 -0.01352
0.0403808 0.0496948 -0.012762
0.0424785 0.0510918 -0.0105396
0.0399557 0.0510035 -0.012341
0.0419854 0.0514657 -0.00804361
0.0431626 0.0529472 -0.0124203
0.0400631 0.0520092 -0.00472105
0.0426116 0.0536616 -0.00952794
0.0428185 0.0534801 -0.0105667
0.0426512 0.0536623 -0.00949292
0.0427311 0.0535728 -0.0103181
0.0426638 0.0536745 -0.00965105
0.0427444 0.0535198 -0.0100909
0.0431344 0.0533147 -0.0115595
0.0422564 0.0540699 -0.00773431
0.045232 0.0543064 -0.00939304
0.0436377 0.0534565 -0.00541308
0.0452781 0.0541413 -0.0100905
0.0452651 0.0541659 -0.00999399
0.0452711 0.0541517 -0.0101388
0.0451658 0.0543683 -0.0091781
0.0452681 0.0542245 -0.00990316
0.0451838 0.0543359 -0.00856024
0.0459026 0.0571294 -0.0030978
0.0453136 0.0539946 -0.0105375
0.0445211 0.0556514 -0.00431861
0.0462234 0.0561384 -0.00668612
0.0478223 0.0594134 -0.00187125
0.0479319 0.0591752 -0.0039539
0.0477547 0.058823 -0.000774078
0.0478849 0.0587076 -0.00782007
0.0477766 0.0571535 -0.00518018
0.0477711 0.0570688 -0.00568218
0.0478931 0.0591055 -0.00561268
0.0478643 0.0569034 -0.0059372
0.0479756 0.0579226 -0.00178835
0.0479246 0.0593189 -0.00329006
0.0479054 0.058361 -0.00260591
0.047906 0.0592208 -0.00397466
0.0481086 0.0588522 -0.0052776
0.0481258 0.0588862 -0.0052185
0.0480292 0.058872 -0.00527543
0.0504657 0.057286 -0.0069693
0.0504678 0.0578038 -0.00527673
0.0480669 0.0573888 -0.00118019
0.0479759 0.0588977 -0.00551865
0.0480726 0.0589104 -0.00544622
0.051373 0.0626699 -0.00246689
0.0480394 0.0589069 -0.00515298
0.0480667 0.0587713 -0.00512778
0.0504795 0.0572985 -0.0069379
0.0494935 0.061537 -0.00512265
0.0524549 0.0622661 -0.0013572
0.0521164 0.0621511 0.00018677
0.0513263 0.0626827 -0.002474
0.0524548 0.0619176 0.000181111
0.0523575 0.0619348 -0.00231203
0.0547713 0.0611043 -0.00564434
0.0523642 0.0620075 -0.00219401
0.0539299 0.0620687 -0.00116939
0.0545339 0.0605245 -0.00352753
0.0553251 0.0635284 0.00187836
0.0548538 0.0655589 -0.00143619
0.055769 0.0622351 -0.00216316
0.0558095 0.0624995 -0.00240994
0.0546203 0.0611579 -0.00546976
0.0558429 0.0615911 -0.00337402
0.0558616 0.0623315 -0.00301911
0.056157 0.0625924 -0.00348935
0.0557263 0.0620907 -0.0045521
0.0560616 0.0626095 -0.00307065
0.0569554 0.0627448 -0.000986767
0.05705 0.0650308 4.46934e-05
0.0566547 0.0665681 -0.00206804
0.057261 0.0658256 -0.00075231
0.0589978 0.0629385 -0.00128691
0.0577281 0.0638545 -0.00372405
0.0573256 0.0659461 -0.00107243
0.058394 0.0636743 -0.00188527
0.0583138 0.0627245 -0.00105806
0.057436 0.0633547 -0.00494073
0.0591038 0.0642184 -0.00240107
0.057768 0.063775 -0.00396126
0.0574292 0.0632624 -0.00511325
0.0575771 0.0635972 -0.00431894
0.0597385 0.0649071 -0.00262266
0.0580917 0.0632553 -0.00691373
0.0576235 0.0636882 -0.00425511
0.0594114 0.0618552 -0.00741006
0.0601192 0.0645512 -0.00269883
0.0581957 0.0661108 -0.00106854
0.0590989 0.0645115 -0.00265892
0.0615952 0.063831 -0.00334545
0.0590282 0.061707 -0.00860106
0.0621104 0.0641359 -0.00404129
0.0634118 0.0610184 -0.00380616
0.0597915 0.0626665 -0.00562403
0.0620246 0.0613495 -0.00665537
0.0624562 0.0590391 -0.0101088
0.0624726 0.058833 -0.0102328
0.0621362 0.0613478 -0.00699538
0.0638698 0.0599142 -0.00949846
0.0643036 0.0601461 -0.0105694
0.0626938 0.0591892 -0.0125348
0.062648 0.0589763 -0.0126458
0.0602374 0.0566303 -0.0145102
0.0626044 0.0590313 -0.0127248
0.0623639 0.0588322 -0.0131673
0.0622317 0.0587068 -0.0134524
0.0622759 0.0588053 -0.0133654
0.0622062 0.057943 -0.0138067
0.061816 0.0581073 -0.0146658
0.0626039 0.058986 -0.0127658
0.0626564 0.0590153 -0.0130005
0.0627204 0.0591596 -0.0123177
0.0625678 0.0590015 -0.0129747
0.0625292 0.058932 -0.0129918
0.0622441 0.0586533 -0.0135209
0.0639468 0.060174 -0.0115992
0.0638119 0.0602261 -0.0120467
0.0625705 0.0589821 -0.0127918
0.0658521 0.0556924 -0.0111639
0.0637538 0.0574056 -0.012123
0.0661745 0.0568082 -0.013049
0.066668 0.0572254 -0.0116657
0.0647568 0.0592583 -0.0132735
0.0635474 0.0579737 -0.0165169
0.0658041 0.0598925 -0.0110674
0.0666104 0.0591073 -0.0153641
0.0688379 0.0559166 -0.0135172
0.0662264 0.0588521 -0.0160051
0.0661296 0.0559395 -0.0167099
0.0661774 0.0525024 -0.0186131
0.0664201 0.0524084 -0.0196225
0.0665953 0.0573967 -0.0142016
0.0665264 0.052652 -0.0199459
0.0656817 0.0528347 -0.0211774
0.0655517 0.0532528 -0.0223
0.0650603 0.0508383 -0.0232039
0.0647155 0.0517807 -0.0253513
0.0639813 0.0522609 -0.0251463
0.0642662 0.052456 -0.0252174
0.0648041 0.05183 -0.0251786
0.0652446 0.0524792 -0.0250969
0.0658087 0.0528911 -0.0243744
0.0653147 0.0526635 -0.0251892
0.06535 0.0521927 -0.0249987
0.0651007 0.0522062 -0.0251957
0.065464 0.052288 -0.0248174
0.0661859 0.0515747 -0.0236704
0.0646023 0.0523953 -0.0252178
0.0643954 0.0524907 -0.0257513
0.0685058 0.0501069 -0.0263927
0.0653773 0.0524693 -0.0248568
0.0656054 0.0528233 -0.0251307
0.0647291 0.0531525 -0.0264146
0.0654407 0.0503387 -0.0287335
0.0653429 0.0527116 -0.0251142
0.0669605 0.0501718 -0.0281873
0.0668635 0.0504783 -0.0276863
0.0659471 0.0517965 -0.0265993
0.0672047 0.0502021 -0.0287552
0.0669451 0.0506514 -0.0273053
0.066045 0.0511245 -0.0278651
0.0676416 0.0493327 -0.0296471
0.0676076 0.0497595 -0.0290366
0.0674344 0.0502219 -0.0289657
0.0667904 0.0489005 -0.0293833
0.0667376 0.0501357 -0.0294203
0.0663717 0.0507165 -0.0277989
0.0675546 0.0479549 -0.0315779
0.0670362 0.0499085 -0.0285687
0.0666734 0.047952 -0.0317319
0.0668542 0.0475615 -0.0313729
0.0660003 0.0478771 -0.0317672
0.0652397 0.0489573 -0.0317497
0.0662172 0.0481168 -0.032431
0.0667256 0.0484797 -0.0327712
0.0643554 0.0462507 -0.0349666
0.0639625 0.0443949 -0.0385464
0.0623792 0.0432875 -0.0388437
0.0613883 0.0434592 -0.0390842
0.062071 0.0441093 -0.0388476
0.0629487 0.0433643 -0.0396851
0.0631095 0.0426315 -0.0392515
0.062249 0.043475 -0.0393872
0.0629828 0.0432692 -0.04013
0.0627108 0.0428565 -0.039858
0.0631479 0.0432236 -0.0400504
0.0629635 0.0431691 -0.0398845
0.0629509 0.0428974 -0.039951
0.0630864 0.0431642 -0.0403567
0.0634531 0.042051 -0.0401679
0.0635303 0.0423889 -0.0406864
0.0640267 0.0426725 -0.0412639
0.0632051 0.0427795 -0.0414959
0.0637482 0.0423949 -0.0409685
0.0635321 0.0426799 -0.041629
0.0633706 0.0425194 -0.0412273
0.0640735 0.0425128 -0.0420196
0.0632158 0.0422376 -0.0411111
0.0628084 0.0415905 -0.0409334
0.0637695 0.0418515 -0.0420976
0.0638507 0.0418884 -0.0419773
0.0636609 0.0417699 -0.0418203
0.0635803 0.04199 -0.0421646
0.0637393 0.0421219 -0.0423617
0.063417 0.0423821 -0.041923
0.0635247 0.0414769 -0.0419468
0.0632728 0.042194 -0.0420759
0.0634999 0.0417304 -0.0424334
0.0637761 0.0411126 -0.0423155
0.0635799 0.0412722 -0.0426353
0.0635036 0.0418979 -0.0426123
0.0636276 0.0413517 -0.0430678
0.0631329 0.0425148 -0.0421614
0.0633259 0.0413925 -0.0432469
0.0638949 0.0408959 -0.0433507
0.0635063 0.0413503 -0.0428111
0.0634009 0.0412826 -0.0430451
0.0636435 0.0405092 -0.0433522
0.0635513 0.0407704 -0.0442242
0.063693 0.0402958 -0.0437682
0.0634745 0.0403238 -0.0437696
0.0637314 0.0405036 -0.0446958
0.0634665 0.0405585 -0.0445014
0.063316 0.0407553 -0.0437644
0.0635606 0.040262 -0.0442625
0.0633567 0.0402921 -0.0448466
0.06349 0.0403676 -0.0448005
0.0632798 0.0402193 -0.0450759
0.0631436 0.0406935 -0.0449792
0.0631128 0.0407656 -0.0441049
0.0631123 0.0403941 -0.0451205
0.0631227 0.0398367 -0.0454796
0.0634951 0.0397313 -0.0458395
0.0633198 0.0397853 -0.04521
0.0630171 0.039947 -0.0455209
0.0633024 0.0395549 -0.0460476
0.0632954 0.0395953 -0.0459728
0.0631501 0.0396115 -0.0457483
0.0629795 0.0396473 -0.0463183
0.0629028 0.0392834 -0.0463622
0.06292 0.0394201 -0.0467171
0.0630208 0.0392613 -0.0462053
0.0629609 0.03903 -0.0467154
0.0621781 0.0394353 -0.0461997
0.0627348 0.0386493 -0.0467088
0.0628314 0.0389833 -0.0469849
0.0626295 0.0389201 -0.0470588
0.0626395 0.0386349 -0.0469399
0.0628075 0.0383622 -0.0475376
0.0628121 0.0382292 -0.0474691
0.0624035 0.0384079 -0.0474078
0.0625737 0.0381786 -0.0480054
0.0626305 0.0380435 -0.0479488
0.0627694 0.0377681 -0.0483384
0.0624459 0.0386525 -0.0476771
0.0624793 0.0380018 -0.0482983
0.0623617 0.0381211 -0.0477743
0.0623629 0.037799 -0.0481698
0.0625301 0.0373663 -0.0486573
0.0622564 0.0376705 -0.0483305
0.0623302 0.0376504 -0.0484781
0.0623844 0.0370053 -0.0487105
0.0620023 0.037524 -0.0486082
0.0409636 0.0384895 -0.0366984
0.0414256 0.0380534 -0.0362981
0.0412012 0.038154 -0.0363973
0.041089 0.0384001 -0.0364063
0.0414802 0.0386626 -0.0360444
0.0409822 0.0383681 -0.0364997
0.0414881 0.0382984 -0.0357446
0.0413386 0.0382726 -0.0360324
0.0413766 0.0383865 -0.0357355
0.0412724 0.0389126 -0.0358904
0.0414893 0.0391005 -0.0355615
0.0414982 0.0388939 -0.0349739
0.0409426 0.0395595 -0.0347901
0.0412416 0.040085 -0.0339306
0.0413712 0.0394104 -0.0332434
0.0409229 0.0398998 -0.0334026
0.0410158 0.0399321 -0.0328231
0.0410178 0.0406696 -0.0331811
0.0407836 0.0408219 -0.0322332
0.0409873 0.0408339 -0.0322184
0.0410688 0.0409081 -0.0317004
0.0409173 0.0411966 -0.0312995
0.040601 0.0412903 -0.0316037
0.0406816 0.0417711 -0.031125
0.040753 0.0422369 -0.0297327
0.0404813 0.0419781 -0.0300911
0.04015 0.0416836 -0.0300739
0.0404288 0.0415099 -0.0294721
0.040017 0.0420901 -0.0290348
0.0405227 0.0423571 -0.0287938
0.0405854 0.0426698 -0.0281527
0.0394453 0.0431515 -0.0289347
0.0403287 0.0431222 -0.0275719
0.0400431 0.0427599 -0.0274822
0.0400927 0.0441905 -0.0269061
0.0398979 0.0446126 -0.024884
0.0394313 0.0441123 -0.0257964
0.0395892 0.0444147 -0.025545
0.039582 0.0442139 -0.0262173
0.0395485 0.0443233 -0.024862
0.039973 0.0448109 -0.0255994
0.0398724 0.0437529 -0.0249528
0.0395508 0.0442803 -0.0253156
0.0399846 0.0436302 -0.0253309
0.0394614 0.0440663 -0.0261494
0.0407295 0.0455111 -0.024175
0.0412749 0.0460436 -0.0238556
0.0407377 0.0446184 -0.0229926
0.0400462 0.0456787 -0.0238784
0.0400719 0.04622 -0.0224504
0.0405334 0.0439318 -0.0231659
0.0401542 0.0454792 -0.0231367
0.0397955 0.0450672 -0.0237062
0.0407408 0.0444222 -0.0227994
0.0420973 0.0457201 -0.0238139
0.0407057 0.0456363 -0.0227492
0.0400371 0.0458635 -0.022688
0.0394954 0.0462277 -0.0219364
0.0396324 0.0445282 -0.0230771
0.042101 0.0480236 -0.0210186
0.0413884 0.0484708 -0.0188473
0.0406404 0.0493607 -0.0172818
0.0384875 0.0488265 -0.0158587
0.0401104 0.0498029 -0.0160792
0.0389926 0.0518875 -0.0128259
0.0393615 0.0509632 -0.012615
0.0396366 0.0508679 -0.0121752
0.0398934 0.050994 -0.0122661
0.0395165 0.0512693 -0.0116024
0.0399567 0.0510024 -0.0123978
0.0398689 0.0509941 -0.012302
0.0389609 0.0549325 -0.00709423
0.0412317 0.0521512 -0.00415753
0.0428825 0.0534979 -0.010331
0.0429514 0.0532753 -0.0112
0.0429777 0.0533175 -0.0117939
0.0427173 0.0535147 -0.010133
0.0426044 0.0536698 -0.00935383
0.0427406 0.0535461 -0.0102001
0.0438554 0.0537 -0.00726393
0.0413687 0.0532088 -0.00436534
0.0448264 0.0564473 -0.00928546
0.0424643 0.0567917 -0.00252219
0.0460483 0.0566938 -0.00450545
0.0461515 0.0568092 -0.000663757
0.0438726 0.0551945 0.000744655
0.0462161 0.0561585 -0.00659852
0.0464436 0.0563668 -0.00672595
0.0477434 0.0590178 -0.00139682
0.0476952 0.0583709 -0.00033987
0.0477475 0.0569481 -0.00585243
0.0478607 0.0589431 -0.00675732
0.0478716 0.0590347 -0.00641576
0.0494575 0.0583854 -0.008107
0.0494422 0.0621655 -0.00358593
0.0478909 0.05914 -0.0059237
0.0478695 0.0591333 -0.00608215
0.0478335 0.0582453 -0.00249632
0.0479056 0.0587067 -0.0025835
0.0479745 0.059066 -0.00468303
0.0479385 0.0590587 -0.00449754
0.0479013 0.0589926 -0.00602271
0.0479615 0.0591392 -0.00404307
0.0479801 0.0590724 -0.00437214
0.0480218 0.0589107 -0.00518771
0.0479135 0.0589481 -0.00611952
0.0478951 0.059094 -0.00573189
0.0480353 0.0590284 -0.00461454
0.0480411 0.0589093 -0.00514009
0.0480234 0.0588007 -0.00510321
0.0516248 0.0577049 -0.00532181
0.05504 0.0654939 -0.000166543
0.0516624 0.0574042 -0.00555007
0.0512635 0.0631424 -0.00113071
0.0524031 0.0621987 -0.00105091
0.0523837 0.0622004 -0.00175723
0.0524302 0.0622811 -0.00071072
0.052176 0.0602937 -0.00669449
0.0522178 0.0608808 -0.00515027
0.0525573 0.0618921 0.000211775
0.0521528 0.0608755 -0.00602229
0.0512038 0.0641066 0.00237849
0.0545406 0.0607498 -0.0030884
0.054425 0.0603255 -0.00402572
0.0548342 0.0613913 -0.00492559
0.0551645 0.064736 0.000447114
0.0557583 0.0623872 -0.00359766
0.0552061 0.065694 -0.000414414
0.0554031 0.0647312 0.000435074
0.0547059 0.0649018 -0.0034232
0.0557007 0.0621138 -0.00395073
0.0560853 0.0625504 -0.00365613
0.0584206 0.0635935 -0.00181003
0.0551157 0.0600856 -0.00859801
0.0549917 0.064596 0.00061724
0.055362 0.0617577 -0.00598581
0.0572849 0.064742 0.00029123
0.0544656 0.0633265 0.00211713
0.0561912 0.0626178 -0.00340591
0.0571422 0.0667242 -0.00238621
0.0577315 0.0635058 -0.00433653
0.0571242 0.0626122 -0.0065995
0.0587525 0.06397 -0.00215521
0.0574841 0.0634957 -0.00463688
0.0576019 0.0636786 -0.00423327
0.0578143 0.0637837 -0.00390187
0.0576178 0.0636697 -0.00418869
0.0578823 0.0637818 -0.00387868
0.0585555 0.0643722 -0.00251287
0.0599319 0.0644313 -0.00257436
0.0583678 0.063778 -0.00564771
0.0600105 0.0648258 -0.00295732
0.0587851 0.0671807 -0.0023335
0.0589004 0.0648209 -0.00384423
0.0602222 0.0636324 -0.00367147
0.059849 0.0628829 -0.00521502
0.0597777 0.0628217 -0.00535328
0.0623343 0.06537 -0.0036652
0.060665 0.0608322 -0.00737071
0.0610002 0.0648802 -0.00290937
0.0622335 0.0609461 -0.0074389
0.0635056 0.0616711 -0.00605486
0.0622134 0.0636423 -0.00297751
0.0628242 0.0591768 -0.0101262
0.0623455 0.0590023 -0.0106577
0.0622456 0.0587484 -0.0133791
0.0626408 0.0590524 -0.0127483
0.0626131 0.0589958 -0.0128882
0.0612214 0.0575068 -0.0143383
0.0624371 0.0588595 -0.0130628
0.062156 0.0585642 -0.0135837
0.0624596 0.0588884 -0.0129765
0.0621601 0.0585708 -0.013667
0.0622311 0.056073 -0.014614
0.0619694 0.0583976 -0.0141924
0.0625731 0.0589403 -0.0128867
0.0636873 0.06007 -0.0123462
0.0619871 0.0584174 -0.0141928
0.0635774 0.0601802 -0.012807
0.0638748 0.0602085 -0.0118667
0.0626028 0.0590344 -0.012687
0.0621607 0.0585682 -0.0137653
0.0636329 0.0599665 -0.0123994
0.0657566 0.0588544 -0.00994321
0.0645504 0.0590427 -0.0139468
0.0636384 0.0601394 -0.0126306
0.065173 0.0567051 -0.0157164
0.0671668 0.0537977 -0.0157051
0.0643737 0.0587182 -0.0144451
0.0648569 0.0594628 -0.0130789
0.0645023 0.0568928 -0.0171808
0.0694975 0.0584525 -0.01195
0.0698654 0.0587527 -0.0128513
0.068711 0.059469 -0.0128637
0.0648608 0.0562922 -0.0173571
0.0679472 0.0544811 -0.0182662
0.0664328 0.0532909 -0.0205277
0.0660902 0.0528101 -0.0200445
0.0658152 0.0534184 -0.0222617
0.0665486 0.0530947 -0.0237958
0.0646131 0.0522826 -0.0233735
0.0636388 0.0518442 -0.025671
0.0635256 0.0520875 -0.025852
0.0654756 0.0518059 -0.0245062
0.0652651 0.0521639 -0.0250545
0.0652949 0.0526814 -0.0252747
0.0647355 0.0524802 -0.0254705
0.0652102 0.052538 -0.0251655
0.0663642 0.0503849 -0.025552
0.0650776 0.0529039 -0.0257475
0.0649886 0.0513135 -0.027518
0.0675805 0.0523508 -0.0241365
0.0652702 0.0523915 -0.0251222
0.0649985 0.0522853 -0.0253629
0.0676324 0.0507462 -0.0267275
0.065502 0.0527029 -0.024958
0.0675573 0.0527893 -0.0236308
0.0675945 0.0508362 -0.0268485
0.0676933 0.0506283 -0.0264952
0.0673064 0.0505829 -0.0274377
0.0681331 0.0491348 -0.0292345
0.0672656 0.0524267 -0.0264573
0.0669326 0.0506586 -0.0277292
0.0669682 0.0503332 -0.0261602
0.0670338 0.0496587 -0.0298738
0.0675373 0.047575 -0.0313066
0.0661696 0.0508487 -0.029141
0.0671684 0.0497146 -0.0303221
0.0661851 0.0497208 -0.0298308
0.0666189 0.0474686 -0.0314025
0.0668398 0.0468501 -0.032493
0.0665941 0.0476666 -0.0314372
0.0653329 0.0479107 -0.0322906
0.0659075 0.0491377 -0.0310137
0.0660183 0.0468163 -0.0327246
0.0662113 0.0470803 -0.0340377
0.0647799 0.0436226 -0.0368228
0.0635668 0.0428509 -0.0386137
0.0633398 0.0431767 -0.0396225
0.063194 0.0426791 -0.0391945
0.0630809 0.0423262 -0.0393987
0.0631485 0.0428825 -0.0394072
0.062662 0.0428303 -0.0400401
0.0633467 0.0426189 -0.0394842
0.0630467 0.0430082 -0.0397456
0.0626364 0.0422651 -0.0398141
0.0630538 0.042783 -0.0396524
0.0632964 0.0430028 -0.0396555
0.0633912 0.0435699 -0.0408134
0.0625512 0.0429757 -0.0399756
0.0630351 0.0428057 -0.0403917
0.0630568 0.0430383 -0.0401962
0.0633907 0.0427114 -0.0403134
0.0631627 0.0430365 -0.0401658
0.0627641 0.0426854 -0.0407514
0.0633888 0.0427254 -0.040268
0.063338 0.0424548 -0.0409914
0.0630632 0.0432054 -0.0414103
0.0636351 0.0420034 -0.0414385
0.0635471 0.0424365 -0.0412577
0.06271 0.0424578 -0.0410755
0.0630895 0.0419966 -0.0410544
0.0636572 0.0423881 -0.0418347
0.063693 0.0421751 -0.0413868
0.0633746 0.0423894 -0.0416566
0.0637277 0.0419723 -0.0421817
0.0634362 0.0423574 -0.042426
0.0635936 0.0423192 -0.0421333
0.0636444 0.0424382 -0.0420227
0.0640425 0.0413379 -0.042413
0.0638042 0.0417859 -0.0423913
0.0637649 0.0417854 -0.0426958
0.0638103 0.0416657 -0.0423701
0.0628062 0.0421897 -0.0414265
0.0632917 0.0420301 -0.0425187
0.0636146 0.0416941 -0.0434524
0.0632703 0.0418273 -0.0428822
0.0634596 0.0422402 -0.0422198
0.064036 0.0405819 -0.0434368
0.0640573 0.0412421 -0.0438788
0.0632837 0.0411259 -0.0432611
0.0635204 0.0422115 -0.042206
0.0631176 0.0415035 -0.0430903
0.0634262 0.0406738 -0.0440034
0.0634769 0.0411067 -0.044676
0.0636003 0.0407377 -0.0444669
0.0638195 0.040484 -0.0447998
0.0634859 0.0405889 -0.0444707
0.0634068 0.0406979 -0.044077
0.0632786 0.0405045 -0.0444899
0.063201 0.0403739 -0.0440979
0.0634761 0.0403557 -0.0450107
0.0635184 0.0401504 -0.0446007
0.0634886 0.0402196 -0.0453498
0.0633585 0.040075 -0.0453704
0.063135 0.0402059 -0.0453322
0.0632345 0.0403087 -0.0452919
0.0631421 0.0400129 -0.0448103
0.0633046 0.0393694 -0.0454777
0.063386 0.0396724 -0.0454683
0.0633908 0.0396467 -0.0461054
0.0629976 0.039991 -0.0455898
0.0629681 0.0396607 -0.0456918
0.0629596 0.0394839 -0.0454437
0.0630598 0.0403697 -0.0456284
0.0629843 0.0398005 -0.0458997
0.0631133 0.0390954 -0.0463159
0.0631512 0.0389148 -0.0465161
0.0629146 0.0391096 -0.0466173
0.0629659 0.0390593 -0.0467627
0.0629915 0.0390018 -0.0472901
0.0629419 0.0387052 -0.0467685
0.0630378 0.0384106 -0.0469744
0.0626317 0.0386542 -0.0471922
0.0625632 0.038612 -0.0473649
0.0626126 0.0384559 -0.0474908
0.0627915 0.0381058 -0.0476328
0.062484 0.0380538 -0.0473922
0.0626301 0.0380814 -0.0479389
0.0627041 0.0377954 -0.0480779
0.0625871 0.038065 -0.0480231
0.0624857 0.0379214 -0.0481543
0.0624899 0.0383304 -0.0478291
0.0626042 0.0377033 -0.0484477
0.062294 0.0373277 -0.0484282
0.0622944 0.0382 -0.0481922
0.0623692 0.0375278 -0.048809
0.0622316 0.0374003 -0.0486569
0.0621824 0.0374709 -0.0490667
0.0413236 0.0382761 -0.0363758
0.0411946 0.0385622 -0.0364242
0.041423 0.0383989 -0.0361569
0.0414152 0.0386116 -0.0360625
0.0411289 0.0385503 -0.0364363
0.0412827 0.038481 -0.0361521
0.0414027 0.0385518 -0.0362281
0.0413395 0.0385087 -0.0360819
0.0410776 0.0383145 -0.0359008
0.0414792 0.0389122 -0.035616
0.0416166 0.0393833 -0.0355554
0.0411053 0.0391888 -0.035408
0.0411888 0.0395958 -0.0345291
0.0409243 0.0395846 -0.0342178
0.0409899 0.039603 -0.0336826
0.0409784 0.040706 -0.033368
0.0407528 0.0397329 -0.0330906
0.0406053 0.0400656 -0.0329039
0.0410816 0.0408158 -0.0323343
0.0408402 0.0410222 -0.0320659
0.0404818 0.0410992 -0.031914
0.0413001 0.0417124 -0.0311408
0.0404934 0.0414029 -0.0315794
0.0406132 0.0422282 -0.0302244
0.0413184 0.042466 -0.0297488
0.040336 0.0421476 -0.0306957
0.0399484 0.0421411 -0.0298785
0.0403133 0.0427205 -0.0294437
0.0412004 0.0425971 -0.0280966
0.0402356 0.0422245 -0.0285054
0.0405315 0.0430481 -0.0274409
0.0406555 0.0431823 -0.0275595
0.0398386 0.0428732 -0.0283357
0.0398981 0.042516 -0.0274368
0.0398615 0.0426571 -0.0274991
0.0395638 0.0440726 -0.0273928
0.0401045 0.0451888 -0.0259234
0.0395867 0.0441384 -0.0254886
0.0396286 0.0439185 -0.0259663
0.0407051 0.0447077 -0.0256534
0.0398889 0.0445959 -0.0239951
0.0401058 0.0460912 -0.0225063
0.0394274 0.0452907 -0.0245123
0.0408183 0.0446265 -0.0246797
0.0398668 0.0452178 -0.0242486
0.040605 0.0451579 -0.0235974
0.0393657 0.0447849 -0.0243956
0.0400181 0.044648 -0.0237799
0.0392264 0.0464425 -0.0238841
0.0394808 0.0450044 -0.0238787
0.0403531 0.045603 -0.0243898
0.0395948 0.0445529 -0.0241825
0.0414681 0.046089 -0.0233243
0.0418906 0.0463181 -0.0234555
0.0398332 0.0462087 -0.0223098
0.0398113 0.0462347 -0.0206439
0.0408316 0.0492646 -0.0184796
0.0405477 0.0495724 -0.0175806
0.0399144 0.0497056 -0.0162629
0.0398703 0.0488728 -0.0158268
0.0392792 0.0487004 -0.0149795
0.039573 0.0520235 -0.0140985
0.0404169 0.0509976 -0.0130603
0.0397658 0.0509286 -0.0122563
0.0395548 0.0509807 -0.012567
0.0398434 0.0509649 -0.0123111
0.0393066 0.0521134 -0.0129981
0.0395231 0.0517519 -0.0128688
0.0406755 0.0500721 -0.0095051
0.0425138 0.0538573 -0.00899724
0.0402055 0.0535695 -0.00985889
0.0388412 0.0520231 -0.00535777
0.0391232 0.0546073 -0.00693093
0.042259 0.0540517 -0.00777521
0.0377282 0.0534652 -0.00739544
0.0427428 0.0536316 -0.00951949
0.042716 0.0534865 -0.0102005
0.042616 0.0535631 -0.00954084
0.0392442 0.0542192 -0.00717378
0.0429824 0.0533122 -0.0111605
0.0450052 0.0547718 -0.00789337
0.0425925 0.0536614 -0.00943421
0.0443253 0.0576033 -0.00571543
0.0450505 0.0545832 -0.00824657
0.0449017 0.0562577 -0.00978224
0.0425916 0.0566627 -0.00317662
0.0449657 0.0560476 -0.0102992
0.0462032 0.0561244 -0.00654836
0.0445744 0.0570387 -0.00740975
0.0458635 0.0571809 -0.00224067
0.0478559 0.059114 -0.00634334
0.0478937 0.0589969 -0.00629875
0.0461834 0.0561729 -0.0063835
0.0478978 0.0589361 -0.00671887
0.0434876 0.0579356 0.00162561
0.0478045 0.0571195 -0.0052706
0.0479106 0.0593233 -0.00325688
0.0479439 0.0590491 -0.00398017
0.04783 0.0592415 -0.00521936
0.0479512 0.0593542 -0.00344498
0.0480434 0.0589226 -0.00485304
0.0479316 0.0591266 -0.00434545
0.0479665 0.0591205 -0.00444872
0.047933 0.0592448 -0.0038999
0.0478941 0.0591164 -0.00598204
0.048011 0.0589378 -0.0051649
0.0478172 0.0569385 -0.00603001
0.0480218 0.0589096 -0.00511457
0.0478367 0.0593658 -0.00291605
0.0480136 0.0589463 -0.00530789
0.0480534 0.0588986 -0.0051498
0.0480485 0.0589074 -0.00513996
0.0479557 0.0588806 -0.00594
0.0493072 0.0583035 -0.00797365
0.0516971 0.0573098 -0.00569043
0.0506015 0.0586565 -0.00792335
0.051517 0.057397 -0.00582047
0.0504503 0.0575018 -0.00571
0.0488764 0.058402 -0.00601617
0.0530913 0.0649646 0.000800971
0.0546218 0.0607795 -0.00296295
0.0521819 0.0606755 -0.00570372
0.0522149 0.0606038 -0.00585683
0.0548545 0.0651056 -0.0025055
0.052201 0.0606646 -0.00575505
0.0545609 0.0607102 -0.00319054
0.0520087 0.0622465 -0.000113157
0.053153 0.061717 0.000371361
0.0547018 0.0612309 -0.00184823
0.0531956 0.064213 0.00143802
0.054638 0.0606918 -0.00668456
0.0547907 0.061169 -0.00548655
0.0559032 0.0625317 -0.00340716
0.0558397 0.0622401 -0.00200288
0.0557167 0.0621947 -0.00427291
0.0557623 0.0623781 -0.00377869
0.055164 0.0646731 0.00050533
0.0583253 0.0692324 -0.00299378
0.0554418 0.0621287 -0.00517651
0.0559894 0.0625207 -0.00350644
0.055799 0.0624558 -0.00360334
0.0587081 0.0631852 -0.0014856
0.0575588 0.0635981 -0.00437745
0.0569921 0.0679518 -0.0017737
0.0576036 0.0635907 -0.00431307
0.0574705 0.060038 -0.00639936
0.0573387 0.0597043 -0.00727623
0.0584247 0.0661887 -0.00113983
0.0578385 0.0608245 -0.00427549
0.057746 0.0637618 -0.0039
0.0587121 0.0644938 -0.0042289
0.0576171 0.0636905 -0.00422392
0.058386 0.0662046 -0.00116353
0.0581023 0.0638429 -0.00367613
0.0582822 0.0642026 -0.00287864
0.058948 0.0610299 -0.00929068
0.0589664 0.0644475 -0.00259872
0.0596402 0.0647113 -0.00286799
0.05943 0.0649681 -0.00337197
0.0592221 0.0650012 -0.00315976
0.0604659 0.0649447 -0.00330318
0.059982 0.0630811 -0.0047468
0.0615856 0.0639125 -0.00564531
0.0602199 0.0647399 -0.00292817
0.0598862 0.064652 -0.00281159
0.0624464 0.0635163 -0.00269714
0.0627061 0.0619331 -0.00658691
0.0627929 0.0621339 -0.00820068
0.0624131 0.0654242 -0.0049725
0.0608078 0.0587613 -0.0129327
0.0646188 0.0596168 -0.00880623
0.0627414 0.0591472 -0.0104167
0.0628565 0.0593211 -0.0119443
0.0623366 0.0588837 -0.0133132
0.0602838 0.057337 -0.0142984
0.0626189 0.0590328 -0.0126328
0.0608418 0.0585252 -0.0157159
0.0612279 0.0578311 -0.0150198
0.06224 0.0586781 -0.0134431
0.0621833 0.0585313 -0.0136397
0.0621077 0.0586029 -0.013705
0.0619213 0.0583087 -0.0143685
0.062577 0.0589394 -0.0129566
0.0624862 0.0588888 -0.0133356
0.0629331 0.059193 -0.013241
0.0626789 0.0591212 -0.012963
0.0639629 0.0602403 -0.0115128
0.0639508 0.057513 -0.0119584
0.0648942 0.0559934 -0.0159518
0.0649478 0.0598076 -0.010674
0.0637672 0.0601524 -0.012188
0.0681002 0.058515 -0.00981075
0.0648876 0.0559922 -0.015952
0.0675805 0.0596109 -0.0130057
0.0660518 0.0586946 -0.016372
0.0643229 0.0586816 -0.0145268
0.0636969 0.060128 -0.0123653
0.0684057 0.0568712 -0.012257
0.0693391 0.0571063 -0.0135829
0.0673747 0.0526541 -0.0198736
0.0680355 0.0596136 -0.0107426
0.06659 0.0532673 -0.0206673
0.066954 0.0532362 -0.0203782
0.0686361 0.0555952 -0.0189666
0.0680343 0.0547648 -0.0183423
0.0667082 0.0534798 -0.0206405
0.0656036 0.0532126 -0.0223187
0.0644279 0.0526255 -0.024266
0.0652495 0.0524112 -0.0250564
0.0660504 0.0518816 -0.0242531
0.0652294 0.0526075 -0.0251682
0.0634689 0.0518134 -0.0262027
0.064594 0.0523745 -0.0251183
0.0651542 0.0521626 -0.025315
0.0656528 0.0521149 -0.0244976
0.0660313 0.0518028 -0.0242333
0.0655502 0.0521148 -0.024426
0.0638669 0.0524973 -0.0267239
0.0655353 0.0521194 -0.024436
0.0648001 0.0526387 -0.0254477
0.0657208 0.051864 -0.0243635
0.0674852 0.0523274 -0.0232061
0.0668377 0.051795 -0.0258137
0.0674462 0.05207 -0.0249184
0.0676771 0.0531482 -0.0239718
0.0659532 0.0517878 -0.0240967
0.066741 0.0535197 -0.0242999
0.0652205 0.0525283 -0.0251177
0.0665301 0.0508723 -0.027863
0.0674916 0.049052 -0.028187
0.0669 0.0506995 -0.0275088
0.0665019 0.0506947 -0.0280383
0.0670868 0.0492767 -0.0297109
0.0668205 0.0523213 -0.0280585
0.0671893 0.0502413 -0.0290305
0.0672349 0.0485113 -0.0312601
0.0666317 0.05006 -0.0305408
0.0670335 0.0480689 -0.0316328
0.0673278 0.0484311 -0.0318076
0.0665954 0.0482088 -0.032365
0.0670554 0.0482821 -0.0330194
0.0661402 0.0477441 -0.033732
0.0659721 0.0477597 -0.0339717
0.0656993 0.044537 -0.0354962
0.0639422 0.0429128 -0.0386074
0.0632816 0.0425325 -0.0391651
0.0633026 0.042613 -0.038969
0.0631444 0.0429317 -0.0394848
0.0632578 0.0426079 -0.0391309
0.063172 0.0428363 -0.0394353
0.063005 0.0436866 -0.039622
0.0633343 0.0432042 -0.039541
0.0633539 0.0424836 -0.0397197
0.062947 0.0432133 -0.0396295
0.0623714 0.0431813 -0.0401204
0.0624355 0.0436649 -0.0405018
0.0629436 0.0429136 -0.039936
0.0629126 0.0427193 -0.0405413
0.0632055 0.0430203 -0.0402076
0.0631712 0.0426625 -0.0409518
0.0635792 0.042464 -0.0408762
0.0634878 0.0423981 -0.0404976
0.063694 0.0425921 -0.0407235
0.0640002 0.0422427 -0.0419781
0.0633985 0.04269 -0.041294
0.0625233 0.0432926 -0.0409818
0.0637159 0.0421712 -0.0421052
0.0639158 0.0419312 -0.042122
0.0636861 0.0423618 -0.0423769
0.0637007 0.0415099 -0.0423306
0.0641565 0.0416175 -0.0422952
0.0637819 0.0413299 -0.0418939
0.0634844 0.0417381 -0.0423104
0.0637359 0.0421122 -0.04232
0.0632695 0.0419923 -0.0419881
0.0638544 0.0417034 -0.0426601
0.0636874 0.0418746 -0.0434629
0.0638276 0.0415647 -0.0430429
0.0638962 0.0411723 -0.0427935
0.0637206 0.041079 -0.042977
0.0635936 0.0412403 -0.0437748
0.0635741 0.0412225 -0.0437827
0.0637273 0.0411779 -0.0436174
0.0634275 0.041851 -0.0423507
0.0635473 0.041496 -0.0436731
0.0636988 0.0410414 -0.0443848
0.0635715 0.0403486 -0.0435931
0.0634611 0.0408992 -0.0440538
0.0634224 0.0406037 -0.0438637
0.0632644 0.0411984 -0.043787
0.0637191 0.0407695 -0.0446045
0.0635609 0.0403598 -0.0443057
0.0634403 0.0406242 -0.0450731
0.0633635 0.0405184 -0.0447374
0.0631312 0.0414248 -0.0437188
0.0631419 0.0403879 -0.0446598
0.0636976 0.0400654 -0.0455139
0.0634982 0.0401718 -0.045105
0.063304 0.0397948 -0.0451904
0.0632654 0.0400298 -0.0449605
0.0631241 0.0401402 -0.0453384
0.0633357 0.0400278 -0.045316
0.0633182 0.0397408 -0.0458144
0.0633003 0.0395429 -0.0453574
0.0632978 0.0398171 -0.0464099
0.0635574 0.0396685 -0.0464468
0.0634387 0.0393149 -0.0467175
0.063217 0.039392 -0.0462166
0.062954 0.0393184 -0.046389
0.0631584 0.0391473 -0.0466237
0.063145 0.0391224 -0.0466445
0.0630158 0.0389357 -0.0464719
0.0632805 0.0388683 -0.0469244
0.0627673 0.0390716 -0.046584
0.0630555 0.0386407 -0.0476138
0.062826 0.0385294 -0.0469553
0.06281 0.0388548 -0.0470786
0.0627598 0.0383863 -0.0474566
0.0627965 0.038663 -0.0477489
0.0627925 0.0381881 -0.0477169
0.0627263 0.0383087 -0.048005
0.0624818 0.0382283 -0.0479932
0.0624191 0.0384209 -0.0478069
0.0626065 0.0382086 -0.0480001
0.0626064 0.0379772 -0.047972
0.0626086 0.0378633 -0.0486977
0.0625104 0.0375522 -0.0487037
0.0623513 0.0379867 -0.0483624
0.0622756 0.0375473 -0.0486929
0.0622982 0.0375923 -0.0489328
0.0621644 0.0376741 -0.0487451
0.0413009 0.0383459 -0.0365083
0.0410624 0.0382173 -0.0365928
0.0411861 0.038676 -0.036445
0.0412108 0.0382171 -0.0364679
0.0412983 0.0384992 -0.0363383
0.0414249 0.0385829 -0.0361478
0.0411386 0.0386482 -0.0363202
0.0414905 0.0383252 -0.0357447
0.0413852 0.0386407 -0.0358574
0.0414782 0.0387177 -0.0359184
0.0414378 0.0387863 -0.0354746
0.0412414 0.0392312 -0.0352922
0.041248 0.0393729 -0.0346848
0.0413274 0.0398751 -0.0341897
0.0412067 0.0399025 -0.0337646
0.0408029 0.0399522 -0.0335535
0.0407052 0.040692 -0.0335407
0.040675 0.0403993 -0.0330618
0.0408766 0.0403527 -0.0325353
0.0409554 0.0408559 -0.0319489
0.040669 0.0410492 -0.031831
0.0410325 0.0415197 -0.0313707
0.0400976 0.0415807 -0.0316899
0.0403763 0.0416103 -0.0310603
0.040462 0.0418778 -0.0303761
0.0403456 0.0424231 -0.0300064
0.0402702 0.0425691 -0.0300009
0.0403597 0.0419315 -0.0293933
0.040489 0.0426121 -0.0289664
0.0399624 0.0430179 -0.0290558
0.0399227 0.042753 -0.0285411
0.0401037 0.0428645 -0.0275649
0.0399395 0.0432014 -0.027817
0.0395893 0.0439812 -0.0276009
0.0400313 0.0437835 -0.0270103
0.0398059 0.0434676 -0.0271704
0.0392259 0.0442973 -0.0273445
0.0400558 0.045193 -0.0249896
0.0401346 0.0443068 -0.0268166
0.0399228 0.043886 -0.0250547
0.0396851 0.0451122 -0.0257151
0.0394745 0.0454635 -0.0242469
0.039425 0.0455653 -0.0241852
0.0397904 0.0445807 -0.0240021
0.0410305 0.045963 -0.0250639
0.0416726 0.0458678 -0.0241306
0.0395982 0.0453977 -0.0242859
0.0403105 0.0460865 -0.0243363
0.0392834 0.0455476 -0.0239186
0.0416048 0.0463665 -0.023708
0.0392676 0.0458376 -0.0242096
0.0421002 0.0464858 -0.0237942
0.0417066 0.0467356 -0.0240093
0.0415667 0.0465076 -0.0237354
0.0421057 0.0468397 -0.023128
0.0420272 0.0464891 -0.0233232
0.0411772 0.0468398 -0.0236198
0.0417394 0.0457316 -0.0236895
0.0399162 0.0459365 -0.0225345
0.0396394 0.0460137 -0.0204806
0.0397738 0.0488969 -0.0190469
0.0402143 0.0497312 -0.0160981
0.0417607 0.0498854 -0.0168512
0.0395648 0.0509431 -0.0160404
0.0390823 0.0485245 -0.0152344
0.0396123 0.0509615 -0.0117727
0.0418336 0.0515318 -0.0134195
0.0391076 0.0513294 -0.0125201
0.0393875 0.0519894 -0.0130921
0.0399556 0.0510185 -0.0123483
0.0403935 0.0534529 -0.010486
0.0408829 0.0528957 -0.0125002
0.0412712 0.0536452 -0.0125394
0.0407311 0.0540024 -0.00596416
0.0420077 0.0537875 -0.00725577
0.0382723 0.0546603 -0.0065135
0.0378015 0.0535868 -0.00877431
0.0402991 0.0534615 -0.010261
0.0416029 0.0538551 -0.00592003
0.0427715 0.0535486 -0.0102483
0.0426219 0.053617 -0.00985322
0.042569 0.0536791 -0.00933556
0.0427591 0.0534945 -0.0103494
0.042303 0.0557536 -0.000631372
0.0447462 0.0565786 -0.00883254
0.0426824 0.0536468 -0.0100737
0.0422382 0.0558717 -0.000626425
0.0446817 0.0569182 -0.00779804
0.0446853 0.0567761 -0.00826484
0.0446441 0.05691 -0.00787479
0.0447803 0.0566359 -0.00892501
0.0461166 0.0567404 -0.00117289
0.0442569 0.0557836 -0.00300307
0.0441118 0.0581441 -0.00407221
0.04446 0.057283 -0.00665895
0.0446341 0.0569086 -0.00788523
0.0462318 0.0562908 -0.00624416
0.0478591 0.05905 -0.00644058
0.0418811 0.059505 0.00038204
0.0479525 0.0591502 -0.00422401
0.0478932 0.0593858 -0.00338216
0.0479127 0.0591264 -0.00442126
0.0478631 0.0592086 -0.00532431
0.0478751 0.0589155 -0.00686931
0.0478795 0.0591086 -0.00581041
0.0479043 0.0590239 -0.00593109
0.047878 0.0591914 -0.00582588
0.0479598 0.0592381 -0.00392653
0.0480539 0.0589754 -0.00488854
0.0480383 0.0590235 -0.00477488
0.0479969 0.059222 -0.00414628
0.0478595 0.0591134 -0.00625455
0.0479901 0.0590873 -0.00455802
0.0495099 0.0613844 -0.00560396
0.0479396 0.0591971 -0.00392721
0.0480558 0.0588997 -0.00513685
0.0484268 0.0576077 -0.00142342
0.0480588 0.058861 -0.00513794
0.0481194 0.0588742 -0.00513008
0.0480395 0.0588936 -0.00528796
0.0481132 0.0587501 -0.00516804
0.0479907 0.0589664 -0.00521383
0.0523198 0.062322 -0.000153042
0.0515894 0.0573588 -0.00567746
0.0524637 0.0659495 -0.000404856
0.0522084 0.0606171 -0.00585017
0.0522853 0.061478 -0.00369014
0.0524853 0.0622646 -0.000783245
0.054641 0.0609719 -0.00255834
0.0523256 0.0615046 -0.00353645
0.0555121 0.0653452 -0.000245731
0.0546391 0.0609588 -0.00267798
0.0521822 0.0662538 -0.000712275
0.0545143 0.0606583 -0.00324927
0.0547413 0.0614942 -0.00406714
0.0545315 0.0601357 -0.00799508
0.056262 0.0630687 -0.00204361
0.0543339 0.0651328 0.000164387
0.0545643 0.0603698 -0.00746674
0.0569422 0.0651971 -0.000109107
0.0520951 0.0661531 -0.000345616
0.0548701 0.0655537 -0.00208728
0.0548101 0.0653327 -0.00254852
0.0559516 0.0625777 -0.00312407
0.0554272 0.0685784 -0.00229249
0.056029 0.0625441 -0.00342641
0.0557807 0.0623191 -0.00421872
0.0549706 0.0712657 -0.00396
0.0562539 0.0620702 -0.00543723
0.0574279 0.0633404 -0.00496531
0.0569845 0.0666857 -0.00221115
0.0549643 0.0652368 -0.00352144
0.0570444 0.0622936 -0.00728796
0.0577529 0.0659926 -0.0010822
0.0570179 0.066025 -0.00425153
0.0575392 0.0635695 -0.00419329
0.0615543 0.0658944 -0.00277852
0.0577381 0.0636486 -0.00437367
0.0594915 0.0621032 -0.00695225
0.0596099 0.0646873 -0.00282847
0.0577058 0.0606324 -0.00491056
0.0595467 0.0649971 -0.00321511
0.0585825 0.0644088 -0.00435612
0.0586846 0.0643123 -0.00421478
0.0575982 0.0636798 -0.00424785
0.0582314 0.0634884 -0.00626993
0.0596589 0.06243 -0.00646102
0.0615684 0.0636897 -0.00324782
0.0592258 0.0615913 -0.00802843
0.0590755 0.061246 -0.00878627
0.0612619 0.0632093 -0.00706032
0.0608942 0.0612548 -0.00627415
0.0592203 0.0674156 -0.00328225
0.059293 0.0649818 -0.00314955
0.0641446 0.0589562 -0.00820709
0.061898 0.0654922 -0.00545429
0.0625561 0.0591596 -0.0105292
0.0613055 0.0593055 -0.0106475
0.0627556 0.0590891 -0.010361
0.0625322 0.0589706 -0.012934
0.0623207 0.0588504 -0.0125158
0.0626164 0.0590159 -0.0126389
0.0603735 0.057834 -0.0146576
0.0622974 0.0587267 -0.0134089
0.0622392 0.0587289 -0.0135538
0.0619452 0.0568002 -0.0159641
0.0625446 0.058945 -0.0128564
0.0618879 0.0585031 -0.0134825
0.0623779 0.0588126 -0.0132564
0.0622212 0.0586029 -0.0136788
0.0622609 0.0586977 -0.0149406
0.0638714 0.0601887 -0.0118379
0.0625092 0.058914 -0.0129725
0.0629566 0.0615627 -0.0116871
0.0615637 0.0586186 -0.0151144
0.0638989 0.0600119 -0.0119061
0.0636317 0.0601575 -0.0125457
0.0637359 0.0601897 -0.0124202
0.0648367 0.0593213 -0.0131524
0.0642015 0.0587433 -0.0146708
0.0637188 0.060236 -0.0125486
0.0635678 0.0600737 -0.0127306
0.0640733 0.0584482 -0.0151952
0.0665082 0.05731 -0.014497
0.0674868 0.057101 -0.0123484
0.0665168 0.0573277 -0.0143359
0.0693096 0.0562222 -0.0139421
0.0666247 0.0591748 -0.0152646
0.0678488 0.0596169 -0.0130148
0.0662944 0.0588385 -0.0159352
0.0660539 0.052707 -0.0206813
0.0669094 0.0529686 -0.0201196
0.0666543 0.053907 -0.0208486
0.0667053 0.0532345 -0.0203722
0.0665375 0.0524468 -0.0196872
0.0675966 0.0533357 -0.0207465
0.0653618 0.0531795 -0.0231231
0.0649402 0.0529209 -0.0233507
0.065047 0.0514634 -0.02475
0.0652966 0.0526902 -0.0252859
0.0652976 0.0527475 -0.0253777
0.0651625 0.0523082 -0.0251141
0.0651619 0.0522457 -0.025152
0.0652814 0.0526691 -0.025122
0.0652759 0.0525946 -0.0253015
0.0651506 0.0526803 -0.0252405
0.0663516 0.0506149 -0.0281204
0.0653479 0.0525828 -0.0252255
0.0653963 0.0528052 -0.0252068
0.0649005 0.050839 -0.0278736
0.0653234 0.0529926 -0.0254695
0.0653984 0.0528765 -0.0252657
0.0661698 0.0517923 -0.0268731
0.0666656 0.0508095 -0.0276352
0.0686598 0.0526051 -0.0275616
0.066876 0.0505673 -0.0276671
0.0670957 0.0500895 -0.0282328
0.0673118 0.0498633 -0.0300669
0.0665234 0.0489111 -0.0305947
0.0671322 0.0503706 -0.0291009
0.0670688 0.0522842 -0.0280407
0.0672635 0.0495555 -0.0303353
0.0663246 0.0507274 -0.0294757
0.0669913 0.0499221 -0.0300504
0.0654066 0.049633 -0.0319614
0.0667298 0.0496678 -0.0305746
0.0660524 0.0480779 -0.0323727
0.0659171 0.0479309 -0.0332753
0.0665197 0.0473748 -0.0326275
0.0659546 0.0472785 -0.0346044
0.0643283 0.0441876 -0.0375755
0.0620139 0.0436003 -0.0391288
0.0623622 0.0440109 -0.0397657
0.0631818 0.043141 -0.0395276
0.0632358 0.042497 -0.03924
0.0628784 0.0433982 -0.0400141
0.0631533 0.0426687 -0.0393238
0.0634217 0.0427206 -0.0394128
0.0629384 0.0432061 -0.03997
0.0623664 0.0433747 -0.0399571
0.0630792 0.0427249 -0.040052
0.062932 0.0429248 -0.040021
0.0628687 0.0430919 -0.0401753
0.0630852 0.0434006 -0.0403544
0.0626653 0.0427528 -0.0408096
0.0632734 0.0428708 -0.0403822
0.0633859 0.0425555 -0.0408924
0.0626772 0.0431045 -0.0405325
0.0627735 0.0432513 -0.040318
0.0630925 0.0438865 -0.0408234
0.0638818 0.0426394 -0.0409314
0.0634702 0.0423017 -0.0406967
0.063317 0.0425635 -0.0416488
0.0636122 0.0423907 -0.0414098
0.0639021 0.0426387 -0.0423909
0.0640747 0.0426083 -0.0421837
0.0637782 0.0422407 -0.0420741
0.0637952 0.0421226 -0.0421433
0.0628852 0.0424991 -0.0415872
0.0629751 0.04219 -0.0414425
0.0636244 0.0426683 -0.0420472
0.0636745 0.042115 -0.0421652
0.063547 0.0416397 -0.0420606
0.0638952 0.0426625 -0.042681
0.0637837 0.041462 -0.0427857
0.0637936 0.0413632 -0.0428688
0.063516 0.0417955 -0.0432295
0.0633937 0.0415613 -0.0422794
0.0636351 0.0416407 -0.0432955
0.0637548 0.0418763 -0.0434985
0.0636882 0.0417702 -0.0427544
0.0634648 0.041255 -0.0435364
0.0639582 0.0415669 -0.0437901
0.063533 0.0416635 -0.0430969
0.0635398 0.0407436 -0.0438761
0.0633211 0.0419102 -0.0433117
0.0633271 0.0408944 -0.0437655
0.0635458 0.0407788 -0.0439578
0.0635747 0.0408857 -0.0445832
0.0631316 0.0403635 -0.0442789
0.0633744 0.040025 -0.0440197
0.0637309 0.040603 -0.0448543
0.0635572 0.0402957 -0.0449604
0.0630839 0.0411052 -0.0446713
0.0633284 0.0403143 -0.0447914
0.0632723 0.0404394 -0.0452666
0.063765 0.0404606 -0.0452229
0.0634481 0.0402268 -0.0448546
0.0637475 0.0397775 -0.0458382
0.0637564 0.0395581 -0.0460516
0.0634414 0.0395187 -0.0455747
0.0628332 0.040189 -0.0452683
0.0632069 0.0397163 -0.045717
0.0634185 0.0399722 -0.0463329
0.0632192 0.0397804 -0.0462521
0.0631029 0.0393021 -0.0462668
0.0630009 0.0397706 -0.0461118
0.0631541 0.0394812 -0.0465546
0.062895 0.0396867 -0.0464619
0.0631684 0.0391188 -0.0465625
0.0625687 0.0393968 -0.0462092
0.0629936 0.0387699 -0.0465882
0.0628844 0.0386602 -0.0466888
0.0631388 0.0387691 -0.0472605
0.0631124 0.0387486 -0.0473991
0.0629178 0.0385166 -0.0471296
0.0627567 0.0387581 -0.0478995
0.0626977 0.0388201 -0.047722
0.0629159 0.0379684 -0.0475843
0.0624542 0.0383333 -0.047875
0.0626535 0.0382813 -0.0481093
0.0625186 0.0381158 -0.047854
0.0623988 0.0376723 -0.0475282
0.0626851 0.0376868 -0.0484729
0.0625222 0.0379015 -0.0485322
0.0623912 0.038241 -0.0479611
0.0625484 0.0375991 -0.0486825
0.0624109 0.0376146 -0.0488333
0.062333 0.0375732 -0.0488836
0.0622159 0.0376593 -0.0486839
0.0413665 0.0386916 -0.0364849
0.0409997 0.0385575 -0.0366903
0.0413191 0.0388239 -0.0363335
0.0413941 0.0390748 -0.0362885
0.0410736 0.0389789 -0.0364991
0.0412805 0.0388621 -0.0363405
0.0413709 0.0386243 -0.0362275
0.0412474 0.0391776 -0.0363607
0.0413037 0.0388635 -0.035487
0.0413687 0.0390081 -0.0355124
0.041246 0.0388056 -0.0358693
0.0410753 0.0388287 -0.0354701
0.0410958 0.0395032 -0.0350205
0.0410055 0.0400731 -0.0341893
0.0408906 0.0402238 -0.0338566
0.0407517 0.0403374 -0.0336254
0.0406416 0.0404879 -0.0333861
0.0407909 0.0403478 -0.0329704
0.0408846 0.0404683 -0.0327402
0.0409261 0.0414729 -0.0325364
0.0408702 0.0413136 -0.0317937
0.0408775 0.0411103 -0.031348
0.040366 0.0414303 -0.0313431
0.040692 0.0416394 -0.0309156
0.0403475 0.0414347 -0.0303973
0.0407315 0.0423884 -0.0302646
0.0403141 0.0428225 -0.0300775
0.0402588 0.0426414 -0.0296247
0.0402672 0.0430745 -0.029312
0.0400109 0.0432601 -0.02924
0.0403522 0.0435876 -0.0278823
0.0402666 0.0439366 -0.0277148
0.040026 0.0443245 -0.0273113
0.0404317 0.0430443 -0.027982
0.0399753 0.0438575 -0.0269144
0.0395267 0.0446555 -0.0261338
0.0396356 0.0444939 -0.0264211
0.03973 0.0442676 -0.0263161
0.040023 0.0455355 -0.0238928
0.0396797 0.0448918 -0.0251096
0.0394209 0.0442808 -0.0253395
0.0395687 0.0442002 -0.0255706
0.0396376 0.0454502 -0.0242092
0.0401542 0.0441521 -0.0260479
0.0394498 0.0460989 -0.024356
0.0399362 0.0449295 -0.0241819
0.039591 0.0460901 -0.0240683
0.0398769 0.0451168 -0.0250798
0.039681 0.045263 -0.0241519
0.0412175 0.0460973 -0.0229659
0.0395866 0.0455339 -0.0241221
0.0393736 0.0455413 -0.0242174
0.0408813 0.046276 -0.0229207
0.0401564 0.0459328 -0.022387
0.0402808 0.0463693 -0.0223497
0.040898 0.0459242 -0.0227468
0.0423768 0.0469205 -0.0233919
0.0400716 0.0459426 -0.0225627
0.0401972 0.0462012 -0.0215748
0.0407036 0.0487042 -0.0180931
0.0397337 0.0502498 -0.0162648
0.0407796 0.0503833 -0.0166184
0.0393067 0.0498676 -0.0152484
0.0389294 0.0521297 -0.0129021
0.039311 0.0508367 -0.0121575
0.0396607 0.0508065 -0.0121345
0.0404494 0.0544951 -0.010998
0.0404123 0.0510649 -0.0128396
0.0386746 0.0540248 -0.00685326
0.0400751 0.0536006 -0.00979936
0.0414393 0.0512329 -0.0141652
0.0401785 0.0535287 -0.00996039
0.0394851 0.049927 -0.011769
0.0398666 0.0510623 -0.0122434
0.0416894 0.054632 -0.0120731
0.0385023 0.0524524 -0.00715933
0.0426207 0.0536948 -0.00960277
0.0414039 0.0549235 -0.0109716
0.0422965 0.0538747 -0.00846253
0.0426955 0.0538632 -0.00954662
0.0428508 0.0534845 -0.0105633
0.0427518 0.0535204 -0.0102218
0.0427367 0.0536862 -0.010003
0.0426099 0.0536803 -0.00948154
0.0425314 0.0567596 -0.00285083
0.0437602 0.0536327 -0.00712613
0.0432979 0.0533497 -0.00831219
0.0450369 0.0546547 -0.00813357
0.0445166 0.0571315 -0.00706404
0.0446703 0.0567746 -0.00826624
0.0446455 0.0568763 -0.00786672
0.0441985 0.0579083 -0.00464406
0.0445462 0.0570603 -0.00732083
0.0443653 0.0575993 -0.00574742
0.0451473 0.0588361 0.000749055
0.0445326 0.0570415 -0.00735164
0.043854 0.0609085 -0.000953022
0.0478558 0.0590558 -0.00562317
0.0479216 0.0592765 -0.00365585
0.0479152 0.0592975 -0.00357346
0.0478716 0.0591042 -0.00611528
0.0478758 0.059293 -0.00530791
0.0479355 0.0590061 -0.00588947
0.0479178 0.0590629 -0.00444301
0.0478758 0.0582712 -0.00259431
0.0479671 0.0590944 -0.00457129
0.0479394 0.0592407 -0.00376205
0.0481928 0.0576657 -0.00927065
0.049428 0.0583674 -0.00799217
0.0478658 0.0592737 -0.00542915
0.0480251 0.058976 -0.0046708
0.0478723 0.0590115 -0.00623091
0.0480631 0.0588238 -0.00522713
0.0494051 0.0590273 -0.00639583
0.0480405 0.058893 -0.00507076
0.047877 0.0591247 -0.00633417
0.0480084 0.058867 -0.0052105
0.0480599 0.0588012 -0.00505627
0.0516234 0.0574433 -0.00551807
0.0480752 0.0588682 -0.00512839
0.0480196 0.0589209 -0.0051802
0.0494621 0.0619446 -0.004108
0.0523847 0.0619395 -0.00217461
0.0494503 0.0581245 -0.00865632
0.0523688 0.0609901 0.00246299
0.0494154 0.0583591 -0.00809652
0.0522267 0.0609338 -0.0049758
0.0522108 0.0604788 -0.00622499
0.0545837 0.0654936 -0.000196451
0.0542879 0.063632 0.000226436
0.054567 0.0646445 -0.00364777
0.0547428 0.0649949 -0.0031615
0.055147 0.0656567 -0.000787343
0.0547118 0.0611674 -0.00187011
0.0529907 0.0657408 -0.00026113
0.0543269 0.063998 -0.00480479
0.0540004 0.0654899 -0.000121732
0.05474 0.0663551 -4.51543e-05
0.0543477 0.0639028 -0.00488799
0.0551776 0.0653561 -0.000341658
0.0546092 0.0646301 -0.00397224
0.0561016 0.0625668 -0.00343686
0.0571391 0.0624972 -0.00680427
0.0558971 0.0623537 -0.00402173
0.0587689 0.0647668 -0.00385873
0.0562683 0.0621681 -0.00523394
0.057808 0.0640875 -0.00326704
0.0577338 0.0637032 -0.0040273
0.0569838 0.0664648 -0.00247286
0.0585466 0.0646402 -0.00375519
0.0575024 0.0635017 -0.00465442
0.0575533 0.0633968 -0.00470129
0.0575767 0.0636233 -0.00430039
0.0573559 0.0631579 -0.00540226
0.0571036 0.0623603 -0.00709935
0.058727 0.064409 -0.00414363
0.0574432 0.0633969 -0.00484252
0.0589748 0.064817 -0.00388891
0.0584518 0.0669213 -0.00184718
0.0595313 0.0647025 -0.00285144
0.0600556 0.0632592 -0.00431388
0.0590139 0.0672768 -0.00320782
0.0591326 0.0649056 -0.00375621
0.0595313 0.0622559 -0.00665367
0.0625054 0.0651564 -0.00335083
0.0596888 0.0649422 -0.00316537
0.0615111 0.0652601 -0.00589949
0.0623591 0.0609508 -0.00764907
0.0629171 0.0635649 -0.00366659
0.0628216 0.0624594 -0.00824229
0.062807 0.0593799 -0.0110753
0.0622781 0.0621833 -0.00810715
0.0629145 0.0592985 -0.0118178
0.0627359 0.0592148 -0.0121918
0.0621781 0.0586155 -0.0135815
0.0625506 0.0589882 -0.012786
0.0622111 0.0586766 -0.0134668
0.062465 0.05862 -0.0133396
0.0613566 0.0585046 -0.0129009
0.0621149 0.0584298 -0.0139809
0.062279 0.0587857 -0.013261
0.062241 0.058699 -0.0134295
0.0621106 0.0585535 -0.013773
0.0624226 0.0588677 -0.0133641
0.0624178 0.0585407 -0.0135633
0.0621805 0.0585855 -0.0136605
0.0626105 0.0590385 -0.0126292
0.0626719 0.0590829 -0.012467
0.0637455 0.0601982 -0.0122259
0.062861 0.0566471 -0.0160593
0.0628961 0.0615596 -0.0118126
0.0636727 0.0602723 -0.0126349
0.0635583 0.0600202 -0.0128679
0.0632662 0.0611051 -0.0123921
0.0628138 0.0613416 -0.0123048
0.0636847 0.0575438 -0.013752
0.0637028 0.0600366 -0.0126031
0.0633081 0.0599306 -0.0139433
0.0634862 0.0601978 -0.0133532
0.0637011 0.0601978 -0.0125864
0.0647782 0.0591516 -0.0135643
0.0650383 0.0593207 -0.0132093
0.0661357 0.0588021 -0.0163261
0.0674159 0.0600718 -0.0111034
0.0649619 0.0599935 -0.010705
0.0663968 0.0589452 -0.0157292
