ply
format ascii 1.0
comment Created by Open3D
element vertex 1151
property double x
property double y
property double z
property uchar red
property uchar green
property uchar blue
end_header
0.0787434 0.0292993 -0.10596 255 255 255
0.0782794 0.0298325 -0.10622 252 255 255
0.0786999 0.0315 -0.106031 255 242 209
0.0779918 0.0359094 -0.103712 251 250 237
0.0775136 0.0282185 -0.10717 252 226 202
0.0776041 0.0287281 -0.106805 251 255 255
0.0790516 0.034647 -0.104785 255 254 255
0.0788177 0.0325865 -0.105507 252 255 255
0.0767292 0.0267222 -0.107102 251 234 215
0.0787434 0.0303425 -0.105689 255 255 255
0.0791066 0.031056 -0.105496 244 250 255
0.0783145 0.0304681 -0.105933 255 255 255
0.0783851 0.0326365 -0.105794 255 255 242
0.0781377 0.0277151 -0.10588 255 255 255
0.0784781 0.0326365 -0.105653 255 255 255
0.0785891 0.0316285 -0.1058 255 235 208
0.0791164 0.0352073 -0.104826 255 255 255
0.0794414 0.0313612 -0.105432 250 244 207
0.0787472 0.0330024 -0.105294 255 255 255
0.07867 0.0342431 -0.105244 255 255 235
0.0787971 0.0342491 -0.105173 255 254 255
0.0764153 0.0267086 -0.107012 253 234 210
0.0792111 0.0345418 -0.105305 253 249 251
0.0783656 0.0357475 -0.104084 255 255 255
0.0790803 0.0254794 -0.106144 253 255 255
0.078493 0.0293853 -0.106401 252 255 255
0.0785321 0.0319358 -0.105753 255 255 255
0.0774528 0.0328101 -0.104638 255 255 255
0.0796687 0.0320046 -0.104952 255 255 255
0.0797354 0.0328767 -0.101791 255 255 255
0.0767727 0.0266014 -0.107998 255 217 197
0.0786231 0.0280092 -0.105305 255 255 255
0.0797691 0.0241237 -0.103143 255 224 202
0.0777572 0.0289484 -0.106898 255 255 255
0.0787514 0.0326785 -0.105628 255 255 255
0.0779388 0.0294125 -0.106661 254 237 205
0.0790306 0.0339531 -0.10527 250 255 255
0.0776053 0.0283973 -0.107276 254 170 156
0.0778432 0.0285256 -0.104849 255 255 255
0.07848 0.0286956 -0.10649 255 207 185
0.0794845 0.0262825 -0.10301 255 255 255
0.0775118 0.0358598 -0.103055 255 254 229
0.0780978 0.0356624 -0.103839 251 248 245
0.0778332 0.0277893 -0.106874 255 181 159
0.0783398 0.0354351 -0.104268 255 255 255
0.0767883 0.0269679 -0.107644 255 193 176
0.0777901 0.0279662 -0.107229 255 163 142
0.07797 0.0294245 -0.106761 255 225 190
0.0788446 0.0327955 -0.105203 252 255 255
0.0780481 0.0296413 -0.107101 255 193 177
0.0780344 0.0271473 -0.107074 255 193 170
0.0779232 0.0295051 -0.106786 249 227 209
0.0776621 0.0299854 -0.105316 255 255 255
0.0784091 0.0297595 -0.106523 255 255 255
0.0784499 0.0357926 -0.103691 255 255 255
0.0776069 0.0281105 -0.107048 251 203 184
0.0778239 0.0278551 -0.107313 255 225 204
0.0779886 0.0298049 -0.106719 255 233 205
0.0796697 0.0307191 -0.102351 227 255 255
0.0787494 0.0348869 -0.105082 255 255 250
0.0775088 0.0276961 -0.107461 255 192 174
0.0778498 0.0287131 -0.10724 252 180 164
0.0779303 0.0287415 -0.106891 255 220 178
0.0778625 0.0333625 -0.103494 255 255 255
0.0764311 0.0263397 -0.1077 255 190 177
0.0780986 0.0285793 -0.107924 255 242 218
0.077934 0.0286548 -0.106785 255 255 239
0.0790483 0.0320703 -0.105737 254 255 238
0.0791674 0.0332275 -0.104825 255 255 255
0.0776052 0.0272781 -0.107515 255 163 148
0.0775103 0.0279378 -0.108154 255 163 144
0.0787522 0.0330309 -0.105371 254 255 255
0.078071 0.0355007 -0.102929 253 251 239
0.0782042 0.0327106 -0.103316 255 255 255
0.0790152 0.0347246 -0.104913 255 251 225
0.0775727 0.028977 -0.10807 254 166 151
0.077664 0.0253871 -0.107323 255 175 154
0.0782304 0.0284869 -0.107273 255 209 175
0.0774115 0.0301661 -0.106222 255 255 255
0.0771927 0.0270755 -0.108314 255 141 128
0.0775667 0.0280189 -0.10748 255 150 131
0.0779569 0.0291419 -0.106906 249 181 154
0.0784702 0.0303787 -0.106356 255 209 182
0.0788944 0.0346689 -0.105282 255 255 255
0.077605 0.0284788 -0.10743 255 123 107
0.0767581 0.027155 -0.107989 255 139 125
0.0789765 0.0303282 -0.105175 255 255 252
0.0776281 0.0285117 -0.107269 255 189 171
0.0784027 0.0294118 -0.107012 255 241 212
0.0795879 0.0315553 -0.105638 250 255 255
0.079595 0.034034 -0.105271 255 240 216
0.0792203 0.0343417 -0.100597 255 215 180
0.0783281 0.0304274 -0.106766 253 166 127
0.0781201 0.0356829 -0.104563 255 255 252
0.0773029 0.0269764 -0.107959 232 97 89
0.0780258 0.0292288 -0.106877 255 198 165
0.0796346 0.0274324 -0.104544 255 182 110
0.0792679 0.0340876 -0.105309 255 255 234
0.0805443 0.0349896 -0.103846 248 255 255
0.0792729 0.0338124 -0.105783 255 255 255
0.0784335 0.0274407 -0.10732 235 67 49
0.0785502 0.0284679 -0.107465 191 63 52
0.078095 0.0303234 -0.10652 253 183 157
0.0798814 0.0239704 -0.104084 255 255 255
0.0794983 0.0289596 -0.106284 255 242 163
0.077855 0.0294624 -0.106881 255 215 190
0.079104 0.0239866 -0.102745 255 153 146
0.0783376 0.0276948 -0.10816 209 106 86
0.0786232 0.031044 -0.106838 255 174 137
0.0781827 0.035663 -0.103009 255 255 255
0.0799603 0.0334133 -0.10589 255 255 255
0.0803067 0.0259303 -0.105478 255 47 0
0.0786461 0.0310571 -0.105746 255 255 252
0.0790578 0.0333077 -0.1052 250 247 228
0.0773702 0.0338475 -0.103697 255 255 255
0.0807583 0.0253437 -0.101473 233 255 255
0.0781657 0.0362319 -0.104086 255 255 242
0.077926 0.0359591 -0.1022 252 254 228
0.0794004 0.0275528 -0.107027 255 60 39
0.0785013 0.0302892 -0.106476 254 110 65
0.0784462 0.0301082 -0.10694 255 220 163
0.0783204 0.0353635 -0.104178 255 255 235
0.0788575 0.0316551 -0.106045 255 207 162
0.0794201 0.0340096 -0.100182 253 255 255
0.0770913 0.0322662 -0.105443 255 255 255
0.0797003 0.0335889 -0.101615 255 255 255
0.0794761 0.0327858 -0.105285 255 203 168
0.0786215 0.0353506 -0.104336 254 254 232
0.0772636 0.0357485 -0.102228 255 247 223
0.0791814 0.024094 -0.10711 207 89 82
0.077227 0.0220266 -0.105739 214 63 66
0.0774122 0.0361659 -0.101669 255 252 243
0.0798439 0.0358556 -0.10549 255 255 250
0.080579 0.0219929 -0.10313 255 255 255
0.0777979 0.0355809 -0.102784 252 249 241
0.0784406 0.0358998 -0.101376 238 246 250
0.0774126 0.035785 -0.102872 255 255 243
0.078494 0.0360167 -0.10102 249 255 250
0.0778492 0.0355986 -0.103295 252 255 238
0.0779579 0.0354999 -0.103594 250 245 227
0.0784636 0.035705 -0.103735 255 255 244
0.0783924 0.0356071 -0.10357 252 254 241
0.0783914 0.0358326 -0.102351 241 247 247
0.076621 0.021193 -0.103478 220 111 103
0.0807087 0.0238291 -0.0989747 255 34 82
0.0778242 0.0357323 -0.103239 251 255 255
0.0784515 0.035315 -0.103847 252 255 255
0.0770998 0.0365137 -0.102643 255 255 238
0.0793859 0.0196643 -0.101526 188 116 110
0.0766915 0.019821 -0.102679 235 118 112
0.0773874 0.0358775 -0.10248 244 147 126
0.0775802 0.0355814 -0.103352 255 247 222
0.0782387 0.0357872 -0.102947 255 227 181
0.0793812 0.0198982 -0.101835 235 163 158
0.0770418 0.0364672 -0.102479 255 237 215
0.0776802 0.0355763 -0.103399 255 247 220
0.0827393 0.0256979 -0.0979621 255 255 255
0.0763062 0.02019 -0.102915 222 104 99
0.0796155 0.0209967 -0.0983064 255 213 210
0.0777534 0.0359553 -0.102237 252 249 241
0.07736 0.0197453 -0.102337 255 244 228
0.0775126 0.0355935 -0.102918 255 224 201
0.0778999 0.0362311 -0.102833 255 254 238
0.0778659 0.0360685 -0.10368 255 222 181
0.0779314 0.0357944 -0.101672 255 192 163
0.0765424 0.0191399 -0.101948 230 123 113
0.0741893 0.0175267 -0.0993401 220 107 96
0.0755253 0.0192775 -0.101575 245 135 122
0.080905 0.0307728 -0.0903121 169 103 89
0.0790326 0.0178536 -0.102449 240 145 136
0.0743822 0.0173696 -0.097415 227 105 96
0.0752187 0.0179356 -0.10029 194 113 104
0.0756471 0.0177035 -0.101039 222 113 103
0.0744752 0.0169679 -0.1002 197 100 94
0.0808159 0.0283068 -0.0906029 225 187 161
0.0745792 0.0172475 -0.099725 204 109 100
0.0747896 0.0174846 -0.101565 169 84 78
0.0755986 0.0168268 -0.0981614 255 167 152
0.0756021 0.0179121 -0.100491 195 101 94
0.073543 0.0184303 -0.0988923 217 83 74
0.0737444 0.0179147 -0.0971066 236 109 99
0.0751457 0.0185935 -0.0963312 255 145 133
0.0744993 0.0177181 -0.0995504 222 134 123
0.0744331 0.0162415 -0.100427 162 66 58
0.0744607 0.0168071 -0.0991625 211 93 86
0.0749069 0.0167104 -0.0971552 255 151 142
0.0750839 0.0152128 -0.0976858 255 175 165
0.0733577 0.0152048 -0.097264 238 121 113
0.0760548 0.0167734 -0.0962435 131 15 13
0.074878 0.0121927 -0.0952821 255 255 255
0.0731536 0.0149388 -0.0956258 218 89 78
0.0726339 0.0145475 -0.0985719 152 59 50
0.0745455 0.0123501 -0.0948255 255 132 124
0.0776823 0.0149243 -0.0983873 125 6 0
0.0724745 0.0155905 -0.0970823 215 110 103
0.0734452 0.0159296 -0.0982502 181 84 79
0.0746016 0.0143646 -0.0976538 216 121 119
0.071867 0.014425 -0.0963564 245 88 92
0.0755681 0.00835058 -0.0859034 93 0 0
0.0691354 0.0139199 -0.0950173 133 73 65
0.0778672 0.0363161 -0.0894061 157 70 66
0.0772673 0.0293213 -0.0786528 255 255 255
0.0748525 0.0311391 -0.0858341 220 220 204
0.0807611 0.0149202 -0.0629684 85 0 0
0.0736904 0.0265138 -0.0752284 178 99 86
0.0749383 0.0286684 -0.0721418 255 179 49
0.073694 0.0294045 -0.0789394 98 9 0
0.0728792 0.031251 -0.078872 197 122 114
0.0682282 0.0341605 -0.079412 145 99 84
0.0677517 0.0349827 -0.078171 143 89 74
0.0776451 0.0293034 -0.106988 251 255 253
0.0783655 0.0297974 -0.106386 255 249 232
0.0777812 0.0290854 -0.10679 255 255 255
0.0776634 0.0289752 -0.106783 255 254 239
0.0785938 0.0319232 -0.105927 255 223 206
0.0775169 0.0278468 -0.107545 252 170 157
0.0763703 0.0332897 -0.105547 255 255 255
0.0796326 0.0349007 -0.104858 255 255 255
0.0785654 0.0355342 -0.104417 255 255 255
0.0775664 0.028548 -0.107256 254 190 167
0.078355 0.0304718 -0.106843 252 216 186
0.0780715 0.0301355 -0.106644 252 224 196
0.075745 0.0264134 -0.106771 251 255 255
0.0777228 0.029603 -0.106593 255 254 237
0.0777515 0.0290448 -0.106823 252 244 222
0.0775651 0.0286968 -0.107145 254 253 245
0.0778342 0.0286942 -0.107312 255 255 255
0.0778628 0.0289538 -0.106779 254 255 236
0.0775039 0.0281043 -0.1072 253 224 207
0.0773838 0.0347124 -0.10312 255 255 255
0.0767078 0.035105 -0.105998 255 255 255
0.0775442 0.0286919 -0.107247 251 219 202
0.0789691 0.0322496 -0.105289 255 255 255
0.0784534 0.0293142 -0.10697 255 255 253
0.0787439 0.0354252 -0.104323 249 255 249
0.0781275 0.029632 -0.106453 253 255 255
0.0784934 0.0313036 -0.105824 250 255 255
0.0788051 0.0268876 -0.10633 247 255 255
0.0785552 0.0305635 -0.105983 255 253 255
0.0797168 0.0327335 -0.106466 255 255 251
0.0790129 0.0338048 -0.105509 250 255 255
0.0784653 0.0355839 -0.104093 251 246 238
0.0784357 0.0306436 -0.105906 251 255 255
0.0785089 0.0290752 -0.106071 243 255 255
0.0795892 0.0317034 -0.10587 255 255 255
0.0779933 0.0288671 -0.106821 255 254 228
0.0767823 0.026155 -0.107276 254 225 209
0.077639 0.028427 -0.107056 253 255 246
0.0787524 0.0305892 -0.106079 255 253 243
0.0789523 0.0343678 -0.105529 254 255 255
0.0787436 0.0346051 -0.105126 252 252 226
0.0776379 0.0284622 -0.106982 254 251 234
0.0791102 0.0297751 -0.105452 255 255 255
0.078591 0.0311513 -0.106101 255 255 255
0.0790803 0.0312208 -0.106806 255 255 255
0.0769501 0.0261827 -0.106868 250 249 232
0.0777429 0.0282781 -0.106945 252 254 232
0.0781336 0.0288752 -0.106629 252 255 255
0.0794742 0.0267396 -0.104173 255 255 255
0.0781125 0.0313735 -0.106143 255 254 255
0.0786221 0.0316637 -0.105707 255 255 255
0.0788193 0.035693 -0.104318 255 255 250
0.0776869 0.0282648 -0.106838 255 233 223
0.0776426 0.0282133 -0.107232 255 252 211
0.076876 0.0244513 -0.10669 255 255 255
0.0792916 0.0333235 -0.104805 255 247 224
0.0784102 0.0308595 -0.105807 253 255 255
0.077924 0.0287192 -0.10653 255 255 255
0.0766841 0.0266996 -0.107249 254 224 205
0.0796417 0.0309333 -0.105262 251 255 255
0.0781718 0.028414 -0.107129 253 213 190
0.0779625 0.0282493 -0.106938 255 225 204
0.0775507 0.0277696 -0.107187 255 255 255
0.078313 0.0287779 -0.106583 255 255 255
0.078031 0.0296213 -0.106621 254 255 255
0.07678 0.0264923 -0.107245 255 229 210
0.0788456 0.0339141 -0.10519 249 255 255
0.077546 0.0274566 -0.107365 255 229 208
0.0780325 0.0277771 -0.107464 255 244 219
0.0779358 0.0294752 -0.106823 254 255 244
0.0787516 0.0323261 -0.102957 255 255 255
0.0784714 0.0320085 -0.105805 253 255 244
0.0766662 0.0263556 -0.107966 255 213 198
0.0793602 0.0276 -0.104543 255 255 255
0.0780851 0.0298047 -0.106868 255 207 180
0.07651 0.0267837 -0.107333 253 192 174
0.0788763 0.030579 -0.106526 255 255 248
0.0779777 0.0277454 -0.106816 255 193 175
0.0788141 0.0316136 -0.105756 255 233 212
0.0768794 0.0269909 -0.107683 255 178 161
0.0785227 0.0296981 -0.106474 255 227 198
0.0781524 0.0296696 -0.106509 255 251 219
0.0794761 0.0317839 -0.106274 255 255 233
0.0781917 0.027969 -0.107051 255 203 161
0.0780906 0.0296781 -0.106679 255 249 216
0.0779399 0.029733 -0.106865 255 222 202
0.0786158 0.0211743 -0.102688 255 255 255
0.0780644 0.0333908 -0.102152 255 255 255
0.0785569 0.0326809 -0.105656 255 255 241
0.0791635 0.0329264 -0.102921 250 255 255
0.0783989 0.0353353 -0.104143 252 255 242
0.0777342 0.0291059 -0.10682 255 196 174
0.0789145 0.032967 -0.105171 253 255 255
0.0783159 0.0278965 -0.103887 255 255 248
0.0780738 0.0299246 -0.106599 255 246 212
0.0760972 0.0254522 -0.107831 255 144 131
0.0771527 0.0260082 -0.107228 255 160 143
0.078429 0.0329243 -0.105649 255 255 243
0.079125 0.0313311 -0.105178 255 245 225
0.0793321 0.033187 -0.105775 250 255 255
0.0782736 0.0299125 -0.106808 255 151 125
0.0772473 0.0272995 -0.107885 255 154 140
0.0781649 0.0273011 -0.106731 237 255 255
0.0791548 0.0315848 -0.105516 255 255 255
0.0787382 0.03139 -0.106028 255 252 229
0.0779627 0.0296557 -0.106612 248 186 161
0.077602 0.0259087 -0.104782 255 166 151
0.0788389 0.0305017 -0.106005 255 243 213
0.0789113 0.0315601 -0.105946 255 255 237
0.0787135 0.0301532 -0.106252 255 255 255
0.0790884 0.033391 -0.105337 255 249 230
0.0780614 0.0277624 -0.107506 234 94 81
0.0781363 0.0282217 -0.107065 255 186 160
0.0786744 0.0317759 -0.105941 255 245 223
0.077066 0.0265684 -0.108011 245 96 92
0.0784352 0.0304466 -0.106144 255 238 182
0.0787801 0.0313732 -0.10582 255 255 221
0.0795379 0.0342402 -0.104559 255 255 255
0.0791731 0.0354324 -0.101645 253 255 240
0.077593 0.0274648 -0.107494 255 60 48
0.077939 0.0292502 -0.107089 254 236 196
0.079002 0.0325898 -0.105666 252 219 195
0.0780312 0.0299165 -0.10684 255 168 145
0.0780036 0.0295513 -0.106841 245 173 127
0.0781003 0.0294547 -0.107167 255 216 182
0.0791045 0.0327661 -0.105862 254 251 231
0.0778322 0.0359635 -0.102107 248 255 255
0.0774725 0.02572 -0.108032 255 134 124
0.077222 0.0219299 -0.104097 243 138 138
0.0788477 0.0327103 -0.105752 251 245 233
0.0791855 0.0298297 -0.107285 198 115 91
0.0790112 0.0368295 -0.102865 255 255 255
0.0797366 0.0335624 -0.106213 255 255 237
0.0776864 0.0359451 -0.10065 225 238 255
0.0798428 0.0344584 -0.105362 255 255 230
0.0785548 0.0311134 -0.106239 255 194 170
0.0790657 0.0309162 -0.106682 255 195 173
0.0767286 0.0225022 -0.104686 215 104 98
0.0788532 0.0320604 -0.106281 255 167 144
0.0769656 0.0224256 -0.104738 196 87 79
0.078351 0.0356441 -0.103695 250 236 220
0.0786231 0.0352907 -0.103957 255 255 255
0.0774196 0.0360124 -0.102028 250 255 251
0.0774051 0.0359319 -0.102815 255 255 249
0.0781544 0.0364563 -0.102735 249 249 237
0.0763169 0.0215515 -0.103797 235 99 97
0.0758036 0.0194899 -0.101767 203 93 82
0.0804494 0.0298601 -0.0991553 255 226 235
0.0820143 0.0262027 -0.102017 255 135 0
0.07973 0.0356539 -0.104392 255 249 222
0.0793296 0.0344517 -0.10541 250 248 235
0.0793554 0.033303 -0.105906 255 255 235
0.0828652 0.0286686 -0.0975486 165 0 0
0.0759167 0.0197102 -0.103227 180 66 54
0.0767414 0.0198231 -0.102345 255 170 166
0.0768181 0.0358853 -0.102184 255 215 193
0.075955 0.0202864 -0.103423 172 71 59
0.0753273 0.0182542 -0.10376 165 63 53
0.0791176 0.01895 -0.101546 230 124 122
0.0752453 0.0181436 -0.101623 255 129 115
0.075155 0.018995 -0.101537 238 128 122
0.0746659 0.0169076 -0.099086 247 147 136
0.0759268 0.0182582 -0.0983401 142 37 22
0.0784864 0.0163278 -0.0993924 255 171 166
0.0738048 0.0169346 -0.100592 191 94 89
0.079651 0.0355411 -0.0995991 255 68 43
0.0747662 0.0183823 -0.10102 197 107 98
0.0746838 0.0187636 -0.101403 238 139 124
0.0746877 0.0178149 -0.100459 194 111 106
0.0739593 0.0174623 -0.0997471 187 98 92
0.0737725 0.016509 -0.0998319 154 57 51
0.0747448 0.0181402 -0.0988753 255 161 151
0.0742705 0.0176142 -0.0993583 241 132 120
0.0752365 0.0178371 -0.100039 217 113 106
0.0742313 0.0166487 -0.099548 168 71 60
0.073401 0.016735 -0.0984375 211 94 83
0.0743339 0.0167821 -0.099135 206 98 93
0.0737954 0.0152674 -0.0975947 124 22 13
0.080653 0.0167964 -0.0796799 211 103 109
0.0707351 0.0143121 -0.0969052 150 75 72
0.0811364 0.0355152 -0.0896156 194 95 91
0.0801586 0.026649 -0.0732 0 128 0
0.0709487 0.0142705 -0.0958342 169 99 85
0.07462 0.0323495 -0.087156 141 255 241
0.0749349 0.0132813 -0.06157 104 50 50
0.0738725 0.0144888 -0.0592435 124 104 100
0.0756585 0.0240621 -0.0785858 240 145 146
0.0722534 0.0311849 -0.0750471 249 167 153
0.0660454 0.0124583 -0.0808937 183 74 71
0.0672432 0.00833038 -0.0509156 70 54 53
0.0723424 0.0314539 -0.0795795 236 79 74
0.0629364 0.025942 -0.0451257 0 0 0
0.0779558 0.0301131 -0.106568 254 219 191
0.0779356 0.0356794 -0.10281 252 253 240
0.0780432 0.0305176 -0.106313 252 255 239
0.0775729 0.029291 -0.107029 255 255 255
0.0789315 0.0344307 -0.10511 255 255 255
0.078091 0.0298634 -0.106627 255 255 255
0.0784929 0.0302489 -0.106601 255 255 255
0.0783379 0.0305303 -0.106176 252 255 255
0.0785851 0.0305504 -0.106267 252 254 241
0.0795577 0.033909 -0.104906 250 181 171
0.0786781 0.0313558 -0.105724 254 255 255
0.0783889 0.0302506 -0.10624 255 253 247
0.0788317 0.0314735 -0.106184 255 252 248
0.0780251 0.0295439 -0.106477 254 255 234
0.0779965 0.0298559 -0.106478 253 255 255
0.0777716 0.028383 -0.106824 255 211 188
0.0780563 0.0293454 -0.106631 248 249 212
0.0776404 0.029433 -0.107225 251 251 243
0.0794529 0.0334575 -0.104709 253 250 241
0.0779045 0.0289085 -0.107092 255 254 240
0.077763 0.0355975 -0.1019 247 255 252
0.0776971 0.0282743 -0.107555 254 255 255
0.0777454 0.029473 -0.104993 255 255 255
0.0773892 0.0274735 -0.107333 255 223 203
0.0786519 0.0305931 -0.106376 250 255 234
0.0778802 0.0361371 -0.104111 255 255 255
0.0783782 0.0354404 -0.104319 254 255 255
0.0794016 0.0338132 -0.105697 255 218 205
0.0791896 0.0329216 -0.102381 255 255 242
0.0781288 0.0303079 -0.106792 247 255 253
0.0784227 0.0303958 -0.106278 255 255 254
0.0789616 0.0312319 -0.106403 255 249 235
0.0774688 0.0278816 -0.107449 255 195 175
0.077992 0.0307288 -0.106538 255 255 255
0.0779817 0.028873 -0.10659 255 255 232
0.0787624 0.0296794 -0.105882 253 255 255
0.0800574 0.0329263 -0.105469 255 255 241
0.078531 0.0358927 -0.104174 252 255 255
0.0778918 0.0333888 -0.103422 255 255 255
0.0793214 0.0298401 -0.107184 255 255 247
0.078553 0.032057 -0.105659 253 255 255
0.0793638 0.0318692 -0.105562 253 253 250
0.077859 0.0287067 -0.106719 255 255 251
0.0789975 0.0313086 -0.106031 255 255 255
0.0782927 0.026573 -0.105745 255 255 255
0.0787161 0.0314031 -0.105912 255 253 245
0.0782795 0.0306147 -0.106158 253 255 242
0.0787015 0.0298954 -0.105807 251 253 255
0.079022 0.0321479 -0.106307 255 255 255
0.0780664 0.028927 -0.106824 255 221 202
0.0780326 0.0288316 -0.107286 250 240 214
0.078923 0.0331602 -0.105182 255 255 254
0.079318 0.0347501 -0.105267 255 255 255
0.0780498 0.035652 -0.10329 250 255 239
0.0780636 0.0296575 -0.107037 255 211 177
0.0792125 0.0331635 -0.105905 255 255 255
0.0773363 0.0363758 -0.102539 255 255 241
0.0777645 0.0288441 -0.106976 249 216 184
0.0787083 0.0318958 -0.105619 254 255 255
0.0789322 0.0310389 -0.106115 255 255 255
0.0776439 0.028625 -0.107121 254 199 179
0.0786354 0.0355657 -0.104289 253 255 255
0.07864 0.0316995 -0.105877 255 255 250
0.0791127 0.0341297 -0.105899 255 254 243
0.0787917 0.0340645 -0.105376 252 255 247
0.0790127 0.0325572 -0.10537 252 255 237
0.079028 0.0343571 -0.105575 255 255 255
0.0796042 0.0349381 -0.105372 249 255 247
0.0789247 0.0348424 -0.105419 255 255 255
0.0793596 0.0333058 -0.105069 242 255 251
0.0788886 0.0347615 -0.105138 247 255 250
0.078078 0.0285839 -0.107093 255 170 139
0.0787338 0.0294234 -0.107399 255 166 145
0.0800162 0.032499 -0.105016 255 255 214
0.0781421 0.0294295 -0.107078 255 199 171
0.0787449 0.0337031 -0.105406 255 255 244
0.0798903 0.03279 -0.106741 255 255 230
0.077608 0.0357822 -0.101152 238 252 255
0.0802151 0.0247666 -0.103053 255 255 255
0.0782738 0.0304763 -0.106588 255 196 166
0.0779436 0.0360991 -0.103823 255 255 255
0.0781047 0.0357545 -0.103185 255 255 232
0.0792593 0.0328464 -0.105732 255 255 239
0.0781032 0.0355814 -0.103492 255 255 235
0.0777025 0.0336513 -0.103761 255 255 255
0.0787517 0.0333432 -0.10561 255 255 243
0.0788751 0.0347501 -0.105282 239 255 246
0.0788876 0.0341201 -0.105313 255 234 225
0.0789683 0.0329037 -0.105431 255 165 127
0.0789129 0.0354763 -0.104382 254 255 242
0.0774615 0.0355178 -0.10332 255 255 243
0.0777307 0.0362447 -0.103714 255 255 247
0.0778561 0.0366618 -0.10377 255 255 255
0.078719 0.0357463 -0.104581 254 255 247
0.0778126 0.0356241 -0.103084 255 249 224
0.0799729 0.0343781 -0.104293 255 255 245
0.0772963 0.0364031 -0.103088 255 255 240
0.0783122 0.0355412 -0.103978 255 255 246
0.078112 0.0354813 -0.104084 255 255 226
0.0809381 0.0297662 -0.0979742 109 110 103
0.0807842 0.0303824 -0.100637 235 255 255
0.0797564 0.0315113 -0.102822 255 255 255
0.0781704 0.0364611 -0.104012 255 255 246
0.078747 0.0370324 -0.104528 252 250 213
0.0783852 0.0357961 -0.10425 255 238 197
0.0776221 0.036501 -0.103114 255 224 198
0.0785568 0.035701 -0.104441 255 208 174
0.0775098 0.0363705 -0.101576 234 78 58
0.0774952 0.0326465 -0.0770335 234 255 255
0.0749873 0.0321938 -0.0818099 205 111 101
0.0745447 0.0257101 -0.076603 180 61 26
0.0737718 0.0256993 -0.0762589 167 95 83
0.0740461 0.0359462 -0.0797681 201 62 57
0.0728447 0.0352232 -0.0865933 220 120 112
0.0784485 0.0318368 -0.105873 250 229 207
0.0782399 0.0316541 -0.10606 254 247 247
0.0775542 0.0285682 -0.10716 255 188 170
0.0783161 0.029693 -0.105832 255 255 255
0.0796397 0.0342306 -0.102089 255 255 255
0.0774154 0.0274445 -0.10728 255 251 255
0.0775976 0.0277138 -0.107082 254 255 250
0.0786083 0.031809 -0.105753 255 255 250
0.0785339 0.0313694 -0.105707 255 247 231
0.078066 0.0300936 -0.106516 255 255 255
0.0768182 0.026869 -0.107348 255 218 199
0.0783759 0.0313033 -0.105966 255 251 249
0.0774704 0.0267639 -0.107523 255 255 238
0.0777453 0.0285881 -0.106799 248 244 223
0.0788969 0.0305271 -0.105696 255 255 255
0.0789348 0.035396 -0.1047 252 228 208
0.0787916 0.0308062 -0.105756 250 254 255
0.0781029 0.0301097 -0.106546 254 255 255
0.0782412 0.0336893 -0.104658 255 252 231
0.0773473 0.0282144 -0.10742 254 251 232
0.0792103 0.0357252 -0.102094 255 255 255
0.0786914 0.0303349 -0.106871 255 255 255
0.0785204 0.0306777 -0.105778 253 255 255
0.0785848 0.0310851 -0.105972 255 255 255
0.0784098 0.0307518 -0.10637 254 255 255
0.0782152 0.029389 -0.106389 255 255 239
0.0791025 0.03373 -0.105222 253 255 255
0.0792679 0.0350807 -0.104619 252 255 252
0.0780346 0.0266996 -0.104401 255 238 219
0.0787535 0.0341483 -0.105246 253 255 255
0.0777084 0.0287782 -0.10692 248 208 181
0.0787603 0.0353942 -0.10401 255 255 239
0.0777039 0.0285612 -0.107117 255 201 180
0.0786458 0.0314491 -0.105301 255 255 255
0.0780319 0.0273991 -0.106797 255 174 156
0.0785526 0.0354828 -0.102633 255 255 255
0.0774651 0.0278825 -0.107379 250 182 164
0.0779206 0.027793 -0.107211 255 136 117
0.077586 0.028362 -0.107316 255 164 143
0.0786492 0.0292099 -0.10632 255 200 115
0.0789617 0.0367439 -0.105224 255 255 255
0.078473 0.0303002 -0.106594 254 188 157
0.0783214 0.029244 -0.10729 255 226 149
0.0783861 0.0300283 -0.106892 255 171 116
0.0776649 0.0354644 -0.103543 255 255 244
0.0846718 0.0294604 -0.102114 0 158 160
0.0788762 0.0311092 -0.106552 255 199 143
0.078148 0.0358494 -0.100603 233 255 255
0.0778433 0.0357745 -0.10376 245 255 240
0.0783063 0.030898 -0.106492 255 215 152
0.0786061 0.0357432 -0.10372 254 255 254
0.077874 0.035666 -0.102695 255 255 241
0.078459 0.0354478 -0.104096 255 255 242
0.0788868 0.0363283 -0.105084 255 255 255
0.0784051 0.0363186 -0.104224 250 255 245
0.0808489 0.0242708 -0.100877 211 36 32
0.0799812 0.0355146 -0.100567 185 86 83
0.0787542 0.0355387 -0.0969422 171 133 125
0.0709627 0.0328242 -0.0744621 211 129 116
0.0794344 0.0340476 -0.105578 255 243 218
0.0789972 0.0290033 -0.107306 255 255 230
0.0781379 0.0358911 -0.103965 255 255 255
0.0792113 0.0330671 -0.106068 255 242 216
0.079056 0.0342932 -0.105583 252 253 226
0.0772237 0.0247535 -0.105818 255 249 227
0.0790945 0.0288583 -0.103492 255 255 255
0.0779261 0.0291167 -0.107028 255 250 239
0.0794716 0.0339682 -0.105283 252 255 233
0.078894 0.0327918 -0.105859 255 255 211
0.0783992 0.0275891 -0.106408 255 237 221
0.0787924 0.0333626 -0.105859 255 255 236
0.0777008 0.0284721 -0.107154 253 242 220
0.0782914 0.0304702 -0.106993 247 255 255
0.0783235 0.028326 -0.10351 255 222 191
0.078094 0.0279342 -0.1067 255 242 220
0.077432 0.0357215 -0.103069 255 255 250
0.0782467 0.0288308 -0.106343 255 255 255
0.0796095 0.0331762 -0.102021 255 139 255
0.078382 0.0305182 -0.106459 255 255 245
0.079674 0.0326322 -0.105967 255 255 235
0.0798586 0.0320914 -0.105589 252 255 248
0.0789176 0.0347737 -0.105331 242 255 255
0.0779282 0.0370017 -0.105218 255 255 247
0.0788079 0.0347289 -0.104663 255 255 255
0.0788761 0.0296057 -0.106113 255 187 123
0.0780504 0.0299674 -0.106969 253 226 177
0.0788454 0.034605 -0.105147 254 255 242
0.0783851 0.0362191 -0.104514 255 255 249
0.0792083 0.0333049 -0.106083 255 248 224
0.0788777 0.035612 -0.105497 251 255 244
0.0791642 0.0337608 -0.106434 255 235 212
0.0783934 0.0368781 -0.104743 255 255 241
0.0766631 0.0377382 -0.103099 255 255 224
0.076463 0.0335842 -0.0810051 207 106 105
0.0728376 0.0278944 -0.0745772 153 105 89
0.0784461 0.0320275 -0.106046 255 255 249
0.0789272 0.0347782 -0.10523 247 251 238
0.0775577 0.0287945 -0.106964 255 255 252
0.0777512 0.0290432 -0.106681 252 255 255
0.0785519 0.0334275 -0.103424 255 255 255
0.0795251 0.0322567 -0.106324 255 255 255
0.0792655 0.0328937 -0.105405 255 255 235
0.0787434 0.0356368 -0.104368 255 255 242
0.0793283 0.0329033 -0.105565 255 255 242
0.0784025 0.036029 -0.102467 250 255 249
0.0786022 0.0318263 -0.106468 255 236 174
0.0788525 0.0345987 -0.105203 255 255 253
0.0782686 0.0318116 -0.104589 255 255 245
0.0789352 0.0346629 -0.105306 255 255 242
0.07786 0.0357069 -0.103388 255 255 239
0.0776336 0.0360154 -0.103711 254 255 239
0.0789951 0.0343459 -0.105552 254 255 255
0.0762323 0.027124 -0.107444 253 183 168
0.0784389 0.0334398 -0.106137 248 253 243
0.0780468 0.0294518 -0.106645 253 255 254
0.0772862 0.0277814 -0.107866 255 203 186
0.0799566 0.0313631 -0.105033 223 255 255
0.0793646 0.0277972 -0.105562 217 255 255
0.0779167 0.0298255 -0.10664 255 248 230
0.0779842 0.0293215 -0.106509 249 255 255
0.0787506 0.0320305 -0.105514 255 255 255
0.0787502 0.0341864 -0.105578 255 236 214
0.0790538 0.0333513 -0.105267 255 249 216
0.0789208 0.032797 -0.105372 255 255 255
0.0789099 0.0312177 -0.106068 251 241 217
0.0780458 0.0297164 -0.106652 247 251 239
0.0783137 0.0316743 -0.1043 255 255 255
0.0778916 0.0284291 -0.106926 251 255 237
0.0778984 0.0292307 -0.107251 254 255 254
0.0788544 0.0341957 -0.105277 253 255 249
0.078361 0.0303838 -0.106328 252 255 255
0.0785295 0.031103 -0.105752 253 255 255
0.0784734 0.031307 -0.1053 255 255 255
0.0781924 0.0309265 -0.10615 255 255 254
0.0789787 0.0269788 -0.106226 253 255 255
0.0786422 0.0309257 -0.105712 255 255 240
0.0785353 0.0314171 -0.10592 255 255 240
0.0782483 0.0302723 -0.106236 251 242 212
0.0781093 0.0295825 -0.106636 255 253 246
0.0798876 0.0339504 -0.105626 255 249 223
0.0776478 0.0277148 -0.107301 255 215 199
0.0781916 0.0300848 -0.106347 250 252 243
0.0789006 0.0328169 -0.105414 255 246 233
0.0781696 0.0284687 -0.106953 255 210 192
0.077773 0.0281042 -0.106914 255 246 221
0.0785035 0.0287027 -0.106318 250 255 218
0.0777829 0.0285262 -0.107422 255 217 195
0.0799032 0.0228372 -0.103788 255 255 255
0.0776625 0.0285347 -0.107341 255 191 175
0.0795684 0.0345992 -0.104675 243 255 238
0.0785963 0.0299871 -0.106693 255 228 189
0.0780185 0.0290916 -0.10699 255 169 134
0.0779801 0.0300376 -0.106655 252 188 168
0.0788722 0.0321505 -0.106175 255 173 127
0.0807263 0.0295029 -0.101939 255 0 0
0.0791006 0.0318753 -0.105634 255 236 210
0.0842294 0.0290633 -0.100277 255 110 0
0.078149 0.0356102 -0.103929 255 141 117
0.0789103 0.0338675 -0.105228 255 191 167
0.0753661 0.0194518 -0.0982815 253 135 124
0.0795008 0.0359655 -0.100813 186 74 73
0.0768064 0.0308892 -0.0778893 212 255 255
0.0759707 0.0335435 -0.0782284 218 140 132
0.0757235 0.0334282 -0.0790599 210 137 127
0.0741745 0.0313336 -0.0845492 222 152 132
0.0751404 0.0262515 -0.0817335 249 154 147
0.0764241 0.0336718 -0.0835654 198 102 100
0.0788552 0.0362527 -0.0832156 255 202 200
0.0757744 0.0324667 -0.081817 210 99 92
0.0746625 0.0254612 -0.0767836 162 51 19
0.0756049 0.0337962 -0.076865 255 255 255
0.0741227 0.0255228 -0.0777813 191 116 108
0.0753224 0.0329773 -0.0813906 215 145 134
0.0737057 0.0338456 -0.0808866 210 107 106
0.0715051 0.0336246 -0.0792665 183 82 77
0.0751388 0.0371751 -0.0818993 166 86 78
0.0776198 0.0277269 -0.107 255 218 199
0.0777555 0.0291099 -0.106959 254 181 166
0.0748387 0.0290765 -0.102142 255 255 255
0.0779903 0.0294954 -0.106489 253 255 237
0.0780613 0.030015 -0.106711 253 229 203
0.0776056 0.0281459 -0.107198 254 219 199
0.0779555 0.0283941 -0.107408 246 255 255
0.0782428 0.0295686 -0.106308 254 255 230
0.0779099 0.0282054 -0.107047 255 248 220
0.0785312 0.0330786 -0.102577 255 255 159
0.0789123 0.0306115 -0.10646 255 255 245
0.077558 0.0284095 -0.107305 255 206 191
0.0778813 0.0285632 -0.107043 253 202 176
0.0793871 0.0309679 -0.10552 255 246 217
0.078126 0.0293582 -0.106553 255 174 152
0.0765358 0.0267852 -0.107839 255 158 147
0.0778591 0.0288 -0.107114 255 148 135
0.0779161 0.0258593 -0.106736 255 236 222
0.0780348 0.029981 -0.106827 251 166 145
0.0786393 0.0304561 -0.106891 255 226 180
0.0775064 0.0281953 -0.107287 251 180 165
0.0789298 0.0302694 -0.104446 255 179 20
0.0785087 0.0302841 -0.106663 255 173 122
0.0787629 0.0267662 -0.104192 255 255 234
0.0772135 0.0365152 -0.103327 255 255 250
0.0790901 0.0330314 -0.105853 255 171 134
0.0775051 0.0357009 -0.102753 255 221 195
0.0784937 0.0354322 -0.104353 255 227 205
0.0775969 0.0369641 -0.103589 255 229 206
0.0794773 0.0353543 -0.0998103 186 94 85
0.0774748 0.0282934 -0.0843477 199 117 111
0.0684756 0.0109616 -0.0916353 187 97 83
0.0749741 0.0351901 -0.0820145 209 132 143
0.0719089 0.031875 -0.078761 210 140 127
0.078979 0.0358061 -0.104955 255 255 249
0.0775726 0.0285668 -0.106974 254 255 247
0.0776712 0.0284077 -0.106981 246 228 206
0.0778404 0.0295783 -0.107086 255 255 255
0.0782513 0.0364506 -0.104396 250 250 228
0.0782339 0.0360671 -0.103596 243 255 236
0.0781901 0.0231045 -0.105661 255 169 162
0.0780745 0.0225654 -0.105415 221 106 98
0.0784434 0.0309796 -0.107211 255 221 200
0.0775919 0.0359715 -0.102643 255 247 225
0.0823114 0.0285136 -0.0912789 170 160 153
0.0752974 0.0230694 -0.074603 242 147 135
0.0738161 0.0266564 -0.0738308 221 159 138
0.0791768 0.0318257 -0.10575 253 255 255
0.0770637 0.0263199 -0.107599 255 153 138
0.0790621 0.0319572 -0.106805 255 244 193
0.0777424 0.0285443 -0.107247 255 170 145
0.07882 0.0311139 -0.106685 255 193 161
0.0804143 0.0318215 -0.0988839 119 0 0
0.0758113 0.0183972 -0.101037 210 123 118
0.0786514 0.031481 -0.0828451 22 117 97
0.0658459 0.00976576 -0.059675 255 214 214
0.077997 0.0297069 -0.107031 249 255 255
0.0773465 0.0312575 -0.0808573 255 255 255
0.0800916 0.0342356 -0.105627 255 66 37
0.0765779 0.0217209 -0.0791646 255 191 179
0.0782603 0.0310575 -0.106419 250 239 229
0.0790216 0.029335 -0.105788 255 255 255
0.0782941 0.0301577 -0.106645 254 249 229
0.0782205 0.0327294 -0.105848 251 250 239
0.0775289 0.0277963 -0.108047 255 203 187
0.0793499 0.0355573 -0.104817 255 255 255
0.0788124 0.0311424 -0.105686 254 255 255
0.0777608 0.0291679 -0.106734 255 255 247
0.0784749 0.0306935 -0.105763 254 255 255
0.0781254 0.0283614 -0.106513 255 237 212
0.0793507 0.0340444 -0.105096 253 255 251
0.0800463 0.0307804 -0.104546 255 255 255
0.0778988 0.0289744 -0.106823 251 224 203
0.0787801 0.0343276 -0.105527 244 250 249
0.0776405 0.028311 -0.107214 255 244 226
0.0789338 0.0301024 -0.106094 252 255 248
0.0780502 0.0295472 -0.106994 251 237 204
0.07824 0.0301774 -0.106308 253 191 156
0.0783428 0.0307781 -0.106189 255 251 202
0.0782489 0.0280003 -0.106437 255 223 192
0.0777458 0.0286445 -0.107571 255 140 127
0.0781278 0.028346 -0.107272 255 212 189
0.0779639 0.0291967 -0.106976 252 187 173
0.0779484 0.0292521 -0.106804 255 160 113
0.078237 0.0281443 -0.107644 255 191 171
0.0784993 0.0306374 -0.107253 255 199 173
0.0779632 0.0276816 -0.107719 255 169 142
0.0819662 0.0315165 -0.0978052 212 75 0
0.0770726 0.0208692 -0.104233 223 109 100
0.075941 0.0183634 -0.10077 241 150 135
0.0777294 0.0356225 -0.102953 255 217 194
0.0770528 0.0357117 -0.102146 255 177 156
0.0791862 0.0356801 -0.100503 182 75 71
0.0794035 0.0314384 -0.0834199 255 195 192
0.0765125 0.0312487 -0.0803984 230 255 243
0.0759616 0.0337865 -0.0732551 255 255 255
0.0749504 0.0313648 -0.0810985 246 255 225
0.075643 0.0323137 -0.0796794 204 118 109
0.0775059 0.0356672 -0.0808871 234 123 117
0.0687924 0.0130445 -0.0836455 167 98 95
0.0786238 0.0370475 -0.0819043 210 126 118
0.072667 0.0293667 -0.07145 157 92 84
0.0753508 0.0345771 -0.0786138 211 107 87
0.0657809 0.0116108 -0.0615094 211 255 227
0.0745185 0.0343698 -0.0790673 206 70 69
0.0744526 0.0341101 -0.0755475 171 0 0
0.0739976 0.0349925 -0.0793207 217 107 106
0.0710673 0.0324785 -0.0765463 242 200 185
0.0776681 0.0324946 -0.1047 255 255 255
0.0779061 0.0294839 -0.106548 255 232 210
0.0786779 0.0353861 -0.10453 255 255 244
0.0785613 0.0321884 -0.105523 255 255 251
0.0782261 0.030615 -0.106483 255 222 197
0.077697 0.0289376 -0.106819 253 255 248
0.0778244 0.0284055 -0.107241 253 255 255
0.077143 0.0273693 -0.107442 228 218 195
0.0787142 0.0282644 -0.106377 253 250 229
0.0781751 0.0291449 -0.106436 254 255 255
0.0791426 0.0320554 -0.105676 255 255 247
0.0777208 0.028315 -0.106948 250 251 232
0.0777326 0.0282032 -0.107035 255 241 225
0.0778215 0.0281349 -0.106827 255 245 224
0.0778421 0.0286311 -0.107556 254 255 255
0.0781979 0.0304092 -0.106606 255 244 221
0.0781368 0.0265496 -0.106847 255 149 138
0.0780483 0.0279972 -0.10685 255 137 111
0.0789092 0.027144 -0.106041 255 176 159
0.0788764 0.0305465 -0.105998 255 180 156
0.0790072 0.0326189 -0.106009 255 183 161
0.082796 0.030327 -0.100261 255 255 255
0.0749267 0.016505 -0.099442 207 112 104
0.0761107 0.0307112 -0.0811029 223 252 227
0.0752057 0.0353467 -0.0794415 255 194 200
0.0769971 0.033043 -0.0786076 226 176 183
0.0757576 0.0312428 -0.0746695 158 0 0
0.0746941 0.0375748 -0.0875317 145 69 64
0.0746081 0.028477 -0.0805097 255 189 167
0.0730836 0.0350952 -0.0800891 239 255 255
0.071176 0.0342251 -0.0712487 223 137 133
0.0705483 0.0322279 -0.0752363 212 182 166
0.0784182 0.030949 -0.106263 254 242 221
0.0791407 0.0312255 -0.106038 255 255 225
0.0783355 0.0302184 -0.107966 255 255 245
0.0779929 0.0282534 -0.106961 255 168 151
0.0775638 0.0271019 -0.107793 254 155 143
0.0791237 0.030173 -0.105925 255 228 196
0.0789048 0.0220328 -0.105479 206 102 95
0.0787844 0.027459 -0.107005 255 101 66
0.0796227 0.0303813 -0.105818 255 105 80
0.0755977 0.0199857 -0.103155 230 118 113
0.0767594 0.0195451 -0.10292 246 129 123
0.0803911 0.0282526 -0.0898917 175 15 0
0.0730225 0.0153086 -0.0986385 203 107 101
0.0786024 0.0227284 -0.0728834 189 88 88
0.0775802 0.0285383 -0.106873 255 242 230
0.0778226 0.0287501 -0.107052 255 255 226
0.0786107 0.0304351 -0.106215 255 183 159
0.0837708 0.0340375 -0.10195 244 71 59
0.0792413 0.0362138 -0.100201 238 63 49
0.079371 0.0376372 -0.0809952 244 140 105
0.0756684 0.0319251 -0.080506 231 205 188
0.0758543 0.0310499 -0.0811361 255 255 255
0.0782229 0.0367018 -0.104142 255 209 185
0.075952 0.0309136 -0.0804721 255 255 255
0.0784337 0.0287813 -0.0822538 252 255 255
0.0766501 0.0332991 -0.107991 255 255 255
0.0775694 0.0306631 -0.108272 255 255 255
0.0773673 0.0375015 -0.10464 255 255 249
0.0783749 0.0370927 -0.104988 255 252 240
0.0785028 0.034822 -0.106641 255 255 255
0.0797957 0.0364133 -0.106601 255 255 255
0.0774948 0.0284286 -0.108538 255 236 223
0.0792786 0.0359196 -0.106023 255 255 254
0.0753609 0.0268318 -0.108048 255 255 245
0.0782166 0.0351937 -0.107129 255 255 255
0.0759562 0.0263744 -0.109101 255 230 215
0.0744924 0.02685 -0.107977 255 235 218
0.0746315 0.0272729 -0.108635 255 209 195
0.0782709 0.0273395 -0.107566 255 134 117
0.0746525 0.0147582 -0.0971608 255 151 146
0.0767776 0.0295563 -0.0806178 244 255 255
0.0613671 0.0151168 -0.0862857 175 96 94
0.0784567 0.0325007 -0.107656 255 254 255
0.0777267 0.0295166 -0.108859 255 252 240
0.0756939 0.026754 -0.10861 255 255 255
0.0752105 0.0263187 -0.107877 255 228 214
0.0758797 0.0278877 -0.109074 255 209 194
0.0771749 0.0273023 -0.10905 255 168 158
0.0738346 0.0227425 -0.105052 250 138 132
0.0783874 0.0357848 -0.100866 213 115 105
0.0752365 0.0173333 -0.100928 220 130 123
0.0759788 0.016319 -0.100306 204 118 114
0.0686769 0.0121799 -0.0942539 170 111 103
0.07701 0.0374418 -0.106636 255 255 255
0.0779766 0.036283 -0.106049 255 255 255
0.0757355 0.0262114 -0.108222 255 241 226
0.0770465 0.0359959 -0.104679 255 255 255
0.0760479 0.0365943 -0.104836 255 255 255
0.0780543 0.0339448 -0.106202 255 255 255
0.0767179 0.0368287 -0.105086 255 237 221
0.0787577 0.0278152 -0.108203 255 255 255
0.0775493 0.0283122 -0.107221 254 255 255
0.0749125 0.0202093 -0.104431 255 163 159
0.0775307 0.0364832 -0.104504 255 255 252
0.0783878 0.02936 -0.107363 255 251 238
0.0743661 0.0233572 -0.0750047 135 90 87
0.0778851 0.0366381 -0.105874 255 255 255
0.0754199 0.0190685 -0.10283 247 142 140
0.0761216 0.0362703 -0.1029 255 195 177
0.0792826 0.0270869 -0.108496 251 255 255
0.0793545 0.0365047 -0.103561 254 255 255
0.0784351 0.0356364 -0.103285 255 150 130
0.0755998 0.0326289 -0.0783633 214 202 183
0.077116 0.0326687 -0.0780016 219 74 76
0.0787152 0.0344178 -0.0785714 227 100 92
0.074987 0.0323501 -0.075777 113 0 0
0.0756508 0.0296789 -0.0716383 246 255 255
0.0771568 0.0283104 -0.0819554 113 0 0
0.0791688 0.0330614 -0.106895 251 255 255
0.0791993 0.0287601 -0.1076 255 255 255
0.0777138 0.0277824 -0.107243 255 228 212
0.072775 0.0342021 -0.0639143 255 255 255
0.0663767 0.00952727 -0.0550998 255 249 0
0.0691699 0.0340821 -0.0778237 157 70 62
0.0775448 0.0220664 -0.106606 255 197 190
0.0794024 0.0344684 -0.105501 238 94 77
0.0777479 0.0349931 -0.0799591 213 115 110
0.0764362 0.0331244 -0.0721709 255 255 255
0.0753872 0.0267702 -0.0704908 251 186 171
0.0734704 0.0268476 -0.0744606 194 109 96
0.0783929 0.0368773 -0.104742 255 255 241
0.0731055 0.0297214 -0.0725186 136 54 51
0.0754133 0.0234646 -0.0807696 255 255 247
0.0759697 0.0327568 -0.0723644 255 255 255
0.0727309 0.0321461 -0.0735018 79 0 0
0.0755129 0.0308604 -0.0763741 255 255 255
0.0721411 0.03565 -0.06293 204 162 148
0.0796365 0.0354077 -0.106355 254 255 255
0.0790539 0.0289093 -0.108364 250 255 255
0.0795242 0.0349544 -0.10646 251 255 253
0.0794776 0.0340344 -0.106633 255 249 230
0.0780204 0.0275786 -0.107449 254 238 218
0.0794007 0.0340964 -0.106678 250 249 243
0.0789559 0.027144 -0.107739 249 248 228
0.0795741 0.0365657 -0.105994 252 255 255
0.0775473 0.0235702 -0.106132 255 209 193
0.0786913 0.0306897 -0.106043 249 255 255
0.0785801 0.0300066 -0.106545 255 230 210
0.0759028 0.02165 -0.105665 236 126 120
0.079472 0.0201465 -0.104628 252 142 131
0.0783769 0.0360447 -0.102681 255 152 129
0.0801113 0.0197678 -0.102773 255 255 255
0.0795434 0.0369778 -0.1014 178 107 101
0.082764 0.0353326 -0.0932098 205 170 158
0.0757331 0.0321411 -0.0781585 207 136 128
0.0732353 0.00997041 -0.0842819 73 0 0
0.0774147 0.0343576 -0.0793669 255 154 158
0.0758685 0.00935727 -0.064476 121 68 71
0.0747702 0.030623 -0.0721188 0 0 0
0.0724841 0.0289894 -0.0719846 210 152 134
0.0778505 0.0291243 -0.0827959 137 76 71
0.0728118 0.0344305 -0.0782586 191 80 78
0.0663935 0.0144855 -0.0825283 187 75 70
0.0794772 0.034179 -0.10693 252 254 246
0.0786176 0.0297768 -0.108234 252 226 218
0.0796126 0.0349783 -0.106484 252 255 255
0.0799202 0.0351884 -0.106643 247 251 237
0.0792538 0.0331292 -0.106947 250 255 255
0.0787409 0.026216 -0.106292 253 166 147
0.0784348 0.026367 -0.106567 255 145 136
0.0785794 0.0314932 -0.105984 253 186 164
0.0797995 0.0327419 -0.107038 246 103 63
0.0773754 0.0191778 -0.102571 237 129 117
0.0750964 0.0192897 -0.100982 255 154 149
0.0798129 0.0357921 -0.100622 172 109 110
0.0738897 0.0370861 -0.0845176 179 109 111
0.0726098 0.0309936 -0.0748362 193 129 118
0.0728003 0.0323811 -0.0762317 253 194 206
0.0758225 0.0257664 -0.10879 247 229 216
0.0804057 0.0315076 -0.107013 246 255 255
0.0774898 0.0208199 -0.106176 255 202 196
0.0784983 0.0304219 -0.106491 255 198 164
0.0798828 0.0269071 -0.0905543 217 143 131
0.074533 0.0146341 -0.0990236 255 137 128
0.073586 0.0256231 -0.0763704 27 0 0
0.0767724 0.0322065 -0.0817131 214 148 138
0.0762001 0.0293643 -0.0717176 255 174 152
0.0726065 0.0315116 -0.0724256 157 69 66
0.0786854 0.0269906 -0.108283 246 255 244
0.0776804 0.0283114 -0.107273 255 148 129
0.0793171 0.0324335 -0.105707 255 143 125
0.0784471 0.0305339 -0.106467 255 149 110
0.0797447 0.0367354 -0.100357 185 102 96
0.0752549 0.0186575 -0.100636 201 111 102
0.0746953 0.0340541 -0.0762658 228 179 167
0.0790617 0.0295642 -0.106094 232 244 255
0.075701 0.0318823 -0.0793574 246 255 255
0.0730141 0.0326465 -0.0771693 255 189 213
0.0782807 0.019129 -0.102954 241 133 128
0.081879 0.0294283 -0.10155 0 0 0
0.0740754 0.0329056 -0.0746852 197 99 92
0.0754966 0.0140506 -0.097605 236 139 125
0.0771922 0.0316763 -0.0817721 255 255 255
0.0793545 0.0365047 -0.103561 254 255 255
0.0775448 0.0220665 -0.106606 255 197 190
0.0793824 0.0334585 -0.107294 248 255 253
0.0785285 0.0269003 -0.108333 251 255 255
0.0789483 0.027611 -0.10817 250 235 226
0.0795215 0.0340953 -0.106677 255 253 233
0.0796713 0.0353739 -0.106381 248 236 224
0.0757589 0.0259562 -0.108799 252 200 190
0.0777266 0.0266938 -0.108249 255 243 223
0.0790552 0.0288087 -0.10886 254 245 226
0.0772112 0.0259445 -0.106823 244 235 209
0.0788654 0.0275786 -0.107953 252 182 165
0.0789415 0.0316486 -0.106348 255 169 147
0.0762046 0.0208425 -0.105892 227 111 109
0.0791607 0.0289933 -0.10565 255 172 145
0.078654 0.0214266 -0.106135 236 127 121
0.0782918 0.0197989 -0.104854 252 142 131
0.0782937 0.0355699 -0.103018 255 151 128
0.0784884 0.0359558 -0.102197 255 161 140
0.0792911 0.0190865 -0.0999179 255 255 255
0.0739098 0.0173428 -0.101689 230 132 122
0.0789736 0.0366293 -0.100573 188 112 103
0.0749004 0.0164277 -0.0990123 239 151 147
0.0863545 0.0238228 -0.0931486 255 255 255
0.0782946 0.0335868 -0.081533 141 0 0
0.0796772 0.0329926 -0.0810986 185 92 91
0.0770661 0.0324561 -0.0788565 254 194 181
0.0733944 0.0306054 -0.0668458 183 90 77
0.0745245 0.0254801 -0.076351 173 86 85
0.0765196 0.0287586 -0.0811354 121 112 104
0.0697581 0.035143 -0.070418 255 214 205
0.0642411 0.00876041 -0.0618238 95 37 34
0.0719794 0.0309038 -0.0752661 115 48 42
0.0788361 0.0297093 -0.105943 219 255 255
0.0795979 0.0342065 -0.107027 251 254 248
0.0774135 0.0286802 -0.108259 255 255 255
0.0801195 0.0324356 -0.106497 250 255 255
0.0793181 0.0331824 -0.106989 250 255 255
0.0788551 0.0312814 -0.107744 255 255 255
0.0782994 0.0354306 -0.101773 255 255 255
0.0772786 0.0256479 -0.108064 251 219 204
0.0789737 0.0269656 -0.106869 248 237 217
0.0785158 0.0262748 -0.106553 255 148 139
0.0788543 0.0257204 -0.106239 249 170 159
0.0792863 0.0304548 -0.10605 255 171 146
0.0760198 0.0197491 -0.105176 247 136 125
0.0797615 0.0356359 -0.10066 171 112 111
0.0742594 0.0176229 -0.099414 203 130 121
0.0787853 0.0342263 -0.084735 188 146 131
0.0769474 0.0286817 -0.082114 127 145 132
0.0686786 0.0129477 -0.0905648 194 103 97
0.076693 0.0345943 -0.0789485 255 255 255
0.0731793 0.0262533 -0.0725135 203 160 138
0.0724747 0.0338909 -0.0739984 203 116 115
0.0801508 0.0311572 -0.107062 249 255 255
0.0795979 0.0356229 -0.105942 255 255 255
0.0762574 0.0213374 -0.106377 255 209 204
0.0800691 0.031532 -0.104752 255 210 177
0.0795403 0.0334844 -0.105569 255 73 58
0.0787289 0.0375298 -0.103683 255 133 110
0.0740401 0.0146228 -0.0989112 255 146 137
0.0737069 0.0151135 -0.0974933 255 153 140
0.0797583 0.0198201 -0.0768249 255 163 157
0.0787804 0.0269321 -0.108314 250 255 251
0.0787486 0.0306444 -0.106361 251 255 255
0.0789367 0.0269986 -0.10704 245 255 247
0.0795786 0.0323969 -0.10771 250 255 255
0.0786126 0.0226326 -0.106649 227 128 124
0.0795784 0.0364627 -0.100159 194 111 102
0.080172 0.0154081 -0.0943259 255 255 255
0.0776095 0.0271891 -0.0756211 96 0 0
0.0793577 0.032077 -0.1081 255 255 255
0.0749087 0.0244495 -0.0742151 188 106 114
0.0737113 0.0275387 -0.0789006 184 97 88
0.0759915 0.015399 -0.0967593 255 191 181
0.0790538 0.0289093 -0.108364 250 255 255
0.0795241 0.0349544 -0.10646 251 255 253
0.0795741 0.0365657 -0.105994 252 255 255
0.0796126 0.0349782 -0.106484 252 255 255
0.0792538 0.0331292 -0.106947 250 255 255
0.0804057 0.0315077 -0.107013 246 255 255
0.0774898 0.0208201 -0.106176 255 202 196
0.0792866 0.0334153 -0.10696 248 255 251
0.0781745 0.029565 -0.107848 250 247 225
0.0791276 0.0295065 -0.10848 249 255 255
0.0796427 0.0350669 -0.106541 255 255 253
0.0790422 0.0275677 -0.108226 255 235 225
0.0795685 0.0341689 -0.106711 255 255 232
0.0805071 0.0337727 -0.106261 252 255 255
0.0798438 0.03577 -0.105943 255 235 225
0.0757203 0.0258989 -0.108845 253 199 190
0.079511 0.031038 -0.105166 228 252 255
0.0784461 0.0299864 -0.105955 255 255 255
0.0781297 0.0269639 -0.108015 245 246 227
0.079238 0.0260218 -0.108484 254 249 231
0.0795458 0.0341926 -0.10675 250 253 248
0.0789863 0.0283369 -0.106664 249 255 239
0.0789761 0.025721 -0.107615 252 184 167
0.0793671 0.0314188 -0.105052 252 255 252
0.078466 0.0214221 -0.105944 236 127 121
0.0777606 0.0212594 -0.104071 223 117 110
0.0789013 0.020975 -0.10451 229 141 128
0.0779107 0.0197373 -0.10449 255 146 136
0.0839134 0.0286079 -0.100302 255 241 133
0.0789131 0.0354758 -0.103659 255 161 140
0.0794474 0.019807 -0.0999996 255 222 218
0.0741275 0.0177585 -0.0994164 184 92 84
0.0834126 0.0256648 -0.0878322 157 255 255
0.0796093 0.0292282 -0.0806223 231 0 0
0.076948 0.0322661 -0.0807752 246 255 255
0.0768288 0.0329054 -0.0793223 230 167 164
0.0790163 0.0342827 -0.0843507 181 137 121
0.0743637 0.0278154 -0.0735361 175 29 26
0.0607673 0.00996391 -0.0598662 99 69 73
0.0729091 0.0348363 -0.086735 225 131 124
0.0711346 0.0349106 -0.0677307 207 102 97
0.0786543 0.030189 -0.106994 250 242 231
0.0759534 0.0259854 -0.108529 247 238 221
0.0783526 0.0295748 -0.108424 248 251 240
0.080193 0.0323962 -0.106543 247 255 255
0.0793803 0.0332263 -0.107033 250 255 255
0.0797683 0.0342901 -0.106951 247 255 253
0.0793131 0.0331859 -0.106097 255 255 247
0.0788974 0.0313541 -0.107805 247 255 255
0.0793761 0.0269054 -0.107691 248 236 216
0.078239 0.0253205 -0.107369 251 158 148
0.0785384 0.026068 -0.106532 255 150 143
0.0787804 0.0265765 -0.106139 248 169 160
0.0791624 0.0285504 -0.10553 255 158 96
0.0765976 0.0197253 -0.105207 247 136 126
0.0766447 0.0188999 -0.102375 255 186 177
0.0806839 0.01992 -0.0993635 255 164 172
0.0798739 0.0358739 -0.100804 177 117 117
0.0764105 0.016323 -0.0998424 255 159 150
0.0690362 0.0124355 -0.0928373 164 120 113
0.0752391 0.0317561 -0.0716251 89 0 0
0.0759865 0.0269195 -0.074353 170 255 255
0.0749035 0.0251396 -0.108155 246 235 221
0.0801885 0.0326146 -0.106415 248 255 255
0.0806791 0.0312881 -0.107042 244 255 255
0.0798341 0.0355771 -0.106358 252 251 255
0.0798755 0.0363155 -0.106221 251 255 252
0.0796925 0.0237166 -0.106332 255 211 207
0.0792934 0.0341828 -0.106628 255 135 120
0.0777023 0.0360464 -0.102473 255 136 113
0.0734322 0.0142338 -0.0992017 255 146 138
0.0788555 0.0268525 -0.108351 255 255 253
0.0797236 0.035333 -0.106521 250 255 255
0.0785579 0.0279397 -0.107388 252 255 250
0.0795489 0.032445 -0.107723 250 255 255
0.0796755 0.0241065 -0.106276 231 134 130
0.078819 0.0306599 -0.106299 255 172 109
0.0747025 0.0185451 -0.10351 255 155 150
0.0797457 0.0372905 -0.100354 198 107 99
0.0765784 0.0177272 -0.100736 208 119 108
0.0673494 0.0342068 -0.0745948 134 80 64
