ply
format ascii 1.0
comment Created by Open3D
element vertex 1206
property double x
property double y
property double z
property uchar red
property uchar green
property uchar blue
end_header
0.061916 0.155174 -0.0541194 0 0 0
0.0596023 0.171132 -0.0378653 67 0 0
0.0581688 0.164488 -0.0393034 133 35 30
0.0626431 0.137224 -0.0625959 0 0 0
0.0613886 0.183858 -0.0348525 206 61 19
0.0591962 0.163801 -0.0399375 168 96 86
0.0552159 0.12793 -0.057617 255 255 245
0.0589967 0.133497 -0.0579117 40 0 0
0.0613088 0.180943 -0.0356949 182 123 123
0.0639995 0.188527 -0.0321794 175 91 74
0.0620346 0.181211 -0.0343044 203 148 142
0.0617753 0.179709 -0.0326469 81 0 0
0.063554 0.187962 -0.0305733 151 52 39
0.0638764 0.189599 -0.0324188 171 94 82
0.0620583 0.188246 -0.0342601 177 101 96
0.0565644 0.129017 -0.0543533 118 76 66
0.0591796 0.171929 -0.0376688 150 0 0
0.0615424 0.184654 -0.034059 177 37 0
0.0558856 0.121482 -0.0602212 6 0 0
0.0615318 0.182549 -0.0362032 135 67 62
0.0598784 0.184567 -0.0384259 198 197 168
0.0575573 0.153248 -0.0473229 141 78 71
0.0614127 0.123193 -0.063685 23 0 4
0.0599479 0.186227 -0.0368912 67 0 0
0.0559331 0.133176 -0.0526624 0 0 0
0.0639036 0.189691 -0.0329082 173 96 85
0.0603375 0.171623 -0.039465 163 83 78
0.0553632 0.131014 -0.0512902 0 0 0
0.058924 0.168295 -0.0373937 129 0 0
0.0560936 0.1274 -0.051988 72 40 37
0.0569426 0.130604 -0.0543626 61 26 24
0.0567176 0.132698 -0.0535083 52 31 22
0.0590673 0.168003 -0.039169 104 46 44
0.0587519 0.160186 -0.0399452 83 36 34
0.0536965 0.128967 -0.0511751 0 0 0
0.064069 0.180585 -0.031384 133 164 144
0.0770104 0.164159 -0.0561674 0 11 0
0.0739634 0.16118 -0.0574988 80 19 12
0.0811777 0.187908 -0.0516055 161 89 91
0.0795608 0.189866 -0.0498412 221 148 140
0.0628561 0.182669 -0.0333916 148 0 0
0.0780973 0.164908 -0.0547437 73 10 3
0.0542265 0.126223 -0.0522685 0 0 0
0.0615489 0.181255 -0.0326653 153 124 116
0.0525328 0.118491 -0.0535497 0 0 0
0.0582882 0.119092 -0.0513914 57 39 37
0.0639826 0.18481 -0.0314012 187 86 78
0.060073 0.162753 -0.0363455 167 103 93
0.057763 0.159902 -0.0399082 112 68 64
0.0756604 0.205558 -0.0338653 35 28 26
0.0757697 0.18855 -0.0508152 175 94 87
0.0588004 0.169244 -0.0386146 151 77 65
0.0594274 0.162779 -0.035929 49 0 0
0.0583569 0.165411 -0.0370586 100 50 31
0.0591282 0.161245 -0.0360299 89 60 56
0.0577298 0.155726 -0.0417127 118 82 70
0.0551508 0.125511 -0.0505291 66 39 37
0.0616828 0.168569 -0.033863 31 6 0
0.0580421 0.157417 -0.0400849 59 19 12
0.056698 0.145667 -0.0417005 117 77 71
0.062307 0.184785 -0.0347277 168 22 0
0.0587853 0.161565 -0.0356692 89 57 52
0.0601436 0.160602 -0.0366422 112 66 61
0.0580729 0.15758 -0.0413294 144 85 79
0.0580013 0.120699 -0.0508126 68 50 49
0.0563959 0.120265 -0.0514981 66 47 40
0.0617243 0.186327 -0.0323392 175 71 64
0.0630464 0.183648 -0.0304046 109 24 18
0.0569536 0.122773 -0.0505649 57 37 35
0.0589911 0.166449 -0.0338916 129 96 78
0.0582684 0.119983 -0.0512276 62 44 40
0.0644827 0.185555 -0.0313911 107 0 0
0.057342 0.122561 -0.0479454 66 53 48
0.0651902 0.178886 -0.0347716 0 0 0
0.0591557 0.168582 -0.0342822 140 102 84
0.0636507 0.184498 -0.0315449 210 84 70
0.063866 0.183674 -0.0322829 195 0 22
0.061 0.170897 -0.0312321 89 57 40
0.0585191 0.121864 -0.0466837 60 44 39
0.0601875 0.168643 -0.0331336 135 56 38
0.053913 0.127964 -0.0485035 146 85 79
0.0563237 0.158332 -0.0311432 244 0 0
0.0578082 0.15465 -0.0360624 0 0 0
0.0641039 0.18636 -0.0291984 162 64 58
0.0599496 0.168099 -0.0307699 170 79 70
0.0575355 0.124261 -0.048104 30 0 9
0.0592266 0.126163 -0.0442789 56 42 45
0.0610662 0.168184 -0.0340262 132 66 56
0.0569386 0.157183 -0.035576 100 78 57
0.0600337 0.119926 -0.0488191 38 28 27
0.0671161 0.184714 -0.0263403 80 0 0
0.0627945 0.182892 -0.0307135 171 91 82
0.058133 0.133209 -0.0425156 187 143 130
0.0589025 0.133439 -0.0424354 71 40 37
0.0639482 0.180867 -0.0310435 132 95 91
0.0573519 0.116533 -0.046483 0 0 0
0.0785077 0.156055 -0.0539608 62 6 8
0.0650297 0.185949 -0.0315306 172 27 21
0.0607516 0.169658 -0.0340149 165 78 62
0.0787061 0.167342 -0.0512614 78 13 0
0.059314 0.150736 -0.0342907 0 0 0
0.0588979 0.121628 -0.0464308 58 39 35
0.0604177 0.1206 -0.0468603 32 20 23
0.0608094 0.122424 -0.0482424 0 11 14
0.0642046 0.185407 -0.0317454 131 0 0
0.0601122 0.163406 -0.0317476 146 91 79
0.0606589 0.120754 -0.046133 43 35 30
0.0600158 0.12334 -0.0387132 46 0 0
0.0587139 0.130365 -0.0411127 65 0 0
0.0642412 0.124778 -0.045344 67 67 64
0.0754478 0.205295 -0.0337579 32 27 25
0.0647687 0.186498 -0.0286986 127 46 40
0.0599177 0.160689 -0.0365428 128 74 67
0.0627893 0.1202 -0.044883 53 37 33
0.0581369 0.122551 -0.0419219 0 0 0
0.0627764 0.182842 -0.0306935 160 64 55
0.0609011 0.169324 -0.0306032 75 0 0
0.0614784 0.165786 -0.0280031 25 46 37
0.060188 0.139931 -0.0341367 127 85 78
0.0662798 0.117227 -0.0453195 37 32 31
0.0640196 0.18701 -0.0297921 143 79 50
0.0579534 0.154361 -0.0361455 0 0 0
0.0621655 0.183477 -0.028105 162 0 12
0.0846908 0.181029 -0.0410854 81 0 0
0.0603716 0.140006 -0.0336535 136 87 81
0.0642451 0.149684 -0.030447 98 48 39
0.065813 0.149636 -0.0391752 62 41 28
0.0840298 0.188817 -0.0475855 211 141 129
0.064283 0.1831 -0.0329236 161 55 50
0.0659935 0.117013 -0.0456351 45 33 32
0.0640521 0.183423 -0.032963 255 116 114
0.0650526 0.187144 -0.0275471 187 90 83
0.0644521 0.172509 -0.029816 255 181 161
0.0654751 0.173373 -0.0300003 255 242 225
0.0645914 0.186122 -0.0273555 180 87 80
0.0648857 0.179532 -0.0278894 85 0 0
0.0808833 0.167328 -0.0460651 75 4 0
0.0648046 0.180345 -0.02792 100 0 0
0.0675214 0.177817 -0.0273052 69 9 12
0.0604476 0.140285 -0.0336862 133 83 76
0.0842682 0.188648 -0.0464554 135 78 66
0.0646869 0.185736 -0.0277194 177 89 80
0.0649692 0.180995 -0.0282511 164 108 80
0.0623526 0.164441 -0.0265589 116 69 60
0.0848772 0.180472 -0.0420805 112 0 0
0.0636612 0.186225 -0.0294489 183 83 76
0.0623191 0.182332 -0.0292303 222 131 134
0.0674694 0.121408 -0.041146 0 59 51
0.0778908 0.159876 -0.0440066 51 0 0
0.0823259 0.167641 -0.0429265 95 24 17
0.0652572 0.173418 -0.0299055 255 255 255
0.0690847 0.120384 -0.0445901 44 34 32
0.0626993 0.172917 -0.0279193 93 58 59
0.0645249 0.167456 -0.0268654 95 38 21
0.0652185 0.154622 -0.0309908 216 144 129
0.0672013 0.118439 -0.0433737 48 39 35
0.064314 0.185981 -0.030464 36 0 0
0.0678429 0.17697 -0.0281925 107 0 0
0.0694019 0.117819 -0.0370241 0 0 0
0.0770892 0.129303 -0.0445623 38 26 17
0.0847239 0.189258 -0.0466072 184 108 98
0.067463 0.177168 -0.0298927 6 0 0
0.0837858 0.183394 -0.0397539 188 110 95
0.0630037 0.164895 -0.0268978 153 70 50
0.0682359 0.17626 -0.0283699 146 0 0
0.0655229 0.181412 -0.0283971 122 1 0
0.0731412 0.126461 -0.0388046 27 26 31
0.0869891 0.187419 -0.0385763 184 86 51
0.0862261 0.190927 -0.0421469 216 114 115
0.066377 0.166648 -0.0274557 140 29 0
0.0814925 0.124451 -0.0418141 0 0 0
0.0747833 0.13209 -0.0419573 76 43 39
0.0852371 0.186097 -0.0430614 184 78 74
0.0712406 0.161764 -0.0283383 57 0 0
0.0645368 0.187124 -0.0296803 196 95 90
0.0663163 0.179858 -0.0290636 111 35 29
0.0689199 0.175106 -0.0279905 111 41 37
0.0862185 0.188941 -0.0444989 255 32 30
0.0852753 0.187289 -0.0394631 183 26 35
0.0684014 0.181159 -0.0281792 159 73 73
0.0700336 0.175654 -0.0274122 90 63 48
0.0675642 0.156101 -0.0300478 64 30 33
0.070033 0.158162 -0.0284895 65 0 0
0.0847318 0.190148 -0.0454009 189 119 110
0.0819345 0.163118 -0.0430428 56 12 0
0.0744928 0.180009 -0.0242645 68 68 59
0.0719546 0.119062 -0.0388769 29 36 34
0.0670469 0.15336 -0.0296755 161 148 136
0.0867042 0.191068 -0.0427274 204 59 44
0.0858311 0.188661 -0.0439289 197 36 30
0.0750599 0.135837 -0.0316889 31 11 13
0.0704408 0.162088 -0.0272205 99 44 42
0.0705445 0.16261 -0.0286953 246 161 144
0.0861047 0.186177 -0.0405589 183 103 68
0.0668232 0.187255 -0.0265722 183 111 99
0.0657033 0.187557 -0.0286952 122 46 38
0.0693387 0.179461 -0.027813 119 33 34
0.0704154 0.160219 -0.0266385 60 0 0
0.0700905 0.15794 -0.0274352 49 0 0
0.0714073 0.181407 -0.0271982 131 27 19
0.0685233 0.17663 -0.0296471 65 0 0
0.0645894 0.166281 -0.0257503 60 32 15
0.0666127 0.187803 -0.0269642 185 111 100
0.0754148 0.13676 -0.0310193 48 17 13
0.08421 0.152763 -0.0385496 17 0 0
0.0656177 0.185823 -0.0262952 177 98 80
0.0712058 0.176807 -0.0274766 156 90 77
0.0761962 0.141724 -0.0347969 154 88 74
0.0673935 0.177851 -0.0293494 80 0 0
0.0771209 0.141609 -0.0315612 81 57 57
0.0822568 0.143071 -0.0383703 193 139 141
0.0860082 0.190642 -0.0410072 215 74 64
0.0687702 0.161864 -0.0257791 98 72 54
0.0695703 0.18212 -0.0273813 156 40 52
0.0854717 0.157481 -0.0383161 72 0 0
0.0712909 0.164082 -0.0268958 47 0 0
0.0716896 0.180006 -0.0256163 178 15 10
0.0720766 0.164865 -0.028356 44 0 0
0.0705598 0.179591 -0.0292436 128 69 51
0.0768079 0.139565 -0.0324257 71 42 40
0.0708301 0.17872 -0.0267318 119 33 22
0.0765846 0.140057 -0.0311661 116 69 65
0.0706236 0.178112 -0.0278645 87 45 48
0.0692785 0.182652 -0.027495 255 174 175
0.0850853 0.194867 -0.0446671 194 118 104
0.0834374 0.157811 -0.0410275 92 45 31
0.0679823 0.177649 -0.0281451 79 0 0
0.0709654 0.162193 -0.0270568 63 0 0
0.0849694 0.180172 -0.0420384 144 0 0
0.0700493 0.188864 -0.0266435 210 135 155
0.0862895 0.189848 -0.0422479 237 31 27
0.0845297 0.185389 -0.0381698 249 51 31
0.0891812 0.195776 -0.035023 191 129 115
0.0789175 0.151573 -0.0297275 216 143 133
0.0738357 0.182904 -0.0256429 251 79 76
0.0734493 0.176635 -0.0285302 254 113 94
0.0845679 0.150556 -0.0303023 0 0 0
0.0727227 0.179862 -0.0263815 194 4 0
0.0741462 0.179789 -0.029454 105 28 0
0.086587 0.187746 -0.0445889 194 8 10
0.0855692 0.191424 -0.0378107 228 103 79
0.0728313 0.177297 -0.0291468 77 10 0
0.0708935 0.162108 -0.0285907 246 152 141
0.0808053 0.164875 -0.0252496 81 40 59
0.072509 0.179013 -0.0272977 91 5 0
0.0815599 0.159383 -0.0268705 105 53 47
0.0852788 0.165839 -0.0295227 86 0 0
0.0715785 0.191011 -0.0248712 200 114 99
0.069968 0.189523 -0.0251986 204 120 103
0.0737727 0.184249 -0.0237892 251 35 45
0.0806858 0.167678 -0.0259187 99 31 26
0.0750264 0.182515 -0.0281116 145 12 0
0.084566 0.194741 -0.0418167 227 0 0
0.0736702 0.192493 -0.0261089 221 120 104
0.0859396 0.186304 -0.0366527 194 11 3
0.0776762 0.1726 -0.0231161 161 166 135
0.0772466 0.168614 -0.0257767 32 0 0
0.0706356 0.192173 -0.0270582 198 133 124
0.0809653 0.176812 -0.0259036 146 60 43
0.0735289 0.191488 -0.0261952 214 130 114
0.0773653 0.175406 -0.0228446 162 0 0
0.0748118 0.189246 -0.0268537 253 152 116
0.08397 0.168505 -0.0263979 18 0 0
0.0718618 0.192484 -0.0254401 200 127 110
0.0809152 0.178725 -0.024935 148 59 55
0.0865864 0.192436 -0.0406103 247 97 82
0.0731245 0.192114 -0.0256804 194 120 103
0.0836776 0.170139 -0.0268172 84 9 3
0.0884913 0.188908 -0.0352132 235 55 23
0.079767 0.173118 -0.0256484 247 148 128
0.0854812 0.173272 -0.0293245 201 113 99
0.0897104 0.177576 -0.0349087 255 174 186
0.0870394 0.189442 -0.0361601 175 24 0
0.0797938 0.173081 -0.0223672 0 0 0
0.0829164 0.172493 -0.0269684 140 50 43
0.0841048 0.176671 -0.0256739 178 95 80
0.0830625 0.173014 -0.0257284 224 151 144
0.0803908 0.171292 -0.0261411 187 93 72
0.0816994 0.187539 -0.0249688 155 71 78
0.0858626 0.172985 -0.0286083 233 122 90
0.0860064 0.195776 -0.0409753 196 138 127
0.0839816 0.174577 -0.0259942 255 182 169
0.0710928 0.193934 -0.0270563 204 149 133
0.080693 0.184991 -0.0247466 98 0 0
0.0817209 0.179406 -0.0251146 220 142 133
0.0850092 0.17241 -0.0275294 255 177 166
0.0851665 0.17297 -0.0291843 137 69 59
0.0858628 0.178048 -0.035112 122 12 0
0.0833095 0.173115 -0.0274237 140 60 50
0.0806264 0.182265 -0.0246292 177 80 68
0.0803962 0.177716 -0.0255345 104 70 53
0.0805137 0.186826 -0.024366 141 31 10
0.0867546 0.195954 -0.0382885 220 145 129
0.0782156 0.17736 -0.0247209 183 85 73
0.0748945 0.185326 -0.0253571 215 103 82
0.0759078 0.187197 -0.0232127 247 95 67
0.0788991 0.180209 -0.0243915 139 55 51
0.0848099 0.172046 -0.0266713 148 63 55
0.0787368 0.181442 -0.0246617 200 88 81
0.0850018 0.171156 -0.0262428 89 5 0
0.0860871 0.178561 -0.0243997 211 119 112
0.0802634 0.175114 -0.0276766 92 0 0
0.0837624 0.17762 -0.0250051 178 95 86
0.0773586 0.190773 -0.025098 173 76 58
0.0791939 0.187942 -0.0242788 54 0 0
0.085253 0.177744 -0.0253571 144 53 36
0.0840886 0.176308 -0.025679 77 22 25
0.0890255 0.189134 -0.0340597 244 79 77
0.0737463 0.19092 -0.024865 203 140 126
0.0780514 0.182001 -0.0248186 233 101 94
0.0776748 0.183313 -0.0255877 143 84 84
0.0871107 0.181398 -0.0275663 160 77 66
0.0841617 0.175585 -0.0259824 141 16 15
0.0899247 0.177935 -0.0322539 171 194 186
0.0765434 0.192025 -0.0248761 228 112 98
0.0805216 0.181799 -0.0222708 103 6 0
0.0777438 0.18107 -0.02465 81 23 35
0.089113 0.191815 -0.0348149 157 10 0
0.0737309 0.19472 -0.0258826 200 171 154
0.0740808 0.19543 -0.0261817 212 188 172
0.0763568 0.181836 -0.0230582 148 2 0
0.0838634 0.179996 -0.0255342 193 94 86
0.0885594 0.188723 -0.0303188 179 82 67
0.0899583 0.186607 -0.0314916 187 94 75
0.0820122 0.187035 -0.0235643 209 138 121
0.0878571 0.185902 -0.033407 197 60 34
0.073897 0.194552 -0.0258695 201 166 149
0.0809942 0.188157 -0.0235067 198 88 73
0.0849738 0.180578 -0.0257563 169 67 54
0.0827297 0.179468 -0.0249355 159 84 75
0.0855096 0.180241 -0.0260922 153 103 92
0.0812705 0.186801 -0.0228267 170 101 91
0.073521 0.193368 -0.0250445 204 129 116
0.0768418 0.182153 -0.0259217 82 17 0
0.0730884 0.194543 -0.0270886 202 180 162
0.074086 0.194164 -0.0267484 210 182 165
0.0793591 0.194066 -0.0250821 205 125 110
0.0815756 0.18726 -0.0215003 199 127 115
0.0786833 0.196633 -0.0251098 207 180 161
0.0749677 0.187894 -0.0243841 179 23 15
0.0880306 0.187652 -0.0279296 174 102 94
0.0875462 0.194408 -0.0335089 201 139 125
0.07487 0.194208 -0.0261577 209 174 157
0.0798011 0.194436 -0.0247976 198 114 101
0.0810622 0.18756 -0.0229347 193 120 111
0.0862116 0.178237 -0.0273199 166 63 50
0.0749301 0.194737 -0.0262229 212 170 152
0.0818399 0.186859 -0.0233516 183 120 108
0.0880241 0.194732 -0.033107 200 137 123
0.0753599 0.195209 -0.026716 240 170 146
0.0787929 0.194925 -0.0264542 203 166 150
0.073689 0.194282 -0.0253555 202 156 140
0.0846984 0.180327 -0.0250978 157 94 85
0.0738664 0.195386 -0.0263266 200 183 166
0.0732122 0.191482 -0.0251237 209 124 111
0.0820872 0.187339 -0.0239702 174 106 96
0.0775207 0.181288 -0.0246108 107 13 18
0.0887392 0.183212 -0.0280543 179 101 91
0.0736955 0.194498 -0.0253787 203 165 149
0.0857948 0.180841 -0.0255937 172 102 88
0.0760536 0.191361 -0.0249701 192 96 79
0.0813925 0.186068 -0.0225311 188 115 100
0.0789855 0.181951 -0.0238631 177 99 74
0.0831473 0.181008 -0.0251136 185 124 118
0.0845335 0.18053 -0.0253238 136 64 57
0.0834503 0.181029 -0.0254823 178 106 95
0.0863877 0.181286 -0.026416 175 106 95
0.0872182 0.185394 -0.0279972 170 105 93
0.0877531 0.186934 -0.0297846 173 51 39
0.0861476 0.198432 -0.0328886 198 132 121
0.0796111 0.195854 -0.026138 207 168 152
0.0868376 0.182318 -0.0272348 145 74 52
0.0798352 0.192297 -0.0253861 196 114 102
0.0817047 0.186879 -0.0233764 198 110 98
0.08333 0.183136 -0.0244231 167 102 92
0.0855031 0.196574 -0.0318028 212 126 112
0.0821667 0.187116 -0.0239143 184 117 104
0.0841191 0.181126 -0.0254095 179 99 83
0.0873484 0.188056 -0.0287632 195 117 108
0.0742023 0.193708 -0.0261948 199 143 129
0.0834264 0.185158 -0.022114 163 101 94
0.0821913 0.182006 -0.0244231 174 84 70
0.0866565 0.178359 -0.0275341 192 67 48
0.0882128 0.185795 -0.0277642 122 91 84
0.0881785 0.190769 -0.031113 162 97 87
0.0868857 0.193415 -0.0320512 198 138 126
0.0622041 0.171411 -0.0468924 154 87 77
0.0734489 0.18175 -0.0477352 255 154 140
0.0767206 0.179283 -0.0508703 175 75 65
0.0598176 0.170251 -0.0409229 94 28 21
0.0652565 0.14488 -0.0575265 193 89 75
0.0589254 0.13593 -0.0554406 97 51 45
0.0552537 0.118101 -0.0582111 59 30 27
0.0545445 0.12483 -0.0616471 60 6 1
0.0555148 0.121929 -0.0531168 51 37 34
0.0770599 0.17078 -0.0528584 173 83 76
0.0733085 0.170197 -0.0493455 217 85 81
0.0752448 0.166793 -0.0488707 252 115 76
0.0620706 0.17189 -0.0315585 203 104 93
0.0764462 0.135992 -0.0553428 73 36 33
0.0774165 0.171038 -0.0486405 206 134 119
0.0758586 0.136844 -0.0547338 75 30 26
0.0791716 0.167687 -0.0462725 209 148 135
0.0697567 0.161553 -0.0348069 83 0 0
0.0791468 0.158 -0.0522059 91 49 44
0.079373 0.158482 -0.0448404 180 92 63
0.0799652 0.125445 -0.043296 63 37 31
0.0791633 0.165619 -0.0399016 255 180 172
0.0853157 0.154303 -0.0391707 134 50 32
0.0574389 0.135617 -0.0487788 128 76 69
0.0731005 0.182773 -0.0464787 64 8 0
0.0658355 0.170685 -0.0512475 87 26 22
0.0727431 0.182911 -0.0517455 185 87 76
0.065667 0.184106 -0.0339303 84 1 0
0.0770949 0.12521 -0.0416848 104 73 65
0.0797368 0.1629 -0.0296419 255 195 186
0.072208 0.171993 -0.02774 234 98 88
0.0740677 0.183996 -0.0286288 255 122 107
0.0736153 0.172173 -0.052301 59 0 0
0.0608951 0.175637 -0.0411613 224 131 117
0.0606234 0.182186 -0.0367826 255 155 129
0.0603794 0.161773 -0.0495246 183 92 81
0.0629019 0.183043 -0.0365318 255 175 163
0.0599871 0.165595 -0.0461123 108 49 43
0.063607 0.175591 -0.0467522 172 63 49
0.0589649 0.160078 -0.0461146 156 97 86
0.0608688 0.173276 -0.0416358 173 92 83
0.0688691 0.169522 -0.0532737 95 34 17
0.0676808 0.165188 -0.0542054 185 105 92
0.0641355 0.162045 -0.0509741 234 137 120
0.0615596 0.176685 -0.0386449 215 126 113
0.0586003 0.17154 -0.0420493 159 88 79
0.0615375 0.17216 -0.0405356 171 91 83
0.0579226 0.164959 -0.0455019 179 104 97
0.0602167 0.170368 -0.0376451 147 56 49
0.0606885 0.175066 -0.0373061 219 140 136
0.0552464 0.179628 -0.0393413 191 14 14
0.0597369 0.179843 -0.0390754 0 0 0
0.0595297 0.177948 -0.0365302 203 125 110
0.0646395 0.17858 -0.031429 201 115 102
0.0616928 0.172098 -0.034065 214 131 114
0.0616755 0.175596 -0.0342342 199 115 101
0.0606004 0.178979 -0.0360767 236 132 113
0.0595148 0.177783 -0.0391594 240 116 98
0.060323 0.174446 -0.0356227 235 212 213
0.0580384 0.165158 -0.0452705 186 107 96
0.0611078 0.175937 -0.0385714 176 80 71
0.0592082 0.172049 -0.0371147 184 69 65
0.0602197 0.18671 -0.0344283 255 162 153
0.0618547 0.174198 -0.0352982 192 123 109
0.0628676 0.171842 -0.0313341 196 115 102
0.0616184 0.170703 -0.0312483 219 118 100
0.0593919 0.174462 -0.0383906 236 172 163
0.0650022 0.179541 -0.0313923 148 62 53
0.0599173 0.143731 -0.0533536 179 111 102
0.0609526 0.174056 -0.0346821 220 119 111
0.0592237 0.161692 -0.0406019 22 0 0
0.0610682 0.174013 -0.0345642 212 130 112
0.0586288 0.142505 -0.04883 190 128 118
0.0614711 0.173366 -0.0367814 188 84 79
0.0753837 0.172796 -0.0511565 39 0 0
0.0775483 0.171024 -0.0527612 176 84 78
0.0607617 0.168475 -0.0339831 255 177 162
0.0626387 0.185111 -0.0273815 238 105 94
0.0755956 0.161083 -0.0536454 209 119 105
0.0603695 0.171853 -0.0340786 219 102 96
0.0629658 0.177422 -0.0321673 147 85 75
0.0782596 0.163627 -0.0522813 156 100 101
0.0590532 0.170041 -0.031504 255 255 255
0.066488 0.177611 -0.0270835 187 90 94
0.077117 0.171429 -0.0477963 48 0 0
0.0600467 0.181308 -0.0347691 115 28 29
0.0772171 0.157811 -0.0502025 216 125 112
0.0780281 0.161479 -0.0541444 194 121 110
0.0799416 0.166248 -0.0517428 106 40 31
0.0805222 0.171911 -0.0479006 78 0 0
0.0681528 0.169119 -0.0295515 253 182 168
0.0799255 0.173237 -0.0403922 207 110 100
0.064019 0.168019 -0.02735 255 255 228
0.0632292 0.183655 -0.0301275 255 168 153
0.0633332 0.178836 -0.0297372 179 68 60
0.0696873 0.182147 -0.0278027 255 150 134
0.0707333 0.16691 -0.0262642 231 126 112
0.0644503 0.179337 -0.0314306 255 183 163
0.0696707 0.180925 -0.0270402 255 127 115
0.0727856 0.177358 -0.0279883 227 61 54
0.0698076 0.181383 -0.0322951 83 21 18
0.0685943 0.182453 -0.0290348 255 196 182
0.0809281 0.153538 -0.0387997 161 102 88
0.0805729 0.155391 -0.0390527 193 101 87
0.0759088 0.187382 -0.0271997 255 188 168
0.0819939 0.178641 -0.0451856 254 139 120
0.0841256 0.162819 -0.0306176 117 61 50
0.0863175 0.179732 -0.0259758 233 103 88
0.0738109 0.175446 -0.0293449 241 128 111
0.0811217 0.164357 -0.0266084 182 106 93
0.0832937 0.18591 -0.0424244 255 99 88
0.0748008 0.173154 -0.0294874 255 174 158
0.0726482 0.167204 -0.0296531 199 108 93
0.0897333 0.174923 -0.0318501 247 133 115
0.0878661 0.185154 -0.0281319 252 147 131
0.0846634 0.164688 -0.0308781 163 100 90
0.0809337 0.165513 -0.0264119 199 129 116
0.0796195 0.175392 -0.0218708 224 121 103
0.0745866 0.180741 -0.0267728 253 126 115
0.061946 0.176749 -0.0441417 206 110 101
0.0666457 0.175217 -0.049004 97 51 45
0.0731003 0.165317 -0.0564853 117 41 35
0.0716707 0.188572 -0.0454841 48 15 0
0.063861 0.179595 -0.0330241 164 76 64
0.0774056 0.183177 -0.0497396 249 139 125
0.0791225 0.15282 -0.0306516 141 86 78
0.0836304 0.17496 -0.0419252 255 167 134
0.0833551 0.186685 -0.0394951 255 178 159
0.0674243 0.180148 -0.025602 255 255 255
0.0719078 0.175763 -0.0272574 255 178 164
0.0625059 0.181558 -0.0365813 255 178 157
0.07495 0.166216 -0.0499438 229 149 128
0.0802812 0.160214 -0.0422512 146 73 71
0.0814419 0.165173 -0.0448059 155 72 66
0.0831911 0.180496 -0.0399735 250 139 122
0.0839414 0.160906 -0.0408412 95 46 39
0.0744667 0.177613 -0.0307319 96 17 2
0.0761782 0.189491 -0.0262884 255 176 155
0.0621711 0.181861 -0.0366362 255 195 178
0.0837958 0.177695 -0.0369179 255 237 213
0.0853988 0.184135 -0.0383182 255 163 145
0.0621713 0.18219 -0.0375011 255 150 132
0.0848237 0.149776 -0.0352797 187 110 92
0.0711054 0.16778 -0.0510052 255 163 145
0.065193 0.167116 -0.051491 125 59 51
0.0791586 0.160539 -0.0462439 167 89 73
0.0838902 0.168035 -0.0419556 224 158 137
0.0795995 0.134208 -0.0494351 51 24 21
0.0787353 0.130263 -0.0426 94 58 54
0.0636098 0.162768 -0.0515278 150 82 73
0.0724485 0.117491 -0.0406443 83 48 44
0.0857559 0.192893 -0.0301674 255 174 157
0.0672013 0.124128 -0.0426107 39 26 24
0.0549334 0.122668 -0.053105 133 75 69
0.0722153 0.164082 -0.03567 222 145 129
0.0667705 0.175911 -0.0353545 48 0 0
0.0656322 0.191331 -0.0315409 181 88 80
0.0779555 0.134266 -0.0570573 20 0 0
0.0572963 0.136571 -0.0512851 131 67 56
0.0722171 0.164341 -0.0372692 245 148 144
0.0666189 0.129529 -0.0419876 21 14 13
0.0657144 0.191352 -0.0315692 180 87 79
0.0809672 0.159218 -0.0403429 192 96 92
0.0685999 0.172321 -0.0477955 181 91 78
0.0739221 0.169298 -0.0492512 231 144 129
0.074525 0.137496 -0.0578131 85 32 30
0.0771878 0.117895 -0.0376526 0 0 0
0.0862715 0.191816 -0.0362563 255 156 144
0.0616986 0.181719 -0.0300986 255 181 156
0.0756753 0.142946 -0.0353806 193 112 108
0.0832397 0.185468 -0.0414599 134 34 22
0.0728808 0.173321 -0.0294982 255 255 252
0.0856244 0.192573 -0.0436935 255 239 221
0.0726856 0.180335 -0.025211 255 167 156
0.0822296 0.157254 -0.0410331 116 56 46
0.0852953 0.180494 -0.045876 255 173 155
0.086469 0.177801 -0.0349307 255 165 147
0.0768319 0.138507 -0.0482939 164 103 104
0.0664127 0.170804 -0.0517952 121 44 35
0.0724637 0.171621 -0.0538421 159 84 74
0.064956 0.164812 -0.0506742 131 76 73
0.0637162 0.169589 -0.0392425 82 12 0
0.0592452 0.188921 -0.036101 255 135 135
0.0768094 0.167599 -0.0302537 194 97 83
0.0833455 0.153279 -0.0400119 119 85 80
0.0567065 0.134712 -0.0526831 89 55 50
0.0718936 0.16816 -0.0523216 255 142 137
0.0686665 0.170265 -0.0542923 136 54 61
0.063795 0.178799 -0.0335719 255 176 159
0.0767127 0.0804669 -0.0503465 0 0 0
0.0729453 0.121014 -0.0416197 95 60 53
0.0819538 0.157086 -0.0427448 98 51 44
0.0761735 0.119981 -0.0434176 32 0 0
0.0578433 0.137876 -0.0546444 80 45 41
0.0580678 0.137867 -0.0552652 40 8 7
0.0694111 0.164078 -0.0359392 133 69 61
0.0629154 0.161156 -0.0469365 196 123 112
0.0770824 0.137726 -0.0511704 78 38 31
0.0632887 0.180765 -0.0375039 248 137 117
0.0840319 0.180781 -0.0427658 255 147 128
0.0605891 0.141589 -0.03409 133 84 78
0.0778062 0.136547 -0.0506262 84 82 72
0.0785447 0.133496 -0.0448739 120 68 64
0.0644589 0.11924 -0.0434009 46 47 45
0.07508 0.160931 -0.0360566 0 0 0
0.0690014 0.188584 -0.0466271 219 92 71
0.0901905 0.191798 -0.0352136 255 149 129
0.0775905 0.138867 -0.0490618 68 47 44
0.0649193 0.167321 -0.051572 127 71 53
0.0590291 0.168257 -0.0432757 144 70 63
0.0577544 0.12711 -0.0442677 110 83 73
0.0649024 0.152761 -0.0336957 130 81 75
0.0631722 0.166559 -0.0509305 128 65 59
0.0815766 0.164802 -0.04466 118 60 52
0.0796311 0.125057 -0.0441485 121 75 66
0.0729319 0.121081 -0.0340234 199 133 124
0.0834441 0.186914 -0.0410003 255 196 184
0.0728255 0.175983 -0.0278494 255 169 148
0.0658289 0.166613 -0.0531413 159 97 88
0.0788899 0.128042 -0.0438914 101 71 61
0.0782582 0.128437 -0.0429445 105 74 68
0.0802177 0.1693 -0.026264 158 86 80
0.0665366 0.166961 -0.0500408 225 127 115
0.083041 0.155409 -0.0331392 165 100 87
0.0616029 0.173811 -0.0340187 255 185 165
0.0814112 0.165876 -0.045294 143 60 46
0.0631477 0.181738 -0.035279 255 163 146
0.0686558 0.163672 -0.0395535 176 84 84
0.0692494 0.161608 -0.0366587 199 145 148
0.0710773 0.0755343 -0.0473416 0 0 0
0.0610517 0.186665 -0.0340012 196 102 96
0.0620803 0.172066 -0.0313547 212 121 107
0.0645306 0.176801 -0.0345629 104 0 6
0.0628071 0.182288 -0.0322869 255 69 81
0.0847319 0.189 -0.0476906 255 158 145
0.0617718 0.180539 -0.0386649 255 142 124
0.0842866 0.185383 -0.0382055 255 124 99
0.0834824 0.184603 -0.0415199 255 137 112
0.0689367 0.142348 -0.0603651 82 54 49
0.0772684 0.138088 -0.0504549 65 18 19
0.0635531 0.160868 -0.0503158 255 152 135
0.0613257 0.179649 -0.032369 59 0 0
0.0622948 0.15864 -0.0517707 193 98 91
0.0609526 0.177761 -0.0435098 255 110 99
0.0648613 0.16281 -0.0514764 238 114 109
0.0670459 0.166399 -0.0530592 178 97 92
0.0756486 0.182959 -0.026853 255 147 135
0.0629916 0.173402 -0.0357579 255 170 152
0.0732735 0.191179 -0.0485932 255 145 127
0.0628798 0.148034 -0.0589226 70 50 47
0.084344 0.185015 -0.0429443 255 179 160
0.0583003 0.131321 -0.0433036 24 0 0
0.0575529 0.135715 -0.058278 74 37 36
0.05889 0.184323 -0.0387972 136 3 2
0.0626396 0.181566 -0.0363937 195 106 90
0.0784366 0.128194 -0.0413009 103 73 69
0.0583193 0.173953 -0.0384591 255 109 105
0.0638379 0.169792 -0.0293415 255 255 255
0.0625485 0.175301 -0.0304048 255 255 255
0.0615191 0.173658 -0.0345427 238 141 126
0.079723 0.192524 -0.0485778 255 143 138
0.0728214 0.172989 -0.0277794 255 186 167
0.0695616 0.167588 -0.0511157 255 180 165
0.0749881 0.163122 -0.0547083 120 42 37
0.0686007 0.163209 -0.0553118 182 106 91
0.064037 0.164476 -0.0422221 19 0 0
0.0627022 0.180013 -0.0297205 255 216 194
0.0612899 0.166381 -0.0313764 133 56 49
0.0590176 0.176374 -0.0375357 255 242 217
0.0643609 0.165237 -0.0516924 168 98 92
0.0637934 0.180027 -0.0331913 232 130 113
0.0659696 0.16537 -0.0385814 139 78 70
0.0787251 0.160918 -0.0466145 164 56 37
0.0788038 0.185254 -0.0496947 255 162 147
0.0857834 0.183291 -0.0385338 255 155 129
0.0599709 0.116876 -0.0489125 0 0 0
0.0738818 0.1879 -0.0511913 255 189 182
0.0588985 0.16886 -0.041811 255 177 158
0.0732066 0.167719 -0.0524206 255 143 144
0.0643853 0.169532 -0.0324039 184 107 99
0.0663402 0.176157 -0.0318604 115 52 48
0.063361 0.1838 -0.0353395 255 167 153
0.076387 0.164312 -0.0471783 255 149 126
0.0772452 0.139856 -0.063211 66 36 40
0.0574358 0.142443 -0.0474657 134 77 66
0.0807664 0.172909 -0.0260962 255 161 145
0.0626628 0.143348 -0.0578111 98 52 52
0.0661423 0.182043 -0.0302041 255 173 155
0.0664539 0.166185 -0.0522921 187 107 95
0.0806002 0.161702 -0.050581 141 64 55
0.0609535 0.172002 -0.0307215 217 122 107
0.0804599 0.158141 -0.0278694 173 105 98
0.0617283 0.17554 -0.0323021 255 255 255
0.0846559 0.186947 -0.0381625 255 145 125
0.0783073 0.165092 -0.045911 105 49 47
0.0810016 0.174021 -0.026276 255 180 164
0.058935 0.175036 -0.0426422 255 193 174
0.0813108 0.162702 -0.0468489 113 40 27
0.0635858 0.184295 -0.0312395 198 63 54
0.0656975 0.166025 -0.052088 185 105 96
0.0585946 0.140105 -0.0338992 125 84 77
0.0767343 0.119031 -0.0447187 11 8 6
0.080529 0.132742 -0.0463599 84 37 24
0.076251 0.169473 -0.0447099 249 149 132
0.0700791 0.193166 -0.0322072 150 60 45
0.0847034 0.17627 -0.0278302 237 147 131
0.0622268 0.181834 -0.0366246 255 178 158
0.0640083 0.183263 -0.0334389 255 158 138
0.0616802 0.180846 -0.0391999 255 170 155
0.0588912 0.160083 -0.0482403 217 121 102
0.0640603 0.187095 -0.0413181 255 149 139
0.0833904 0.185967 -0.0417032 251 145 131
0.076405 0.184608 -0.0458446 255 242 223
0.0869773 0.184923 -0.0324048 255 155 134
0.0669728 0.166534 -0.0554977 153 89 86
0.0846461 0.175909 -0.0283575 255 222 208
0.077007 0.124499 -0.0384395 92 58 54
0.0773161 0.182773 -0.0466746 255 207 182
0.0616833 0.180646 -0.0402035 255 167 152
0.0646699 0.180784 -0.031195 214 129 116
0.0773413 0.169757 -0.0415651 255 156 138
0.0643988 0.160796 -0.0401435 0 0 0
0.0837413 0.182507 -0.0434464 255 202 177
0.0860529 0.188138 -0.0265654 255 186 161
0.0634057 0.185815 -0.027727 255 182 159
0.0641379 0.176842 -0.038245 98 0 0
0.0675212 0.184229 -0.0297083 255 191 176
0.078325 0.18162 -0.0465123 255 198 171
0.0647715 0.16437 -0.0515241 183 115 104
0.0798705 0.134457 -0.0488021 49 20 18
0.0686998 0.142138 -0.0612937 65 25 24
0.0554372 0.130754 -0.0435857 181 112 104
0.0774201 0.169676 -0.0430816 255 192 173
0.0771498 0.169745 -0.043498 255 181 163
0.0759229 0.170434 -0.0461169 197 98 88
0.0722932 0.184321 -0.0497147 255 237 233
0.0634071 0.182258 -0.0333958 255 212 188
0.0794188 0.175865 -0.0411918 49 0 0
0.0711173 0.167989 -0.0546051 106 21 8
0.077811 0.168243 -0.0417397 255 158 134
0.0567346 0.171337 -0.0396093 255 215 207
0.0651201 0.16806 -0.0419721 35 0 0
0.082195 0.188928 -0.0404011 220 121 106
0.0628866 0.144419 -0.0557386 108 64 60
0.0597836 0.166584 -0.0286449 255 255 255
0.0585473 0.137339 -0.0582785 88 56 52
0.0564836 0.115871 -0.0562815 46 27 23
0.0610831 0.115629 -0.0549486 35 29 26
0.0691452 0.105743 -0.0419507 29 0 0
0.0549768 0.131814 -0.0500567 121 73 66
0.0504375 0.126777 -0.0565719 77 74 67
0.0561451 0.133218 -0.062716 0 0 0
0.0536809 0.131497 -0.0537612 94 51 46
0.0811416 0.161284 -0.0450082 140 62 51
0.0836594 0.175786 -0.0401607 255 204 167
0.0626722 0.135596 -0.068437 115 65 62
0.0548807 0.128286 -0.0587937 102 66 59
0.0667019 0.10981 -0.0610971 37 41 47
0.0499354 0.118102 -0.0608984 18 0 0
0.0757723 0.153524 -0.0592746 39 0 0
0.0605163 0.160651 -0.0363884 236 142 124
0.0674205 0.110587 -0.0624133 52 26 25
0.0535914 0.104881 -0.045594 0 0 0
0.0634325 0.11638 -0.0513672 31 28 25
0.060214 0.115102 -0.0576458 53 24 22
0.0741276 0.112749 -0.0503694 34 25 23
0.0793026 0.162549 -0.0528028 131 59 49
0.0644246 0.170136 -0.0265649 255 165 152
0.0764168 0.110342 -0.0503091 24 19 16
0.0697867 0.094389 -0.049681 54 0 5
0.0656103 0.168919 -0.0267844 214 130 118
0.0776594 0.137904 -0.0510386 43 13 8
0.0765805 0.108878 -0.0495319 12 10 9
0.0790754 0.15819 -0.0546319 116 41 33
0.0679432 0.158431 -0.0319803 188 116 102
0.0836817 0.161893 -0.042421 96 48 38
0.0811605 0.169861 -0.0461681 196 103 95
0.0804234 0.131779 -0.0460396 79 49 42
0.0843255 0.15083 -0.0326462 96 33 31
0.0716314 0.18262 -0.0275705 255 169 154
0.0850319 0.166899 -0.0372776 142 79 70
0.0864769 0.176887 -0.0337669 226 124 113
0.0810796 0.131923 -0.0524085 100 72 62
0.0798311 0.18517 -0.0253914 255 226 200
0.0833497 0.172564 -0.0429672 245 115 91
0.0683259 0.171135 -0.053243 208 112 109
0.0522323 0.135834 -0.0431947 0 0 0
0.0611283 0.173741 -0.0424324 169 94 85
0.0797291 0.137401 -0.0491285 53 22 20
0.0721146 0.162939 -0.0583243 8 0 0
0.0747855 0.150568 -0.0614983 16 0 0
0.0775567 0.136418 -0.0525157 67 22 18
0.0621245 0.167445 -0.0402586 158 62 51
0.0788335 0.160147 -0.0481689 113 53 39
0.0828065 0.155729 -0.0289948 152 84 76
0.0826068 0.15265 -0.0399407 141 81 71
0.0870625 0.184409 -0.0306938 240 102 89
0.0667019 0.168559 -0.0535568 124 63 50
0.0629099 0.144264 -0.0587201 22 0 0
0.059224 0.185217 -0.0328722 255 152 138
0.0901941 0.190654 -0.0396282 255 113 94
0.0738274 0.140573 -0.060171 119 54 47
0.0833786 0.152443 -0.0365151 141 77 67
0.0746094 0.151791 -0.0619973 121 52 59
0.0546965 0.126045 -0.0524534 67 37 34
0.0555702 0.121448 -0.0536082 75 44 40
0.0765565 0.0901066 -0.0563927 59 64 62
0.0815048 0.163541 -0.0449039 121 53 44
0.0630136 0.127196 -0.0648638 40 20 19
0.0807843 0.185476 -0.0220075 255 236 214
0.0844514 0.161904 -0.0294827 157 94 81
0.0623306 0.103271 -0.0438354 0 0 0
0.0573594 0.160666 -0.0455369 157 84 75
0.0581717 0.163933 -0.039316 151 73 64
0.0636691 0.113995 -0.0527081 21 20 18
0.0834672 0.16151 -0.0296121 178 104 94
0.0798159 0.179787 -0.0258091 253 150 132
0.0720619 0.169128 -0.0373293 230 165 155
0.0699714 0.183907 -0.0252753 255 255 255
0.0853058 0.167402 -0.0244813 135 0 0
0.0796005 0.133584 -0.0485772 49 22 19
0.0622245 0.102225 -0.0674695 0 0 0
0.0705641 0.164318 -0.0260765 150 31 26
0.0843729 0.160792 -0.0393031 108 56 49
0.0804053 0.133457 -0.0472945 66 33 30
0.0770869 0.13374 -0.0564855 105 79 71
0.0832766 0.1549 -0.0309881 138 78 65
0.0799389 0.165185 -0.0512919 138 64 52
0.0578632 0.118127 -0.0528958 46 27 24
0.0761265 0.100387 -0.0500893 26 23 18
0.0800511 0.165034 -0.0496587 139 78 67
0.0802773 0.160728 -0.0472127 108 62 47
0.0595566 0.170059 -0.0440861 159 87 82
0.0708118 0.17764 -0.0553835 255 144 132
0.0802462 0.155858 -0.028598 229 132 113
0.0735549 0.169059 -0.053329 97 28 25
0.0720741 0.175408 -0.0270571 240 255 255
0.0869162 0.186204 -0.0365969 255 203 178
0.0759461 0.170921 -0.0493426 18 0 0
0.0534766 0.113895 -0.0669537 0 0 0
0.0660771 0.112401 -0.0575955 27 22 20
0.0769567 0.10483 -0.0521982 23 22 18
0.0733742 0.103687 -0.0504918 28 36 0
0.0806253 0.146959 -0.0325588 188 130 118
0.0837398 0.179027 -0.0270732 255 169 150
0.065556 0.129903 -0.0674836 1 0 0
0.084806 0.17767 -0.0405868 255 255 255
0.0853333 0.159874 -0.0386204 195 127 125
0.0778709 0.136048 -0.0633431 0 0 0
0.0739296 0.0895303 -0.0707003 0 0 0
0.0579511 0.114821 -0.0471885 39 0 0
0.0859585 0.177519 -0.024392 193 95 71
0.0839394 0.132705 -0.0392163 67 29 25
0.0844042 0.174069 -0.0268077 232 156 143
0.0767375 0.0835043 -0.0651709 0 0 0
0.064463 0.101837 -0.0725375 33 13 14
0.0582703 0.110393 -0.0639115 39 17 16
0.06234 0.116643 -0.0520776 37 27 25
0.0759572 0.135367 -0.0575323 92 48 46
0.0495761 0.14897 -0.0406218 0 0 0
0.066444 0.16156 -0.0567804 174 101 103
0.07988 0.180082 -0.0253559 255 186 166
0.0581508 0.153006 -0.0373439 37 7 7
0.0740536 0.111997 -0.0522898 28 21 18
0.0754865 0.0698983 -0.0498211 0 0 0
0.0682778 0.161473 -0.0578724 166 127 134
0.0545674 0.100361 -0.0475209 0 0 0
0.0834248 0.182202 -0.0248642 255 199 176
0.0582965 0.107458 -0.0629546 0 0 0
0.0575049 0.159541 -0.0467198 169 111 101
0.0684672 0.15873 -0.0321095 138 69 58
0.0720594 0.182348 -0.0521745 255 255 255
0.0720638 0.184378 -0.0207003 233 255 255
0.0872491 0.105774 -0.0482894 0 0 0
0.0844472 0.174701 -0.0275317 255 190 170
0.0890923 0.1095 -0.0412465 0 0 0
0.0758512 0.156122 -0.0416185 186 139 129
0.0666095 0.136967 -0.0671286 125 72 69
0.0761949 0.181411 -0.0270324 255 247 220
0.0857594 0.183211 -0.0385118 255 129 111
0.080153 0.178635 -0.0469586 255 255 244
0.0740189 0.169075 -0.0546868 115 17 4
0.0781254 0.184596 -0.0499492 255 139 115
0.0803494 0.187518 -0.0488116 255 182 165
0.0603407 0.0936872 -0.0504866 76 0 0
0.0553036 0.148701 -0.0510857 210 122 116
0.0675817 0.149853 -0.0614275 44 0 0
0.0555145 0.100274 -0.0450133 0 0 0
0.0840844 0.129243 -0.0394526 0 0 0
0.0516192 0.120589 -0.0576193 255 194 171
0.0587422 0.110529 -0.0510117 18 54 52
0.0662673 0.1439 -0.0614466 96 54 51
0.0707996 0.185044 -0.0467857 255 187 173
0.0855976 0.197244 -0.0413047 255 226 207
0.0754405 0.155561 -0.0448926 8 0 0
0.074057 0.19254 -0.0483682 255 125 101
0.0662089 0.168724 -0.0276293 232 146 126
0.0663786 0.0854629 -0.0494381 0 0 0
0.0624428 0.177361 -0.0327013 255 255 255
0.0649437 0.186226 -0.044133 255 160 141
0.0853455 0.184194 -0.0382907 255 81 64
0.0644693 0.0932529 -0.0685026 0 0 0
0.0579458 0.0830102 -0.0570589 0 0 0
0.0568271 0.118993 -0.0521965 57 38 36
0.0552566 0.161252 -0.042305 196 134 104
0.057118 0.0854444 -0.0571093 255 80 92
0.0518961 0.151904 -0.0404398 255 226 211
0.0630605 0.181722 -0.0356891 255 190 163
0.0470008 0.119767 -0.0531058 0 0 0
0.0481777 0.130428 -0.0336381 162 0 0
0.0551705 0.0984723 -0.0642012 180 108 96
0.0599533 0.113264 -0.0495497 50 52 53
0.086864 0.172218 -0.0301407 255 175 155
0.0766499 0.134364 -0.0297188 255 233 215
0.0563471 0.0969497 -0.0453474 0 0 0
0.0780837 0.124269 -0.0386838 80 51 45
0.070716 0.167784 -0.0541688 78 0 0
0.0785868 0.171897 -0.0391919 255 196 180
0.0841144 0.162152 -0.0310803 149 89 80
0.0779814 0.165428 -0.0543783 142 63 54
0.0873091 0.190833 -0.0355241 255 150 135
0.0607505 0.187885 -0.0335735 255 174 158
0.0860051 0.168574 -0.026088 192 84 67
0.05505 0.150523 -0.0473716 23 0 0
0.077625 0.168692 -0.0420802 255 151 143
0.0657164 0.169493 -0.0419354 24 0 0
0.0666023 0.108226 -0.0708634 58 32 30
0.062997 0.126634 -0.0650752 39 22 20
0.0797307 0.1335 -0.0473087 68 36 35
0.0549423 0.155995 -0.035665 255 215 196
0.0623329 0.0935453 -0.0607354 255 185 142
0.0595647 0.137865 -0.058259 105 42 36
0.0540394 0.115758 -0.0580706 194 99 96
0.0658197 0.110594 -0.0603671 56 37 37
0.0712697 0.106892 -0.0485952 0 0 0
0.0558916 0.14486 -0.0485392 184 113 104
0.054965 0.140209 -0.0432164 144 92 91
0.0695716 0.189631 -0.0447992 111 38 25
0.0572958 0.157446 -0.0450957 157 87 77
0.0573736 0.132218 -0.0594349 71 35 31
0.0538127 0.1307 -0.0549646 87 35 32
0.0771751 0.167047 -0.0430002 156 110 95
0.0806195 0.158536 -0.0446606 108 48 40
0.0672769 0.167752 -0.0495177 211 154 140
0.0674272 0.139063 -0.0639621 55 24 21
0.0556981 0.123622 -0.058132 120 72 64
0.0611062 0.106697 -0.0596723 32 41 27
0.0526227 0.118599 -0.0593392 0 0 0
0.0734068 0.150257 -0.0626533 25 0 0
0.0592523 0.160873 -0.0355982 239 142 128
0.059263 0.168227 -0.0357986 182 121 110
0.0659154 0.110609 -0.0626194 34 21 21
0.0553497 0.0970825 -0.0449522 0 0 0
0.0661749 0.116076 -0.0496338 43 31 28
0.0740104 0.112292 -0.0482156 34 30 28
0.0759829 0.113835 -0.0510363 35 21 18
0.0756383 0.111895 -0.0467341 33 28 25
0.0773188 0.134853 -0.0535126 80 29 24
0.0704483 0.0927576 -0.0489163 0 0 0
0.0783141 0.13771 -0.0513446 48 14 10
0.0779034 0.102705 -0.0497799 0 4 0
0.0818225 0.157114 -0.0408907 106 65 56
0.0823253 0.169647 -0.0445701 186 103 94
0.081153 0.128975 -0.0445023 72 45 45
0.0842794 0.172856 -0.0388379 144 78 70
0.0838319 0.156826 -0.0313127 133 71 64
0.0665757 0.187532 -0.0254571 255 201 180
0.0855918 0.171464 -0.0321174 237 148 129
0.082058 0.162649 -0.0276927 139 70 57
0.081007 0.134187 -0.0451763 65 35 29
0.0732133 0.118535 -0.0292177 255 215 196
0.0777108 0.12802 -0.0416384 82 49 45
0.0551282 0.13805 -0.0428345 117 77 70
0.0727644 0.191834 -0.0247068 255 237 208
0.0780221 0.136778 -0.0511256 71 29 21
0.066723 0.184655 -0.0327291 188 85 74
0.0709107 0.162965 -0.0570842 131 64 56
0.0746462 0.156137 -0.0596975 31 0 0
0.0578812 0.137703 -0.0597164 85 63 57
0.0791622 0.154631 -0.030539 160 106 97
0.0831199 0.156793 -0.0409987 145 80 70
0.080379 0.161791 -0.0309555 200 100 86
0.0690211 0.173757 -0.0523009 173 69 56
0.0770142 0.166166 -0.0437561 96 49 42
0.0672454 0.16701 -0.0527204 113 62 55
0.0686362 0.165579 -0.0254509 195 131 119
0.0616599 0.145422 -0.0599198 72 55 44
0.0615417 0.122376 -0.0543405 0 0 0
0.0636754 0.187009 -0.0352505 255 133 116
0.0809297 0.168941 -0.0266009 255 170 156
0.085208 0.188562 -0.0364642 255 141 124
0.0818295 0.153505 -0.0397462 123 65 59
0.0733175 0.152708 -0.059252 67 10 7
0.0556093 0.122015 -0.0563581 28 17 14
0.0739653 0.15104 -0.0593099 51 0 0
0.0646818 0.155778 -0.0330866 191 129 126
0.0758235 0.0894436 -0.0590917 64 52 45
0.0637622 0.0930868 -0.0408047 0 0 0
0.0799749 0.135524 -0.0495208 34 5 0
0.0776402 0.0931195 -0.0524065 0 0 0
0.0570196 0.161236 -0.0471487 181 119 106
0.0607269 0.164711 -0.0417338 186 100 83
0.0675635 0.115398 -0.0463599 36 30 26
0.0829472 0.162963 -0.0296593 187 118 107
0.0835942 0.184183 -0.0212923 255 118 103
0.0601066 0.161344 -0.0497922 183 106 96
0.0584284 0.162067 -0.0352032 114 57 53
0.0650249 0.0986334 -0.062668 74 0 0
0.0723002 0.166617 -0.0301156 126 60 48
0.0741418 0.123314 -0.039703 78 46 40
0.0796244 0.133589 -0.0486221 49 22 19
0.0766841 0.133388 -0.054804 59 30 27
0.0576604 0.120946 -0.0481958 54 35 30
0.0769577 0.103191 -0.0483224 22 24 20
0.0814868 0.163355 -0.0449927 135 66 57
0.0793979 0.160898 -0.0452974 158 66 54
0.0609193 0.170751 -0.044918 149 70 60
0.0612969 0.174338 -0.0384173 165 79 70
0.066821 0.184945 -0.0294392 255 210 193
0.0742033 0.169209 -0.0530098 147 51 51
0.0861809 0.182226 -0.0387425 255 160 137
0.0718743 0.176427 -0.0268987 255 255 255
0.0585452 0.171518 -0.0408011 255 130 116
0.0749677 0.188944 -0.0508792 255 168 149
0.084395 0.183028 -0.0387118 255 54 35
0.0724238 0.185216 -0.0277297 255 176 153
0.0626473 0.160901 -0.0534068 178 101 89
0.0782514 0.13852 -0.0549052 59 31 26
0.0757784 0.111324 -0.0535761 30 20 18
0.0865096 0.140618 -0.0343613 200 196 160
0.0627711 0.132276 -0.065371 0 0 0
0.0675987 0.157201 -0.0285681 165 99 86
0.0848623 0.163753 -0.0379163 142 76 63
0.0589558 0.137236 -0.0600558 86 50 47
0.0608732 0.176347 -0.0404775 227 138 125
0.0752732 0.0948979 -0.0722388 0 0 0
0.0534996 0.0994948 -0.0488205 0 0 0
0.0817387 0.124936 -0.0417689 0 9 0
0.0682572 0.114375 -0.0464928 37 38 33
0.0725971 0.100288 -0.0613711 0 0 0
0.0908362 0.182358 -0.0290095 255 128 111
0.0607853 0.10502 -0.0677152 69 11 16
0.0579451 0.16369 -0.0459721 161 63 74
0.0673381 0.143321 -0.0629218 65 30 27
0.0548414 0.114783 -0.0644525 25 0 0
0.063907 0.115297 -0.0552135 31 28 24
0.0680137 0.112915 -0.0474263 24 35 29
0.0635693 0.183401 -0.0347214 255 150 137
0.0750194 0.135698 -0.0594821 91 42 38
0.0657225 0.16278 -0.0560532 152 86 71
0.0780628 0.0974098 -0.0540697 10 16 14
0.0689709 0.0738191 -0.0508 0 0 0
0.0537047 0.102721 -0.0422311 0 0 0
0.0525882 0.10892 -0.064742 0 0 0
0.073544 0.114427 -0.0480323 35 26 24
0.0716328 0.186538 -0.0466607 255 161 142
0.0813667 0.134988 -0.0430676 73 43 44
0.0879471 0.116618 -0.0433657 0 0 0
0.0633845 0.129102 -0.0626442 46 18 17
0.0804175 0.17995 -0.0248534 255 233 202
0.0883922 0.105763 -0.0431247 0 0 0
0.0731234 0.168994 -0.0291142 206 113 96
0.0676989 0.134779 -0.0695347 138 80 69
0.0841715 0.183556 -0.0394955 255 83 54
0.0825091 0.171946 -0.040332 208 101 90
0.0838606 0.181615 -0.0481383 255 208 189
0.0825892 0.175538 -0.0250853 234 136 121
0.0824518 0.193925 -0.0453518 255 240 222
0.0848298 0.183405 -0.0388663 255 98 66
0.0661215 0.184657 -0.0434816 108 42 27
0.0649355 0.161422 -0.0291418 225 142 127
0.0854502 0.174055 -0.0290742 255 191 172
0.0540292 0.146979 -0.0490282 0 0 0
0.0539915 0.105417 -0.0459365 0 0 0
0.0680785 0.11562 -0.0467316 33 24 21
0.0621869 0.109156 -0.0490066 110 60 48
0.0837155 0.178999 -0.0427286 255 240 221
0.0689108 0.142479 -0.0625881 69 31 27
0.0669071 0.185537 -0.0450802 255 144 128
0.089204 0.181349 -0.0279406 255 170 150
0.0791113 0.168751 -0.0387468 255 209 185
0.0580534 0.17217 -0.0288888 255 255 255
0.087727 0.194256 -0.0394247 255 235 211
0.0757818 0.152069 -0.046007 88 33 30
0.0658356 0.187686 -0.0264644 255 179 159
0.0647185 0.186814 -0.0423235 255 172 157
0.0612026 0.0941873 -0.0696399 0 0 0
0.054481 0.130728 -0.0682774 0 0 0
0.0523296 0.114626 -0.0572575 77 47 0
0.0606764 0.180551 -0.0381775 255 240 231
0.0551655 0.163231 -0.0416401 255 179 176
0.0767696 0.145737 -0.0613159 0 56 68
0.0667427 0.0936229 -0.0557905 0 89 0
0.0622231 0.112103 -0.0501743 120 55 56
0.063695 0.1696 -0.0270253 216 134 118
0.0869598 0.17117 -0.0305894 255 200 182
0.0762536 0.133894 -0.032139 251 157 162
0.0796214 0.180148 -0.0247872 255 198 178
0.0575168 0.0975138 -0.0490655 0 0 0
0.0756805 0.125874 -0.0391116 108 69 62
0.0755331 0.183721 -0.0476728 255 184 174
0.0665679 0.118665 -0.0422707 37 32 31
0.07858 0.162099 -0.055052 161 86 81
0.0667967 0.184579 -0.0462198 255 113 96
0.0794748 0.181466 -0.0275379 255 171 154
0.0793694 0.152197 -0.0324794 185 111 105
0.0848541 0.185315 -0.0374789 225 96 77
0.0543757 0.149249 -0.0477776 0 0 0
0.0770533 0.17026 -0.0420342 255 176 163
0.065534 0.169 -0.042595 4 0 0
0.0611802 0.17988 -0.039909 255 156 133
0.0638308 0.102943 -0.0697192 146 113 98
0.0733759 0.185643 -0.0266958 255 255 255
0.0557632 0.113823 -0.0569182 54 42 39
0.0834917 0.0678387 -0.0566505 0 0 0
0.0646718 0.123029 -0.0670996 63 44 40
0.0656173 0.188401 -0.0325525 255 172 156
0.0621588 0.182615 -0.0405388 255 210 189
0.0625206 0.116584 -0.047438 73 45 43
0.0603144 0.104378 -0.0676298 78 19 18
0.0657663 0.195272 -0.0403277 171 96 87
0.0658063 0.185721 -0.0465422 142 76 69
0.0718604 0.189743 -0.048351 159 84 72
0.0748823 0.192838 -0.0482145 160 89 81
0.0642905 0.192212 -0.0415103 184 111 100
0.064147 0.187908 -0.0439114 141 78 70
0.064165 0.187863 -0.0439529 142 78 70
0.0646504 0.186075 -0.0454415 156 90 83
0.0750104 0.191825 -0.0493624 174 109 100
0.0639942 0.187551 -0.0443671 144 80 73
0.0644728 0.186044 -0.0452679 153 86 78
0.0646024 0.185641 -0.0456162 152 88 80
0.0706656 0.190411 -0.0475189 153 84 75
0.0768148 0.192119 -0.0495797 170 104 95
0.064875 0.193692 -0.0419441 187 112 101
0.0651089 0.187947 -0.0440854 132 49 42
0.0748225 0.192313 -0.0483743 163 92 83
0.0630201 0.190078 -0.0424104 144 77 69
0.0629841 0.190671 -0.0422013 164 89 80
0.0745889 0.19328 -0.0478765 160 89 81
0.072556 0.188835 -0.048059 168 42 24
0.0654766 0.181052 -0.0453305 124 50 40
0.0646088 0.184587 -0.046224 157 70 61
0.0744082 0.189325 -0.050236 152 74 62
0.0673094 0.193565 -0.0423737 182 107 96
0.0679072 0.185642 -0.0485936 132 60 52
0.0725513 0.188883 -0.0483234 144 75 65
0.0739834 0.189436 -0.049257 166 92 84
0.0738971 0.190051 -0.04922 171 102 93
0.0751229 0.192297 -0.0486287 166 96 88
0.0622987 0.188176 -0.0382324 188 76 61
0.0647904 0.196128 -0.0388302 181 106 97
0.0771017 0.190919 -0.0501098 220 146 138
0.0715199 0.186629 -0.048466 79 0 0
0.0759938 0.187975 -0.0515545 156 59 44
0.0727937 0.189364 -0.0501244 153 77 72
0.0644496 0.194744 -0.0375011 176 102 93
0.0717464 0.187434 -0.0493709 146 70 59
0.0652033 0.193699 -0.0413945 186 111 99
0.0665811 0.182008 -0.0492204 155 81 69
0.0711849 0.185984 -0.049168 143 72 55
0.06956 0.186449 -0.0483812 130 68 59
0.071534 0.186197 -0.0472226 142 17 11
0.0760104 0.190742 -0.0464414 179 39 38
0.0639646 0.193682 -0.0405227 188 112 101
0.0629269 0.193874 -0.0400125 188 115 103
0.0713307 0.186727 -0.0504713 132 76 66
0.0643354 0.193604 -0.0404931 179 108 98
0.0701033 0.185358 -0.0498924 139 72 63
0.07397 0.189186 -0.0500987 151 77 54
0.0684528 0.185908 -0.0479593 156 66 62
0.0787561 0.193145 -0.0497586 163 94 87
0.0733912 0.185819 -0.0510495 150 84 76
0.0612647 0.185347 -0.040261 142 0 0
0.0733114 0.186608 -0.0515592 148 82 66
0.0734704 0.185295 -0.0514969 145 85 77
0.0769318 0.188838 -0.0511091 167 69 62
0.0754312 0.190377 -0.0498176 170 105 97
0.0722741 0.184296 -0.0503073 162 48 33
0.0626123 0.178723 -0.0436527 139 46 36
0.0763001 0.189451 -0.0503049 132 58 61
0.0640365 0.182015 -0.0482491 147 69 62
0.0748987 0.186098 -0.0524312 135 69 65
0.0612714 0.18342 -0.0435877 120 74 67
0.0673607 0.183093 -0.0490576 133 74 64
0.0742718 0.191025 -0.0505396 166 102 93
0.07399 0.187499 -0.0505538 131 39 39
0.0648144 0.193197 -0.0355891 174 98 87
0.0609306 0.18172 -0.0387894 7 0 0
0.0576117 0.182615 -0.0437122 158 94 83
0.0593204 0.181697 -0.0445846 160 96 86
0.0750553 0.187196 -0.0515844 137 92 92
0.0752124 0.188047 -0.0506008 144 56 48
0.0611586 0.181208 -0.0388337 122 60 57
0.0761534 0.187354 -0.0516205 184 90 82
0.0647882 0.192817 -0.0358047 177 100 90
0.064448 0.191993 -0.0358456 180 106 93
0.0619835 0.18644 -0.0399403 187 65 46
0.0600931 0.180496 -0.0382559 114 78 72
0.0606049 0.179393 -0.0403749 102 35 37
0.0642653 0.192293 -0.0350983 182 109 96
0.0763229 0.18614 -0.0529074 125 63 58
0.064477 0.192513 -0.0363793 184 103 91
0.0631328 0.189756 -0.0417978 161 94 85
0.0621373 0.187683 -0.0397626 163 46 20
0.074391 0.187134 -0.0512713 158 58 53
0.0605785 0.186161 -0.0417305 178 100 83
0.060063 0.168824 -0.0478022 87 0 8
0.0597001 0.178365 -0.040467 0 0 0
0.0601639 0.180539 -0.0431669 157 103 97
0.0583618 0.163905 -0.047535 17 9 6
0.0756615 0.182318 -0.0496547 184 78 61
0.059327 0.17964 -0.0391917 122 73 68
0.0572326 0.160856 -0.0467876 55 0 5
0.0632996 0.187997 -0.040975 157 53 36
0.062284 0.188171 -0.0382219 202 150 136
0.0759607 0.180659 -0.0502848 201 100 83
0.063253 0.192846 -0.03847 183 110 90
0.0576541 0.158375 -0.0467146 0 0 0
0.0615811 0.156025 -0.0527984 108 62 56
