ply
format ascii 1.0
comment Created by Open3D
element vertex 1206
property double x
property double y
property double z
property uchar red
property uchar green
property uchar blue
end_header
0.067762 0.0559676 -0.0306345 52 35 29
0.0735143 0.039859 -0.0510934 117 85 72
0.0439555 0.0388963 -0.0106831 47 29 24
0.0527419 0.0394788 -0.0081821 45 28 22
0.0424294 0.0311844 -0.0242028 49 31 26
0.0493271 0.0504056 -0.015519 50 33 26
0.0458511 0.0434317 -0.00803218 46 30 25
0.070369 0.0451997 -0.0544632 95 67 55
0.0554463 0.0360527 -0.0153846 46 29 24
0.0557122 0.0459648 -0.0277611 49 32 25
0.0514607 0.0487293 -0.0252603 50 33 27
0.0570682 0.0413298 -0.016872 46 29 23
0.0586183 0.0470819 -0.0187604 49 32 25
0.053983 0.0373468 -0.0172158 46 29 24
0.0648212 0.0464082 -0.0394024 58 40 33
0.0539855 0.0471253 -0.0331921 50 33 26
0.0650669 0.0441522 -0.0255004 56 37 31
0.0641275 0.0434707 -0.0288381 60 40 34
0.0564857 0.0383313 -0.0267456 46 29 24
0.0688122 0.0454943 -0.0552622 84 58 45
0.0675821 0.0532081 -0.0310855 55 38 32
0.0622982 0.0575336 -0.0299327 43 27 22
0.0713363 0.0535941 -0.042103 92 67 56
0.0556964 0.0448632 -0.0268026 48 31 24
0.0588838 0.0394812 -0.0255018 47 30 24
0.0599822 0.0432928 -0.0408975 41 23 18
0.0495723 0.0478324 -0.0255242 49 32 26
0.0539624 0.0473861 -0.0258424 50 33 26
0.061893 0.0431212 -0.0456077 55 37 31
0.0559292 0.0446409 -0.0217664 49 32 25
0.054776 0.0418296 -0.0258228 48 31 25
0.0577722 0.0372395 -0.0322637 58 39 33
0.0470521 0.0427226 -0.0218151 47 31 25
0.0498085 0.034056 -0.0292161 55 37 31
0.0549661 0.0460613 -0.0104522 49 33 27
0.0468817 0.0448965 -0.0195577 48 32 26
0.0512281 0.0564235 -0.0463217 45 30 25
0.0368171 0.033495 -0.0382905 0 0 0
0.0643585 0.0495987 0.00193262 43 26 20
0.0688807 0.041766 -0.051068 95 69 57
0.0470379 0.0444516 -0.0189659 49 32 26
0.0558762 0.0499754 -0.0218804 51 34 27
0.0602379 0.0433554 -0.0313882 47 29 23
0.0430645 0.041556 -0.00450613 46 29 23
0.059037 0.0407531 -0.0296166 47 30 25
0.0708035 0.055628 -0.0136118 49 32 26
0.05192 0.0432658 -0.0239399 47 31 25
0.0560615 0.0369047 -0.0195303 46 29 24
0.0544165 0.0473489 -0.0232294 49 32 26
0.0666144 0.0456938 -0.0312652 61 41 34
0.0611381 0.041317 -0.0121052 49 32 26
0.0679859 0.0552067 -0.0466511 88 63 52
0.0468386 0.0551906 -0.015639 48 31 25
0.0515137 0.0544008 -0.0210628 48 31 25
0.0552463 0.0446069 -0.0242942 49 32 25
0.0517941 0.0533697 -0.0219413 49 32 25
0.0696912 0.046142 -0.0571698 91 62 48
0.0504383 0.0352475 -0.0294876 55 38 31
0.0506291 0.0345313 -0.00201996 46 29 23
0.0676026 0.0542493 -0.0246016 47 30 24
0.046295 0.035594 -0.0277629 53 35 29
0.0328393 0.0413725 -0.0184105 52 34 28
0.057616 0.0555954 -0.0200707 50 31 26
0.06761 0.0561119 -0.0232751 42 25 20
0.035438 0.0499575 -0.0351673 48 31 25
0.0709316 0.045973 -0.0507367 91 65 52
0.0690996 0.057225 -0.0110192 44 28 23
0.0349731 0.0457705 -0.0167374 61 44 37
0.037578 0.0370188 -0.0485351 0 0 0
0.047637 0.0378137 -0.0195316 46 29 23
0.0559419 0.0516587 -0.0257961 47 30 25
0.0567807 0.0402776 -0.0245402 48 31 25
0.0544039 0.0605872 -0.0292889 42 26 21
0.0557657 0.0529865 -0.0147669 49 32 26
0.0540478 0.0354628 -0.00645702 46 30 24
0.0431891 0.0394446 -0.0125237 46 29 23
0.0684822 0.0498304 -0.0150483 49 31 25
0.0372238 0.0336818 -0.0354306 89 66 53
0.0553279 0.0447563 -0.0187297 50 33 26
0.0629613 0.0461036 -0.020704 52 33 27
0.060377 0.0449986 -0.00138022 49 32 25
0.0497454 0.0447492 -0.0109421 49 32 26
0.056484 0.0504421 -0.0273456 52 37 31
0.0515688 0.0515597 -0.0168823 49 32 26
0.0536827 0.0469369 -0.0273136 50 32 26
0.039918 0.0605451 0.000803086 46 28 23
0.0553049 0.0438648 -0.0204651 49 32 25
0.0424097 0.0479148 -0.0171009 50 32 26
0.0448242 0.0524861 -0.0125673 49 32 26
0.0470573 0.0451574 -0.0263764 49 32 26
0.0415593 0.0332018 -0.00789608 57 39 32
0.0422579 0.0353012 -0.0457386 53 34 28
0.0531931 0.0473716 -0.0324273 49 34 27
0.0544155 0.0449728 -0.0275042 49 32 25
0.0466454 0.0615844 -0.00991833 53 35 28
0.0566731 0.044222 -0.00625681 49 32 25
0.0360463 0.0374773 -0.0330444 46 27 20
0.0428229 0.0452112 -0.022898 48 30 25
0.0525097 0.0407724 -0.0260935 47 30 24
0.0679673 0.0546762 -0.00991947 44 28 23
0.0553603 0.0458603 -0.0261806 49 32 25
0.055405 0.043575 -0.024629 48 31 24
0.0593893 0.0521093 0.0037567 50 32 26
0.0563925 0.0500414 -0.0212339 50 33 27
0.0322372 0.0390087 -0.0316067 0 0 0
0.0435897 0.060954 -0.0345046 44 29 25
0.0431104 0.0340699 -0.0116946 56 38 31
0.0367192 0.0470293 -0.0293832 54 35 29
0.0444299 0.0454244 -0.020641 49 31 25
0.0602182 0.0599324 -0.00618214 50 32 26
0.0646918 0.0519718 -0.0316811 46 29 24
0.0512832 0.0514554 -0.0261506 48 32 26
0.0522178 0.0558265 -0.0113503 49 32 25
0.0641008 0.0445079 -0.0146615 46 27 21
0.0470891 0.0407253 -0.0227017 46 29 23
0.0467709 0.0504738 -0.0210891 48 32 26
0.0695092 0.058001 -0.0420045 83 60 50
0.05376 0.050455 -0.0154037 50 33 26
0.0452534 0.0572445 -0.00880784 54 38 32
0.049826 0.0498589 -0.0204987 51 33 27
0.0554647 0.0453761 -0.0269806 49 32 25
0.0486572 0.047008 -0.00145708 50 33 27
0.0543904 0.0475528 -0.0311816 49 32 26
0.0526143 0.0418881 -0.0254013 47 31 24
0.0649327 0.0470113 -0.0305386 48 30 24
0.0607229 0.0534508 -0.0149655 51 33 27
0.0634239 0.0568628 -0.0207396 45 29 23
0.04475 0.046329 -0.0192187 48 31 25
0.0556726 0.0446529 -0.0176765 49 32 25
0.0343479 0.0350603 -0.0112873 56 37 31
0.0636636 0.0781714 -0.0311505 50 34 28
0.0442513 0.024876 0.000998376 54 37 31
0.0447359 0.0438383 -0.0183115 48 31 25
0.0517921 0.0471221 -0.0114441 48 31 25
0.0607881 0.0619503 -0.0234474 44 28 22
0.0399718 0.0539023 -0.0390278 43 28 24
0.0668662 0.0499416 -0.0340238 58 40 34
0.043878 0.0524138 -0.00858877 49 32 26
0.0508932 0.0504231 -0.0158733 48 32 26
0.0689641 0.0507248 -0.0189635 47 30 24
0.0659006 0.0599559 -0.0187267 44 27 22
0.0652436 0.056283 -0.0223255 44 28 23
0.0543543 0.0471459 -0.0278774 49 32 25
0.0645968 0.0461371 -0.0470057 54 35 29
0.0633844 0.0534044 -0.0248727 44 28 22
0.0401086 0.053869 -0.0147727 50 32 26
0.0545031 0.0506558 -0.0219638 49 32 26
0.0453827 0.0420203 -0.024498 46 29 23
0.0566988 0.04932 -0.0131115 49 32 25
0.0477683 0.0509498 -0.027742 49 32 26
0.0347411 0.0449714 -0.0233058 53 36 30
0.0563286 0.049461 -0.0161816 49 32 25
0.035165 0.0445527 -0.0292982 49 31 25
0.0517503 0.0413185 -0.00915326 47 30 24
0.0681611 0.0640872 -0.026348 38 22 18
0.0556139 0.0455192 -0.0188359 49 31 24
0.0512705 0.0544968 -0.0167819 49 32 25
0.0738152 0.0509937 -0.0484588 89 60 49
0.0601137 0.0581681 -0.0222873 44 28 23
0.065807 0.0535805 -0.0278423 41 25 19
0.0347401 0.0388304 -0.0303857 46 27 22
0.0534692 0.048106 -0.0307972 50 32 26
0.0525071 0.0635917 -0.034046 42 27 22
0.0644733 0.048357 -0.0296006 48 31 25
0.0554938 0.0450909 -0.0277593 49 31 25
0.0353108 0.0335239 -0.0377162 0 0 0
0.0389531 0.0444449 -0.0305456 56 38 32
0.0562669 0.0520353 -0.0127036 50 33 26
0.0690285 0.0608498 -0.0388467 50 32 26
0.0361968 0.0394843 -0.0126783 57 39 32
0.0609705 0.0443724 -0.0171051 44 26 20
0.0650436 0.061237 -0.0133107 45 29 23
0.058383 0.0578561 -0.0140745 50 31 25
0.0693854 0.0629679 -0.0371518 51 32 26
0.046209 0.0503362 -0.0277798 49 32 27
0.0569391 0.0524332 -0.00986211 49 32 26
0.0694211 0.0573431 -0.047087 86 61 50
0.0574068 0.040336 -0.0225894 49 31 26
0.0447129 0.0455047 -0.0184798 48 31 25
0.068255 0.0502477 -0.031595 59 41 34
0.0537157 0.0508445 -0.0140294 50 33 26
0.0599252 0.0633382 -0.0134289 45 28 23
0.0580246 0.068846 -0.0445301 50 33 27
0.0483458 0.0483705 -0.0247302 49 32 26
0.0568585 0.0573335 -0.0218116 50 31 25
0.0648949 0.0511345 -0.0310456 47 31 25
0.0457542 0.0530428 -0.00704296 47 29 23
0.0395641 0.0480878 -0.0176482 50 32 26
0.042154 0.0439452 -0.0156642 48 30 24
0.0427206 0.0630381 -0.0286519 45 30 24
0.0633703 0.0467068 -0.0307372 49 31 25
0.0660175 0.0633932 -0.0167386 44 27 22
0.0663356 0.0497122 -0.0463553 49 31 25
0.0640479 0.0557774 -0.0265377 44 28 23
0.0677484 0.0543039 -0.0461089 86 63 51
0.0715081 0.0761123 -0.0485575 0 0 0
0.0444191 0.0539627 -0.0551352 49 32 26
0.0369258 0.056073 -0.011656 47 31 25
0.0707497 0.0645222 -0.0375123 74 53 44
0.0562053 0.067838 -0.0248718 43 28 22
0.0556667 0.0471508 -0.0217311 49 32 25
0.0498242 0.055271 -0.026138 50 32 26
0.0648679 0.0594846 -0.0314998 43 27 21
0.0479198 0.0673992 -0.0215042 43 27 22
0.0502342 0.0517644 -0.0291491 49 32 25
0.0711599 0.0652384 -0.0272041 54 37 31
0.0399083 0.0524998 -0.0195617 46 29 24
0.059857 0.0522378 -0.0399803 43 27 22
0.065601 0.0556583 -0.0147269 45 29 23
0.0333592 0.0417123 -0.0306767 95 72 58
0.0511438 0.0499428 -0.0256802 49 32 26
0.0542974 0.0477647 -0.0168985 49 32 25
0.0489712 0.0624113 -0.0194237 45 29 23
0.0561938 0.0561976 -0.0138954 46 30 24
0.0509745 0.0627272 -0.0451121 47 31 26
0.0633488 0.0619369 -0.0260115 43 28 23
0.0347673 0.0568975 -0.0276985 47 30 25
0.0656934 0.0596834 -0.0318727 41 25 20
0.0638822 0.0639274 -0.021394 43 28 23
0.0716461 0.0702913 -0.0345902 73 53 45
0.050821 0.0558211 -0.0127251 49 32 25
0.0389624 0.0594094 -0.0419009 47 30 25
0.0548797 0.0629412 -0.0290992 43 27 22
0.0681689 0.0473208 -0.00934993 49 30 24
0.0402609 0.0555123 -0.0148752 50 32 26
0.0432979 0.0436908 -0.0117487 47 30 24
0.0703777 0.0646415 -0.0290537 54 37 30
0.0429505 0.0495862 -0.051219 51 34 28
0.0698399 0.0599882 -0.0146009 43 26 21
0.0625389 0.0634248 -0.0330494 42 27 22
0.0568915 0.0464233 -0.0203422 49 31 25
0.0672986 0.0542015 -0.0261363 45 29 24
0.0687137 0.0717901 -0.00852289 43 27 22
0.0668494 0.0530566 -0.0450685 47 29 23
0.0355267 0.0537286 -0.0335018 58 40 34
0.0359106 0.0483734 -0.0289596 49 32 27
0.0598834 0.0517027 -0.0343814 45 28 23
0.0439761 0.0669233 -0.0399285 45 32 26
0.0627075 0.058816 -0.0284779 44 27 22
0.0690556 0.0604 -0.0327564 54 37 31
0.0466527 0.0666799 -0.0225138 43 28 23
0.046313 0.0704022 -0.0290685 43 29 25
0.0592983 0.0617778 -0.000523155 50 31 25
0.0587519 0.0585101 -0.0209474 46 29 24
0.0320782 0.0529857 -0.0197081 53 35 30
0.0520368 0.0603754 -0.0253973 46 29 24
0.0684398 0.0539706 -0.025876 44 27 22
0.0489266 0.0629646 -0.029586 43 28 22
0.0347871 0.0468095 -0.0132386 61 43 35
0.055696 0.0513078 -0.0144304 51 34 27
0.0502261 0.0487484 -0.0141296 49 32 26
0.0433641 0.0600339 -0.0346687 43 28 24
0.0586746 0.0608554 -0.0177885 47 29 24
0.0554599 0.0691889 -0.0447587 46 32 26
0.0423599 0.0586918 -0.0440313 48 32 26
0.0570817 0.0405575 -0.00964247 48 31 25
0.0427106 0.0645044 -0.0282214 45 30 24
0.0526268 0.0677139 -0.0456793 48 32 25
0.0526398 0.0630229 -0.0166373 45 28 23
0.0463835 0.0681816 -0.0441163 46 32 26
0.0703053 0.0788996 -0.0189428 51 34 28
0.0727749 0.067611 -0.0223799 54 37 31
0.0675628 0.0494156 -0.0341991 58 41 34
0.0406983 0.0401691 -0.0364855 56 37 31
0.0468764 0.068838 -0.0195818 44 28 23
0.0612998 0.0753382 -0.0155163 46 30 24
0.0607685 0.0651784 -0.0204765 44 27 21
0.0465378 0.0608514 -0.0483202 46 31 25
0.0482237 0.06179 -0.0389289 43 29 24
0.0532292 0.062715 -0.0392776 42 28 23
0.0617086 0.0538009 -0.0207997 46 29 24
0.0530328 0.0708495 -0.0231097 42 27 21
0.0458997 0.043305 -0.0136543 47 31 25
0.0589403 0.0521278 -0.00727161 48 31 25
0.0469599 0.0591182 -0.0221892 47 30 24
0.0447374 0.0649858 -0.0158844 45 29 23
0.0364081 0.0574127 -0.0334836 42 27 23
0.047918 0.0616189 -0.0309977 43 28 23
0.0408827 0.0563938 -0.0452823 48 32 27
0.0694821 0.0749522 -0.0331555 46 29 24
0.0658906 0.0757129 -0.0349621 48 31 26
0.0722876 0.0705364 -0.0418138 69 45 36
0.039785 0.0575982 -0.023289 45 29 24
0.055868 0.071197 -0.0139298 42 25 20
0.063869 0.0558146 -0.0151593 46 29 24
0.0640759 0.0744778 -0.0284086 35 19 16
0.0475128 0.062497 -0.023939 44 29 23
0.042844 0.0637053 -0.0136516 44 27 22
0.0611636 0.0722772 -0.044125 51 35 28
0.0535336 0.0690522 -0.0413147 46 31 24
0.0475869 0.0659379 -0.0222311 42 27 22
0.0457272 0.0627423 -0.0203432 45 29 23
0.0439338 0.0704292 -0.0338453 47 32 25
0.0427734 0.0624963 -0.0337374 43 28 23
0.0536931 0.064489 -0.0420857 46 30 25
0.0341413 0.0667958 -0.0270435 49 32 26
0.0359085 0.0584346 -0.0331431 40 26 22
0.0623303 0.0638339 -0.0117954 43 27 22
0.0516594 0.0616258 -0.0262084 44 28 23
0.0597322 0.0723344 -0.0333697 45 30 25
0.0719467 0.0585801 -0.0321536 55 36 30
0.0479818 0.0624372 -0.0397436 44 30 25
0.0435041 0.0560173 -0.0302643 46 30 24
0.0685616 0.0695355 -0.0463847 66 44 36
0.0647851 0.0720377 -0.017703 41 25 20
0.0447662 0.0622391 -0.0202212 44 28 23
0.0386168 0.0649148 -0.047243 0 0 0
0.0515549 0.0654582 -0.0424012 46 31 25
0.0678485 0.0640918 -0.0392019 48 31 26
0.0493471 0.0593455 -0.0390857 43 29 24
0.043539 0.0603096 -0.0384245 45 30 25
0.0422389 0.0535327 -0.0271665 49 32 27
0.0502047 0.0645209 -0.0251167 44 28 23
0.0444718 0.0674768 -0.0251889 45 30 24
0.0479287 0.061164 -0.0421464 45 30 25
0.0327135 0.0530367 -0.0260222 53 34 29
0.0357395 0.0719103 -0.0193424 49 32 26
0.0692983 0.0709126 -0.0264336 52 36 30
0.063493 0.0612568 -0.024222 44 27 22
0.0439067 0.0597018 -0.0309588 45 29 24
0.0395449 0.0556179 -0.0123588 50 33 27
0.0413024 0.0651322 -0.0273804 43 27 22
0.0462955 0.0520457 -0.0206064 48 30 24
0.0461337 0.0644203 -0.0183584 45 29 23
0.0499261 0.0555343 -0.0130665 49 33 26
0.0499642 0.0653867 -0.00695786 47 30 24
0.0472839 0.0652767 -0.0451974 45 32 26
0.0508639 0.0615516 -0.0173276 47 29 24
0.0386852 0.0808272 -0.0167912 47 29 22
0.0332452 0.0575597 -0.0304 58 39 33
0.0403129 0.06278 -0.0231381 45 28 23
0.0452811 0.0621753 -0.0240866 43 28 23
0.0475918 0.0686203 -0.0245274 42 28 22
0.0549187 0.0739716 -0.0238149 48 33 28
0.0729981 0.0736765 -0.0250106 48 32 26
0.0359001 0.0685392 -0.0246623 54 35 29
0.0296108 0.0537911 -0.0317631 96 70 58
0.0403446 0.0624027 -0.0275502 42 26 21
0.0493194 0.0700491 -0.0317042 48 32 27
0.048171 0.0676941 -0.0436211 46 33 27
0.0561502 0.0713421 -0.0339103 44 29 24
0.039715 0.0562358 -0.0307058 56 38 32
0.035921 0.0670821 -0.025912 53 35 29
0.0719777 0.0811744 -0.0315798 64 43 35
0.0399649 0.0642164 -0.0230846 44 28 23
0.0472592 0.0660548 -0.0402649 46 31 25
0.0449785 0.0471673 -0.0266493 49 32 26
0.0526585 0.0585386 -0.0353342 43 27 22
0.0609961 0.0670455 -0.0214517 43 27 21
0.0702515 0.0718184 -0.047025 74 49 40
0.0577301 0.0562139 -0.0232753 48 30 24
0.0565947 0.0789965 -0.028894 43 30 25
0.0357247 0.0658245 -0.0327006 47 31 25
0.0488556 0.0650587 -0.0363269 44 30 25
0.0558012 0.0706273 -0.00915335 43 27 22
0.0483928 0.0676247 -0.0104183 45 29 24
0.0522814 0.0817822 -0.0294138 51 35 28
0.0581907 0.066728 -0.0383352 40 26 21
0.0605605 0.0656456 -0.0295789 46 28 23
0.0553317 0.0691373 -0.0383594 46 30 25
0.0412332 0.0643521 -0.0228338 45 29 24
0.0426655 0.0701921 -0.0347924 43 30 24
0.0538002 0.0680338 -0.0206542 44 28 23
0.045173 0.0596789 -0.0381178 45 30 25
0.0557602 0.0702532 -0.0272324 44 29 24
0.0721529 0.0642755 -0.030561 53 36 30
0.0332022 0.0629401 -0.0288208 51 33 28
0.04192 0.0608664 -0.0441226 47 32 27
0.0551271 0.0581975 -0.0369816 43 27 22
0.0266679 0.0584253 -0.036283 89 65 53
0.0393711 0.0594724 -0.0352442 46 30 25
0.0630295 0.0552247 -0.0324838 42 26 21
0.061924 0.057509 -0.022451 44 28 23
0.0630014 0.074899 -0.0395686 50 33 27
0.0512811 0.0688012 -0.0188536 44 28 22
0.0583198 0.0714491 -0.0349629 41 27 23
0.0355878 0.0614957 -0.0391627 73 49 40
0.0596892 0.0687081 -0.0233671 46 29 23
0.0359809 0.0673403 -0.0247443 53 35 28
0.0493005 0.0612432 -0.0299566 43 28 23
0.0604109 0.078927 -0.0386947 54 37 29
0.0457447 0.0667662 -0.0236397 44 28 23
0.0702148 0.0899917 -0.0404101 0 0 0
0.0502809 0.0650484 -0.0356229 43 29 24
0.039967 0.067977 -0.0398587 49 36 28
0.0375863 0.0596886 -0.0275556 56 38 32
0.0515552 0.0546035 -0.0314462 48 31 25
0.0514868 0.066947 -0.0168745 46 30 25
0.053668 0.0680656 -0.0271209 43 28 22
0.0527329 0.0767072 -0.0274315 45 30 25
0.0662634 0.0686419 -0.0401829 47 31 25
0.0586146 0.0715954 -0.0486654 52 36 28
0.0689389 0.0690439 -0.046346 67 45 37
0.0609479 0.074981 -0.0205667 44 27 22
0.0428373 0.0562174 -0.0196921 52 34 27
0.0608195 0.0731457 -0.0402442 56 37 30
0.0251439 0.0545281 -0.0346509 0 0 0
0.034072 0.0624938 -0.0293192 41 26 22
0.0538481 0.0744404 -0.0227753 46 30 25
0.050822 0.0769023 -0.0167437 42 27 22
0.0333992 0.0618065 -0.030277 59 40 33
0.0606579 0.0795385 -0.0265342 41 24 18
0.0542538 0.0673412 -0.0256003 44 28 23
0.0697751 0.0710358 -0.0390368 72 51 42
0.0312278 0.0603165 -0.0324828 82 58 48
0.0365796 0.0566215 -0.047235 81 55 45
0.0481322 0.0701493 -0.00949817 45 30 24
0.0591357 0.0734928 -0.0468946 53 36 29
0.070267 0.0647601 -0.0467024 73 48 40
0.0407495 0.0647438 -0.0304703 38 24 20
0.0447227 0.0693903 -0.0292316 44 29 24
0.0589252 0.07341 -0.0432305 55 37 29
0.0655047 0.0693724 -0.0296872 36 21 17
0.0372192 0.0651745 -0.0408131 52 34 26
0.0559638 0.0593774 -0.0109915 48 29 23
0.0564354 0.0572859 -0.0139625 47 30 24
0.0470632 0.0711485 -0.0366005 46 33 27
0.0525989 0.0669368 -0.0457801 47 32 25
0.0580498 0.0724435 -0.0320317 42 28 23
0.0590171 0.0729391 -0.0410186 54 36 29
0.0521797 0.0608347 -0.0189995 46 30 24
0.039556 0.0588235 -0.0207371 47 31 25
0.0362401 0.0590273 -0.0252537 56 38 32
0.0506746 0.0680336 -0.0249667 42 27 22
0.0618965 0.0764725 -0.0202499 57 41 36
0.057128 0.0734002 -0.0309839 43 28 24
0.0568534 0.06928 -0.0132433 42 25 20
0.0639115 0.0595061 -0.0177212 45 28 23
0.055753 0.0719071 -0.0404782 45 31 25
0.0345531 0.0646798 -0.0383015 80 57 46
0.0519461 0.0702223 -0.0252747 43 28 22
0.0705601 0.0760141 -0.0286454 48 32 26
0.0435305 0.0645103 -0.0218079 44 28 23
0.035095 0.0639483 -0.0301494 45 30 24
0.0397865 0.0573143 -0.0271302 38 21 17
0.0504011 0.073817 -0.024802 43 28 22
0.0602737 0.0767718 -0.0381529 58 39 30
0.0445832 0.0660241 -0.0229609 44 28 23
0.0609232 0.0686477 -0.0454858 54 35 28
0.0448877 0.0740754 -0.0171311 43 27 22
0.046872 0.0743329 -0.0289306 45 30 24
0.0638027 0.0870294 -0.0201103 44 27 21
0.0631371 0.0720185 -0.0135376 42 26 21
0.0474985 0.0619627 -0.0526405 46 33 27
0.0329336 0.0586953 -0.0359242 82 59 48
0.040186 0.0686896 -0.0302794 41 27 22
0.0518776 0.081775 -0.0315511 0 0 0
0.0608679 0.07408 -0.0278272 45 29 23
0.0589596 0.0753333 -0.0220039 42 26 21
0.0550364 0.0652098 -0.0501859 46 31 26
0.0624329 0.0782458 -0.0358497 55 36 29
0.0586141 0.072991 -0.0332959 42 28 23
0.0645263 0.0616638 -0.0225976 44 27 22
0.0548303 0.0722271 -0.0377484 46 30 24
0.0617709 0.0647749 -0.0515976 54 37 30
0.0291694 0.0565661 -0.0331325 95 69 57
0.0595516 0.0629343 -0.0156527 45 28 23
0.0286957 0.0647257 -0.034541 74 52 43
0.0579182 0.0749373 -0.0176351 43 27 22
0.0449077 0.0731861 -0.0286905 44 30 25
0.0546719 0.0195674 -0.026184 135 104 94
0.0468945 0.018568 -0.00887388 55 36 31
0.0451514 0.0230152 -0.0352815 83 57 48
0.0588108 0.0403951 -0.0631372 99 72 61
0.0697316 0.0475061 -0.0499547 88 63 52
0.0530301 0.0382936 -0.0353827 46 29 24
0.06514 0.0517459 -0.0556501 86 60 49
0.0716484 0.0563558 -0.0273123 57 39 33
0.066409 0.0493184 -0.0737573 0 0 0
0.065358 0.0547778 -0.0594943 79 54 43
0.0703991 0.0751309 -0.0176567 39 23 18
0.0678542 0.0729549 -0.00902762 42 27 22
0.0350138 0.0548855 -0.0286352 53 35 29
0.0528173 0.0842034 -0.0183951 45 29 23
0.0763592 0.0533779 -0.0555652 0 0 0
0.0504986 0.0289909 -0.0360395 53 36 30
0.0634682 0.0381806 -0.0563032 101 75 63
0.0604124 0.035471 -0.021285 56 37 31
0.0666353 0.0510442 -0.0685779 0 0 0
0.0557406 0.0679185 -0.0267782 43 28 23
0.0390866 0.0610917 -0.0380182 51 32 27
0.0574132 0.0418493 -0.0661651 96 71 59
0.0281135 0.0528698 -0.00682101 52 35 29
0.0718204 0.0427625 -0.00984018 56 37 30
0.0569301 0.0275377 -0.0340781 52 33 28
0.0659623 0.0343464 -0.0639584 0 0 0
0.0642983 0.0343095 -0.057793 0 0 0
0.0341981 0.0402026 -0.0130359 58 40 33
0.0670097 0.0556726 -0.0653681 0 0 0
0.029462 0.0615378 -0.0326234 89 65 53
0.0712123 0.0364559 -0.0510174 105 74 60
0.0497781 0.0318223 -0.0406902 51 34 29
0.0413816 0.026336 -0.0220442 52 34 29
0.0745323 0.0509473 -0.0539909 0 0 0
0.0602786 0.0410554 -0.0586794 102 75 64
0.0663439 0.0555157 -0.023979 42 26 21
0.062208 0.0457079 -0.0602416 88 62 50
0.0671707 0.0400743 -0.0621553 100 68 55
0.0534428 0.0282501 -0.0483024 94 66 56
0.0599891 0.0367981 -0.0499663 87 67 56
0.0469766 0.0204888 -0.0249787 82 56 49
0.0635952 0.0203929 -0.020851 95 69 57
0.0486834 0.0190181 -0.0174588 75 55 48
0.0503362 0.00921683 -0.0269441 0 0 0
0.043192 0.0222577 -0.0482185 0 0 0
0.0508657 0.0232062 -0.0332221 86 62 53
0.0517054 0.0219277 -0.0341731 86 59 50
0.0502842 0.0228196 -0.0329337 92 64 56
0.0513272 0.0209253 -0.030879 91 63 53
0.053469 0.030891 -0.0321529 53 34 29
0.0502514 0.0152729 -0.0252554 84 57 49
0.0525681 0.0222446 -0.0221046 57 37 33
0.0539731 0.0295853 -0.0226258 53 36 30
0.0615542 0.0272815 -0.0333128 87 66 55
0.0545814 0.0452828 -0.0314825 48 31 25
0.0466499 0.0247464 -0.00729258 53 35 30
0.062723 0.0361675 -0.0183074 56 37 31
0.0541996 0.0329855 -0.0444449 54 36 31
0.0472659 0.0249755 -0.03829 85 58 50
0.0486279 0.0342786 -0.0213877 54 37 30
0.0651992 0.0349283 -0.0422192 102 75 64
0.0447414 0.0232902 -0.0249392 78 57 50
0.0581286 0.024024 -0.026924 54 35 29
0.0590742 0.0380359 -0.032755 57 38 32
0.0505178 0.0261869 -0.0343305 51 33 28
0.0600264 0.0329581 -0.0342391 53 35 29
0.0475235 0.0222871 -0.0275857 86 61 54
0.0558854 0.0335402 -0.0199806 57 39 33
0.0536011 0.0294846 -0.0429698 54 35 30
0.0428182 0.0255483 0.00190646 56 37 31
0.0494268 0.0289591 -0.0166716 52 35 29
0.0499658 0.0244164 -0.00380437 54 37 31
0.0640542 0.0394592 -0.0512781 107 79 68
0.0511454 0.0258562 -0.0229038 56 38 32
0.0570264 0.031597 -0.04283 55 36 30
0.0551044 0.0310975 -0.0151028 57 39 33
0.0528996 0.0320295 -0.0336164 55 37 31
0.0520393 0.0289349 -0.0419949 52 35 30
0.069555 0.0401302 -0.0533123 110 80 68
0.0508406 0.0381704 -0.0132251 47 30 24
0.0663648 0.0325696 -0.0144098 52 35 29
0.058044 0.0380174 -0.0283954 56 38 32
0.056608 0.0397117 -0.02215 48 31 25
0.0530231 0.0329331 -0.045222 54 36 30
0.0529867 0.0314495 -0.0419966 55 36 31
0.0391877 0.0266327 -0.0533878 0 0 0
0.0517623 0.0439639 -0.00426443 48 31 24
0.0505155 0.0275217 -0.0340752 54 36 31
0.0703197 0.043254 -0.0506269 93 66 55
0.0446326 0.0357501 -0.0359468 54 36 30
0.058069 0.0388748 -0.0116567 47 30 25
0.0705911 0.0473481 -0.0559728 89 62 48
0.0544078 0.0360569 -0.0315028 58 40 34
0.0645222 0.0256187 -0.0179077 59 40 34
0.0486322 0.0410472 -0.0200886 47 30 24
0.0482649 0.0310136 -0.0324343 52 33 28
0.0686973 0.0504088 -0.0586368 78 50 39
0.0460495 0.0303575 -0.0156942 55 37 31
0.0599721 0.0414924 -0.0399453 57 38 32
0.0523795 0.0268553 -0.017463 52 35 29
0.048074 0.033449 -0.0394707 55 37 31
0.0422328 0.0512312 -0.005546 51 34 28
0.0592651 0.0307528 -0.0128838 55 37 32
0.0531654 0.0345092 -0.0191748 54 38 32
0.0520288 0.032144 -0.0261353 57 38 32
0.0512495 0.026847 -0.0321533 55 37 32
0.0636841 0.0396319 -0.0378249 58 38 32
0.0581 0.038256 -0.0326255 57 39 32
0.058245 0.0342793 -0.0263285 55 38 32
0.0600189 0.0452906 -0.0497404 57 40 33
0.0649528 0.0366257 -0.0238121 48 30 26
0.0677453 0.042552 -0.0287885 54 36 30
0.0646892 0.0475737 -0.0403181 58 41 34
0.0685289 0.0433796 -0.056993 96 66 53
0.0496054 0.0368055 -0.0424396 57 38 32
0.0630376 0.029926 -0.0140809 57 38 32
0.0523582 0.0436158 -0.0178813 48 31 24
0.0441708 0.0348622 -0.0436838 51 33 27
0.0586659 0.0403711 -0.0409273 56 38 32
0.0545242 0.035419 -0.0262353 60 41 35
0.0405686 0.0343673 -0.0245306 51 34 30
0.0513667 0.0443561 -0.0296889 48 31 25
0.0585906 0.0358248 -0.0286404 55 37 31
0.0600621 0.0418005 -0.00210511 46 28 22
0.0649185 0.0456901 -0.0321081 60 41 34
0.0572129 0.0355054 -0.0285071 56 38 32
0.058132 0.0321382 -0.0277526 53 36 30
0.0461423 0.036099 -0.0348242 55 37 31
0.0718728 0.0429632 -0.0583578 89 58 44
0.0489142 0.0276412 -0.0282418 54 36 31
0.0574244 0.0373744 -0.0349263 58 39 33
0.0698117 0.0494472 -0.0245294 60 41 34
0.0613748 0.0173889 -0.0305759 0 0 0
0.0532099 0.0339838 -0.0196149 75 55 49
0.0466196 0.0320364 -0.0443475 51 34 28
0.0533058 0.0341873 -0.039405 54 36 30
0.0400965 0.0265283 -0.0157309 54 36 30
0.0561073 0.0410126 -0.0226041 47 30 23
0.0493984 0.037959 -0.0300687 44 29 24
0.06272 0.0464128 -0.0390416 44 25 21
0.0518788 0.0320784 -0.0332581 55 37 31
0.0716455 0.0433428 -0.055151 110 80 65
0.0541216 0.0351029 -0.0215643 57 39 33
0.0642366 0.0471747 -0.027137 49 31 25
0.0576868 0.0415278 -0.0290442 49 32 25
0.0746851 0.0524109 -0.0460411 88 60 50
0.03631 0.026129 -0.0304515 0 0 0
0.0532006 0.034811 -0.025498 60 40 34
0.0503176 0.0363824 -0.0167763 46 29 24
0.0548092 0.0370244 -0.0330895 56 38 32
0.063276 0.0348079 -0.0269875 52 35 29
0.0705278 0.0373747 -0.0231548 58 38 31
0.0472075 0.0307446 -0.0414319 52 34 29
0.0419339 0.027341 -0.0243746 52 34 29
0.0649954 0.0368925 -0.0305002 53 34 29
0.0538012 0.0472452 -0.0291029 50 33 26
0.0340314 0.0346404 -0.0266169 96 69 56
0.0518797 0.0295972 -0.046721 77 54 46
0.0579052 0.0401339 -0.0245214 48 31 25
0.0709024 0.0520367 -0.0249121 58 40 34
0.0686834 0.0421919 -0.052064 96 69 57
0.0430539 0.0373085 0.00183863 48 31 25
0.045562 0.0415734 -0.018735 46 30 24
0.0566522 0.0458307 -0.00950858 49 31 24
0.066767 0.0432449 -0.0344451 56 38 32
0.054892 0.0513341 -0.0256298 49 31 25
0.0556574 0.0331319 -0.0377631 57 38 32
0.0450748 0.0361399 -0.0171585 42 26 22
0.0550382 0.0446291 -0.0290099 49 31 25
0.0628138 0.0591079 -0.0347121 43 27 22
0.0342701 0.0326587 -0.034509 0 0 0
0.0461692 0.0403842 -0.0149451 47 29 24
0.0375274 0.0407936 -0.014738 61 41 34
0.0689317 0.0564296 -0.0423065 87 65 53
0.0637981 0.0467029 -0.0385145 59 41 34
0.0644433 0.0371828 -0.0450663 106 79 68
0.0687821 0.0540425 -0.0470475 90 65 54
0.0462952 0.0462062 -0.0198507 49 32 26
0.0460521 0.0412706 -0.0221472 46 29 24
0.0452218 0.0279748 -0.0239278 55 37 31
0.0593866 0.0408508 -0.0320158 45 29 25
0.0507326 0.037179 -0.0162965 47 30 25
0.0653919 0.0486012 -0.0272654 48 30 25
0.0668054 0.0390637 -0.0619184 98 66 53
0.0633812 0.0446664 -0.000883136 47 30 23
0.0575938 0.0472495 -0.0136013 49 31 25
0.0598703 0.0361824 -0.00831384 51 34 28
0.0544643 0.0463747 -0.0365746 49 32 25
0.0501513 0.0472293 -0.0322444 49 32 26
0.0686908 0.0546019 -0.0424686 77 56 46
0.0650108 0.0483012 -0.0305644 47 30 24
0.0436827 0.031007 -0.0384424 54 35 30
0.052374 0.0521872 -0.0117157 49 33 26
0.0549683 0.0456224 -0.0291425 49 31 25
0.0693616 0.0528251 -0.0272277 57 39 32
0.0635865 0.0469378 -0.0426598 58 40 34
0.053993 0.048695 -0.0170903 50 33 26
0.0764299 0.048529 -0.0598025 0 0 0
0.0546475 0.0536833 -0.0101238 51 33 27
0.0643974 0.0421227 -0.0376453 57 38 32
0.0515924 0.0395411 -0.00725742 45 28 22
0.0443208 0.035164 -0.0245408 56 38 31
0.0356872 0.0356268 -0.026892 54 36 29
0.0801328 0.0539695 -0.0480835 0 0 0
0.0515935 0.0501044 -0.0213874 50 32 26
0.0363725 0.0352711 -0.0246582 51 33 26
0.0553076 0.0460458 -0.0312826 49 32 25
0.0544797 0.039653 -0.0214405 48 31 25
0.0727648 0.0450751 -0.0579507 94 63 48
0.058078 0.0478239 -0.00457385 49 31 25
0.0519291 0.0454521 -0.0240354 48 32 26
0.0698477 0.0449873 -0.0517159 92 66 54
0.0677384 0.057464 -0.0464968 80 56 46
0.042228 0.0352734 0.00343026 45 29 23
0.0716526 0.0499106 -0.0538471 79 49 38
0.0548979 0.0461892 -0.0362666 49 32 25
0.0538784 0.0475267 -0.0261343 50 33 26
0.0727304 0.0460933 -0.0587974 0 0 0
0.0361321 0.0428111 -0.0141746 60 42 35
0.0467222 0.0462216 -0.0288311 50 33 26
0.0742017 0.0517991 -0.048485 88 60 49
0.054823 0.0458365 -0.0305627 49 32 25
0.0331257 0.0350219 -0.037991 0 0 0
0.0550914 0.0454048 -0.0266954 49 32 25
0.0607323 0.0440582 -0.0131691 44 27 20
0.0647507 0.0436042 -0.0351538 57 38 32
0.0371189 0.0345617 -0.0359651 94 69 55
0.0375533 0.0324755 -0.0264344 59 38 32
0.0484153 0.0503677 -0.0230403 48 32 26
0.0618542 0.0448772 -0.0129804 43 25 19
0.047873 0.0442308 -0.0248616 48 31 26
0.0665842 0.0465574 -0.0355114 57 38 32
0.0435051 0.0446094 -0.0153301 48 31 25
0.0693317 0.0485824 -0.0208238 55 36 30
0.0448109 0.0438831 -0.0173799 48 31 25
0.0384837 0.0393233 -0.0251045 55 38 32
0.0655772 0.0437845 -0.0383074 55 37 30
0.0621504 0.0423816 -0.0500765 61 43 35
0.0513165 0.0378602 -0.0179856 48 31 25
0.0656823 0.0509805 -0.0315389 45 29 23
0.0340198 0.0395236 -0.0281631 45 26 21
0.0556729 0.0430387 -0.0296332 49 32 25
0.0455298 0.0427953 -0.0189696 47 30 24
0.0588444 0.0414252 -0.00203761 48 30 24
0.0664766 0.0449548 -0.0191682 53 34 28
0.0667342 0.0474818 -0.0368092 56 38 31
0.0426278 0.0339126 -0.0367908 49 31 25
0.0412897 0.0389303 -0.0320591 58 39 33
0.067173 0.0461047 -0.0472008 95 72 61
0.0364369 0.0341953 -0.0472881 0 0 0
0.0602749 0.0438897 -0.040887 46 28 22
0.0729818 0.058478 -0.0381417 89 65 54
0.0360034 0.0348493 -0.0265344 57 38 32
0.0598132 0.0441353 -0.0254649 45 27 21
0.0523859 0.0404415 -0.00405674 48 32 25
0.059325 0.0423299 -0.0251455 49 32 26
0.0549979 0.0517683 -0.0180294 50 33 27
0.0762621 0.0520653 -0.0289504 71 51 42
0.0350802 0.0350291 -0.0402932 0 0 0
0.0686781 0.0565947 -0.0488491 87 62 50
0.066324 0.0452271 -0.000854859 48 29 23
0.0629256 0.0437902 -0.0301956 51 31 26
0.036373 0.0367514 -0.0173038 51 34 28
0.0658661 0.0474569 -0.0430751 55 36 30
0.0697932 0.0520679 -0.0587923 0 0 0
0.0444933 0.055759 -0.00787332 49 31 26
0.0640249 0.058242 -0.0187059 45 29 24
0.059687 0.0515923 -0.015996 48 31 25
0.0402901 0.0422936 -0.0410551 54 35 29
0.0385626 0.0288381 -0.021042 58 38 31
0.0552734 0.0458995 -0.0276884 49 32 25
0.0506783 0.0480434 -0.011587 49 32 26
0.0446435 0.0477379 -0.00920364 48 32 25
0.0638783 0.0542789 -0.0289741 44 27 22
0.0430363 0.05229 -0.00775357 51 34 28
0.0382193 0.0347509 -0.0454885 0 0 0
0.0401829 0.0451069 -0.0115608 48 30 24
0.042649 0.0269275 -0.00857073 52 35 29
0.0352536 0.0488081 -0.0161186 62 44 37
0.0508219 0.0412672 -0.0180384 47 31 24
0.0640624 0.0586113 -0.0119185 46 29 24
0.0695139 0.049426 -0.0420275 82 60 50
0.0628865 0.0568605 -0.0134265 46 29 24
0.0722949 0.0678828 -0.0381249 73 49 41
0.0504293 0.0408873 -0.013986 46 30 24
0.0600231 0.0591827 -0.0376845 43 27 22
0.04284 0.0452822 -0.0214795 48 31 25
0.0717054 0.0516926 -0.0250538 58 40 33
0.0551092 0.0468803 -0.0283843 49 32 25
0.0598404 0.0521703 -0.0233144 49 31 26
0.0710147 0.0607143 -0.0281106 55 38 31
0.0545666 0.0478392 -0.0262609 49 32 25
0.0455622 0.0410832 -0.0368748 46 29 24
0.0673284 0.0634234 -0.0124798 43 27 22
0.0705826 0.0580073 -0.0631462 0 0 0
0.0505675 0.0507881 -0.0149001 48 32 26
0.0561952 0.0547701 -0.0273798 50 32 26
0.0420616 0.0472662 -0.00624504 48 31 24
0.063365 0.047801 -0.0374404 46 29 23
0.054402 0.0671232 -0.0338469 43 28 23
0.0417448 0.0466489 -0.0115459 48 31 25
0.0654312 0.0545109 -0.018073 45 28 23
0.0668492 0.0438476 -0.03507 56 39 32
0.0467943 0.044237 -0.0228216 48 31 25
0.0714459 0.0529151 -0.028256 58 40 33
0.0322062 0.0490857 -0.0171208 52 36 30
0.0541351 0.0498944 -0.0226017 49 32 26
0.0506283 0.0503565 -0.0214373 50 33 27
0.0540624 0.0609682 -0.0076662 49 30 24
0.0511849 0.0370874 -0.0107643 48 31 25
0.0509811 0.0531568 -0.0141558 49 32 26
0.0599947 0.0607458 -0.0234652 45 28 22
0.0676263 0.0671537 -0.0382051 48 31 25
0.054611 0.0490593 -0.0285012 49 32 25
0.0718632 0.0518798 -0.0517384 85 58 47
0.0550816 0.0501707 -0.0243197 50 32 26
0.0622661 0.0567766 -0.0158882 45 29 24
0.0521819 0.0594005 -0.0535008 47 31 25
0.0626746 0.0460985 -0.0319313 49 31 25
0.0711968 0.0673016 -0.0358008 75 53 44
0.0343155 0.0444618 -0.0204712 58 39 33
0.055 0.0456589 -0.0270292 49 31 25
0.0725337 0.0592711 -0.0261672 55 38 32
0.036816 0.0512867 -0.0212239 61 43 36
0.0356386 0.059029 0.00307567 51 33 27
0.0705482 0.0363828 -0.0199017 56 37 31
0.0625553 0.0462656 -0.0384018 47 30 23
0.0683835 0.0600973 -0.0232991 45 29 23
0.069864 0.0508375 -0.0682177 0 0 0
0.0361727 0.0517334 -0.0224495 58 42 35
0.0460857 0.0485271 -0.00795455 48 32 25
0.0611785 0.0523917 -0.030049 45 29 23
0.0426436 0.0358734 -0.0383064 52 34 28
0.0353256 0.0448811 -0.031818 50 32 26
0.0390372 0.0387958 -0.0351542 52 34 28
0.0514515 0.0631354 -0.022328 44 28 23
0.0625368 0.0547958 -0.028917 44 28 23
0.0553185 0.0496469 -0.0280633 49 32 26
0.0477457 0.0493674 -0.0161649 50 33 27
0.0654723 0.0548118 -0.0448991 54 35 29
0.0367918 0.0296829 -0.00876693 55 35 29
0.0528934 0.0579778 -0.0369786 43 27 22
0.063514 0.0618391 -0.0334046 42 26 21
0.0313905 0.0514031 -0.0223069 52 35 30
0.0478682 0.0443448 -0.0287418 49 31 26
0.0482628 0.0499119 -0.0159803 48 30 24
0.0528602 0.0522898 -0.0271164 48 31 25
0.0664095 0.0589189 -0.0423653 52 34 28
0.052663 0.0548456 -0.012794 48 31 25
0.0484658 0.0563611 -0.0187624 49 32 26
0.0640279 0.0588502 -0.017762 46 29 23
0.0700129 0.0581627 -0.0312336 55 37 31
0.0334187 0.0362435 -0.0208101 60 39 33
0.0745643 0.0520299 -0.045508 84 57 47
0.0461788 0.0477619 -0.0139112 49 32 26
0.0654204 0.0607679 -0.0314771 41 25 20
0.0406309 0.0542574 -0.023293 49 32 26
0.0472753 0.0540827 -0.0221587 49 31 25
0.0452477 0.0480902 -0.0149401 48 32 26
0.0451804 0.0412382 -0.014739 46 29 24
0.0508798 0.0518252 -0.0174866 50 32 26
0.0615942 0.0617674 -0.0174466 44 27 22
0.0444219 0.0472619 -0.0194913 50 32 26
0.0704254 0.0658198 -0.011755 43 27 22
0.0622709 0.0534254 -0.0205108 46 29 24
0.0512958 0.05245 -0.0163032 49 32 26
0.0622964 0.0568049 -0.0184457 46 29 24
0.0326413 0.0588392 -0.0281155 58 40 34
0.0519268 0.0418325 -0.0216512 48 31 25
0.0505632 0.0558297 -0.0274509 48 31 25
0.0688439 0.0632563 -0.0376487 50 32 27
0.055416 0.0469187 -0.0195276 49 32 25
0.0650772 0.049638 -0.0339432 45 28 22
0.0509593 0.0510283 -0.0252764 49 32 26
0.0462163 0.0574722 -0.0451108 46 31 25
0.0689245 0.0633115 -0.0368275 50 32 27
0.0697031 0.0711328 -0.0241237 53 37 31
0.0745262 0.0632767 -0.0195876 55 38 32
0.0440235 0.0455607 -0.00338283 47 30 24
0.053069 0.0476595 -0.0200812 50 33 26
0.0672088 0.043914 -0.0234875 62 43 36
0.069727 0.0584218 -0.0306661 55 38 32
0.0355912 0.0544275 -0.0205988 56 38 32
0.066462 0.0617399 -0.0388918 50 33 27
0.03185 0.0489445 -0.0368607 95 66 54
0.0413134 0.0523053 -0.01987 49 33 27
0.0525751 0.0647642 -0.0186824 45 29 23
0.0515542 0.0639485 -0.00565412 52 33 27
0.0724594 0.0670269 -0.029073 51 33 27
0.0391717 0.052187 -0.0179714 46 29 24
0.0571045 0.0522036 -0.0154691 50 32 26
0.0688924 0.059655 -0.0351096 50 31 26
0.0536627 0.0711123 -0.0136727 42 27 22
0.0452485 0.0541399 -0.0267287 51 33 26
0.0475391 0.0644977 -0.0261344 43 28 23
0.0405749 0.0610305 -0.0154879 48 31 25
0.050103 0.0590112 -0.0194406 50 32 26
0.0435014 0.0585992 -0.0305319 45 29 23
0.0737301 0.0763314 -0.0230354 50 33 27
0.055719 0.045649 -0.0191838 49 31 25
0.06168 0.0586108 -0.0321272 42 27 22
0.0398281 0.042727 -0.0330367 56 38 31
0.0558393 0.063406 -0.0400831 42 27 23
0.0723039 0.0649709 -0.0503883 0 0 0
0.0539258 0.070676 -0.0186655 44 28 23
0.0566515 0.0611663 -0.0192199 48 29 25
0.0547132 0.064487 -0.0431025 45 30 24
0.0619884 0.0557538 -0.0337331 42 26 21
0.0728579 0.0641859 -0.0443981 75 49 39
0.051278 0.0579449 -0.047213 46 31 26
0.0472435 0.0473354 -0.0260436 49 32 26
0.0606063 0.0596836 -0.023006 44 27 22
0.050593 0.0627812 -0.0266999 44 28 23
0.0328837 0.0495043 -0.0187073 52 34 28
0.0567141 0.0706754 -0.0227171 44 29 23
0.0475068 0.0544403 -0.0203399 48 31 25
0.0490845 0.0567486 -0.00947707 48 31 25
0.0441954 0.0641446 -0.0492868 53 37 30
0.0406096 0.0641738 -0.0411576 52 35 29
0.032656 0.0649053 -0.0144511 50 33 26
0.0407269 0.0592034 -0.00660029 51 32 26
0.0546559 0.0475866 -0.0289046 49 32 25
0.0551099 0.0615121 -0.0345855 43 28 22
0.0685992 0.0647155 -0.0376607 48 32 26
0.0456953 0.0599677 -0.0212366 45 29 23
0.0449887 0.0512227 -0.0207764 48 31 25
0.0501882 0.0672691 -0.0215094 45 29 23
0.047443 0.0543695 -0.0207394 49 31 25
0.0496096 0.0656227 -0.0277077 42 28 22
0.043356 0.0525499 -0.0235216 50 32 26
0.0569228 0.0704134 -0.0149793 42 25 21
0.0559154 0.0628725 -0.0212142 44 28 22
0.0734388 0.048336 -0.0154565 60 40 34
0.0644808 0.0640501 -0.00459218 45 28 23
0.0599779 0.0654011 -0.0265417 45 28 23
0.0543036 0.0672406 -0.0443512 46 30 24
0.0617669 0.0603844 -0.0143105 44 28 22
0.0598587 0.0644155 -0.0262902 44 27 22
0.0335519 0.050953 -0.0281269 50 33 28
0.0342882 0.0552791 -0.033059 57 37 32
0.0466423 0.0629448 -0.0080457 52 35 28
0.0646756 0.0525159 -0.0231598 43 28 22
0.0453611 0.0589208 -0.037945 43 29 24
0.067324 0.069967 -0.0370067 46 30 25
0.0655044 0.0788852 -0.0361178 47 30 24
0.0425585 0.0565808 -0.0381521 48 32 27
0.0461394 0.0659872 -0.0374945 44 30 25
0.0499103 0.0681451 -0.0207778 44 29 23
0.071655 0.0639636 -0.037768 76 54 44
0.0442423 0.0491061 -0.0168701 49 32 26
0.0569145 0.0732648 -0.0278576 42 27 21
0.0703153 0.0652267 -0.0231594 47 31 25
0.0687402 0.0570008 -0.041047 48 31 25
0.0673086 0.0592084 -0.0169311 44 27 22
0.0653394 0.0620464 -0.0152183 43 27 22
0.0752447 0.0713839 -0.0455753 0 0 0
0.0687768 0.0614567 -0.0112711 44 28 22
0.0452176 0.0670708 -0.0236306 43 27 21
0.0733121 0.0640987 -0.022442 55 38 31
0.051445 0.0679314 -0.042034 47 31 25
0.0360703 0.0517928 -0.035692 53 35 29
0.0461865 0.0677058 -0.0305193 43 28 24
0.0323675 0.0621753 -0.0403487 74 49 41
0.0680247 0.057547 -0.0423029 46 29 23
0.0407724 0.0619429 -0.0162006 48 30 25
0.0546774 0.0629123 -0.0403185 42 28 23
0.0418523 0.0642255 -0.0412527 46 32 27
0.0609324 0.0725491 -0.0282334 45 28 23
0.0537261 0.0632303 -0.0425905 46 30 25
0.0645198 0.059518 -0.01868 43 27 22
0.0387828 0.0508034 -0.0184722 48 30 25
0.0400562 0.0628456 -0.0255559 43 27 22
0.0529637 0.0679523 -0.0191404 44 28 23
0.0473639 0.0633176 -0.0420444 45 31 25
0.0335574 0.0432986 -0.0362606 96 70 58
0.0551979 0.0622582 -0.03273 43 27 22
0.0604294 0.0562606 -0.0208921 45 29 24
0.0725275 0.0699644 -0.0209831 54 37 31
0.0464424 0.0639326 -0.0481905 49 32 26
0.0532579 0.0626756 -0.0431099 46 30 25
0.0544004 0.064236 -0.0252463 43 28 23
0.0585573 0.0697283 -0.035265 39 26 22
0.037136 0.0528521 -0.0268411 52 34 28
0.0475884 0.0650003 -0.0357384 44 30 25
0.0659667 0.0717553 -0.0393476 46 31 25
0.0673469 0.0710518 -0.0348042 50 33 27
0.07315 0.0674226 -0.0425315 73 48 39
0.0467885 0.0630916 -0.0380826 45 30 24
0.0356529 0.0566741 -0.000822825 50 33 27
0.0487206 0.0575373 -0.039083 43 29 24
0.0517423 0.0643618 -0.0456424 47 31 25
0.035623 0.0576908 -0.0439969 78 53 43
0.0465708 0.0591191 -0.0187133 49 31 25
0.0586888 0.0498552 -0.0270224 48 30 24
0.0515074 0.0668628 -0.00663577 46 30 24
0.0611441 0.0723663 -0.0433852 53 35 29
0.0302493 0.055938 -0.0332455 94 70 58
0.0496419 0.0588603 -0.0461831 45 31 26
0.0597683 0.0777337 -0.0312543 46 31 26
0.0651311 0.084813 -0.0396016 0 0 0
0.056273 0.0716141 -0.0322917 42 28 23
0.0341033 0.0621791 -0.0245179 49 31 26
0.0379409 0.060533 -0.0467362 68 46 37
0.0425499 0.063415 -0.0262276 45 30 24
0.0542901 0.0742461 -0.0356176 46 32 26
0.0327594 0.0599963 -0.0183483 52 35 29
0.0532667 0.070264 -0.019235 44 28 23
0.0254335 0.0646519 -0.0281145 80 54 44
0.0439428 0.0659192 -0.0318681 45 30 25
0.0535988 0.0676536 -0.0224168 43 27 22
0.0601528 0.0719167 -0.0299508 44 28 23
0.0504827 0.0701043 -0.0251062 43 28 22
0.0530279 0.0653551 -0.0437174 47 30 25
0.0637565 0.0555464 -0.0301463 42 26 22
0.0642003 0.0749914 -0.0247279 42 26 21
0.0341738 0.0555882 -0.0361643 81 58 50
0.0389298 0.0621302 -0.019695 45 29 24
0.0460669 0.0632888 -0.0421251 43 30 25
0.053173 0.0625373 -0.0369487 43 29 24
0.0592094 0.0631662 -0.0391396 42 27 22
0.0527232 0.0656628 -0.0280073 43 28 22
0.0545259 0.0642627 -0.0444388 44 29 24
0.0506746 0.0684513 -0.0128691 46 30 24
0.0680869 0.0694637 -0.0287503 52 36 29
0.0454462 0.0651731 -0.0250934 43 27 22
0.0627904 0.0804947 -0.0151254 51 35 30
0.0432375 0.0617062 -0.027492 45 29 24
0.0591784 0.0707039 -0.0415847 50 33 27
0.0321111 0.0529787 -0.0344587 96 69 58
0.0739034 0.0833766 -0.0318494 64 41 33
0.0399266 0.0655584 -0.0228539 44 28 22
0.0663987 0.057101 -0.0315897 41 25 20
0.0287343 0.0560439 -0.0287919 95 69 58
0.0334864 0.0530597 -0.0282852 54 35 30
0.0449373 0.0629158 -0.0343281 42 28 24
0.0390825 0.0572833 -0.0212679 46 30 25
0.0497571 0.0721575 -0.0150995 44 29 23
0.0445134 0.0631711 -0.0397878 47 32 26
0.0575028 0.0644589 -0.0159091 46 28 23
0.0534935 0.0653655 -0.0267076 44 28 22
0.060176 0.0749436 -0.00818433 49 31 25
0.0640888 0.0834186 -0.0368372 67 46 36
0.0429685 0.0567674 -0.0390511 47 32 27
0.0406515 0.06746 -0.0210478 43 28 23
0.0447551 0.0675814 -0.00956368 45 29 23
0.0628819 0.0702976 -0.0412855 51 33 27
0.0369638 0.0572801 -0.0246587 56 38 32
0.0530012 0.0728122 -0.0243583 45 30 24
0.0487052 0.0682883 -0.00786629 47 30 24
0.0378881 0.0615646 -0.0164549 46 30 25
0.0576307 0.0650853 -0.0533703 58 37 30
0.0624949 0.066799 -0.0205207 43 27 22
0.061096 0.0601002 -0.0373974 42 27 22
0.0517023 0.0745912 -0.0435012 0 0 0
0.0314648 0.0586735 -0.034323 84 60 50
0.0553834 0.0646893 -0.0427333 44 29 24
0.0315723 0.0640834 -0.0304732 80 55 46
0.0524967 0.0616156 -0.0225146 45 29 24
0.0611155 0.0700729 -0.0438026 54 36 29
0.0635958 0.0744436 -0.0282038 41 26 21
0.0511622 0.0673302 -0.0386637 46 31 25
0.0581197 0.0828957 -0.0348358 0 0 0
0.0320207 0.0682686 -0.0316993 77 54 44
0.0434603 0.048494 -0.0220054 49 32 26
0.0602024 0.0722991 -0.0420117 57 37 30
0.0365649 0.0457827 -0.0452407 97 70 58
0.0352794 0.0581856 -0.0361783 58 38 32
0.0342147 0.0594721 -0.0423204 78 53 44
0.0517193 0.0532167 -0.0320773 49 31 25
0.0483719 0.0664115 -0.0380004 47 32 25
0.0523507 0.0692985 -0.0423966 46 31 25
0.0554777 0.0702877 -0.0372621 46 30 25
0.049169 0.0672678 -0.00775827 45 29 24
0.0697983 0.0808664 -0.0371712 60 40 32
0.0361123 0.0556097 -0.0219744 55 37 31
0.0508608 0.0706671 -0.010735 46 30 24
0.0466069 0.0642688 -0.0462631 45 32 26
0.0423246 0.0638284 -0.0339763 45 30 25
0.0606173 0.0579927 -0.0160752 44 28 23
0.0409038 0.0629407 -0.0239262 44 29 24
0.0731374 0.0799817 -0.0219992 50 33 28
0.0675342 0.0711271 -0.0444535 63 42 34
0.0435515 0.0674133 -0.0352772 44 30 24
0.0435956 0.0647404 -0.0304406 43 28 23
0.0482523 0.0768701 -0.0347729 0 0 0
0.0603006 0.0768367 -0.0368609 55 36 29
0.0563165 0.0729584 -0.0502536 0 0 0
0.0748163 0.0728311 -0.0348184 71 47 39
0.0564412 0.0658594 -0.0271632 45 29 24
0.0558006 0.0682815 -0.042546 45 30 24
0.0356375 0.0633018 -0.0444124 0 0 0
0.0325568 0.0662916 -0.0281051 69 46 38
0.0597214 0.0803322 -0.0340555 57 38 30
0.0501759 0.0753055 -0.0334351 51 33 26
0.0609539 0.0819194 -0.0330005 55 37 29
0.0596649 0.0646937 -0.0269563 44 28 22
0.0454233 0.0618742 -0.0224881 44 28 22
0.0523492 0.0685805 -0.0429768 46 31 25
0.0652613 0.0795883 -0.0360711 46 31 25
0.0318723 0.0560804 -0.0348814 89 67 55
0.0531911 0.0625742 -0.0329064 43 28 22
0.0531596 0.0675538 -0.0412683 47 31 25
0.0570516 0.067341 -0.0301056 43 27 22
0.0599928 0.0719277 -0.0354555 41 28 23
0.0697806 0.0888768 -0.0371559 0 0 0
0.0600299 0.0682479 -0.0508872 50 34 27
0.0665775 0.0715984 -0.0486425 58 38 30
0.0519088 0.0658286 -0.0490372 47 32 25
0.0388322 0.0590228 -0.0245816 41 25 21
0.0523587 0.0777005 -0.0366209 0 0 0
0.0506534 0.0775698 -0.0386878 0 0 0
0.0358978 0.0647239 -0.0212104 48 31 25
0.055973 0.0696142 -0.0283849 44 29 24
0.0489101 0.0687898 -0.0355929 47 31 26
0.0588088 0.0773187 -0.0310964 41 28 24
0.049023 0.0683534 -0.0427957 48 33 27
0.0376117 0.0659134 -0.0318465 51 34 27
0.0511146 0.0734855 -0.0302665 48 31 26
0.0597422 0.0759382 -0.0377758 55 36 29
0.0662356 0.0325447 -0.061296 0 0 0
0.0539002 0.0232934 -0.0276519 51 33 27
0.0697996 0.0429673 -0.0580841 110 78 64
0.0602975 0.0419082 -0.0651395 94 65 54
0.0726362 0.0497235 -0.0497701 89 60 49
0.0367305 0.0419142 -0.0341965 50 33 27
0.0553309 0.0183027 -0.0192673 89 65 56
0.0647759 0.0522924 -0.071928 0 0 0
0.0514975 0.0665722 -0.0390157 46 31 25
0.0634078 0.0417016 -0.060927 94 61 51
0.0612943 0.0392725 -0.0565077 105 77 66
0.0613057 0.0425439 -0.0573213 100 74 63
0.0667823 0.0402012 -0.0456948 107 79 68
0.0655125 0.0257603 -0.0295578 91 64 54
0.0459673 0.0110823 -0.0272503 0 0 0
0.0505756 0.0234554 -0.0312415 86 62 54
0.0530957 0.0208419 -0.0305463 84 58 47
0.054276 0.0236355 -0.0258296 56 37 32
0.0513749 0.0189878 -0.02433 87 60 52
0.0526349 0.0254399 -0.0391283 88 65 55
0.0530482 0.0341414 -0.0362434 57 39 33
0.0590989 0.0344335 -0.0410307 52 34 28
0.0596257 0.0215103 -0.0310761 88 60 50
0.0582748 0.0348077 -0.0259872 57 39 33
0.0538357 0.0203044 -0.0211216 74 53 45
0.0469337 0.0288345 -0.0437602 84 57 49
0.0630509 0.0290734 -0.0379547 90 65 54
0.0472541 0.0253925 -0.0354598 84 58 49
0.0667006 0.0378902 -0.00998772 54 36 30
0.0542228 0.0326453 -0.0372736 54 36 30
0.0467088 0.0322244 -0.0237896 55 36 31
0.0488661 0.0238767 -0.0365041 92 64 55
0.055916 0.0203445 -0.0179775 53 34 29
0.0603327 0.020637 -0.0153625 56 36 30
0.0493203 0.0248605 -0.0308158 45 29 25
0.0600103 0.0326164 -0.0265497 54 37 31
0.043401 0.0236549 -0.0246283 84 61 52
0.0413245 0.0197197 -0.0455369 0 0 0
0.0477419 0.0305468 -0.0207371 53 35 29
0.0603395 0.0354866 -0.0563285 86 56 46
0.0562375 0.0369575 -0.0414575 56 38 32
0.0664819 0.0342861 -0.0236096 54 35 30
0.0562793 0.02559 -0.0294868 52 34 29
0.0527651 0.0198842 -0.0150225 58 38 34
0.0551969 0.0297026 -0.0380844 54 35 30
0.0573419 0.0242705 -0.0292583 48 29 24
0.0582667 0.0328623 -0.046068 55 36 30
0.0578193 0.0221849 -0.0127108 57 39 33
0.0556082 0.0355366 -0.0208262 55 37 31
0.0655283 0.0245708 -0.0266812 91 65 54
0.0628968 0.0413257 -0.0387648 56 37 31
0.0561642 0.0262232 -0.0343908 51 33 27
0.0521089 0.0328509 -0.0270012 57 38 32
0.0538906 0.0275524 -0.0159717 54 36 31
0.0665555 0.0391841 -0.0450231 107 79 68
0.0592318 0.0318834 -0.0301254 55 36 31
0.0411347 0.0299687 -0.00616939 56 38 31
0.0645783 0.0396255 -0.0395029 56 35 30
0.056968 0.0411629 -0.0228152 49 32 26
0.0567147 0.0321561 -0.0435164 56 38 32
0.0597639 0.0428777 -0.0208095 50 32 26
0.0542936 0.0451774 -0.0262172 49 32 26
0.0472687 0.0321275 -0.0355499 54 36 31
0.056445 0.0454206 -0.0255453 49 31 25
0.0442788 0.0358384 -0.0356062 54 35 30
0.0431146 0.0503675 -0.0149546 48 31 25
0.0626933 0.0307034 -0.0337325 53 34 29
0.0522715 0.0417044 -0.0219443 46 30 23
0.0602296 0.038529 -0.0366207 55 37 32
0.0586726 0.0368649 -0.0333043 57 38 32
0.0549566 0.0429971 -0.0285261 49 32 24
0.0581539 0.0403569 -0.0293137 46 30 24
0.0577981 0.0409982 -0.0317665 48 30 25
0.0422412 0.0272586 -0.00170595 57 38 31
0.0481233 0.0292598 -0.0402475 50 33 28
0.0627422 0.0413774 -0.00867836 47 31 25
0.0593547 0.0415105 -0.0315294 47 30 25
0.0461652 0.0329302 -0.0378981 52 35 30
0.0541703 0.0372024 -0.0357915 54 37 31
0.049623 0.0353104 -0.0318595 57 38 32
0.0516671 0.0348779 -0.0240161 55 39 32
0.0718986 0.0484731 -0.0504373 90 64 53
0.0435823 0.0210358 -0.0106379 55 37 32
0.0545036 0.0372427 -0.0415498 57 39 32
0.0551435 0.0346076 -0.0248257 57 39 33
0.0661952 0.0324 -0.0206844 55 37 31
0.0466859 0.0405265 -0.0229286 45 28 22
0.0587614 0.0410504 -0.0434537 56 37 31
0.0381507 0.0319114 -0.026572 59 39 32
0.0459676 0.0345208 -0.0283304 55 36 30
0.0517104 0.0304281 -0.0309793 52 35 29
0.0665049 0.043294 -0.0225382 60 41 34
0.0640038 0.0373557 -0.00949331 58 39 33
0.0491377 0.0309066 -0.0316292 52 34 29
0.0402544 0.0392118 -0.0251476 56 38 32
0.0597967 0.0350523 -0.0250979 57 39 34
0.0649154 0.0388945 -0.0516733 100 72 61
0.0602877 0.0415303 -0.0321984 43 27 22
0.055663 0.0572372 -0.0111677 47 30 24
0.0609116 0.0354288 -0.0258809 56 38 32
0.0613643 0.043769 -0.0368684 47 28 23
0.0560711 0.0358736 -0.0211293 55 37 31
0.0672871 0.0483501 -0.0417152 51 33 27
0.0534527 0.036868 -0.0354283 55 37 31
0.0334263 0.0373426 -0.0131601 56 36 30
0.0560024 0.0353644 -0.0296214 57 38 32
0.0500699 0.0248024 -0.0102926 53 35 29
0.0609543 0.0425462 -0.0405532 60 42 35
0.0651857 0.0383323 -0.0316327 55 35 30
0.0605299 0.0412291 -0.0203359 47 31 25
0.0640479 0.0424938 -0.0324757 58 39 33
0.0589807 0.0528561 -0.0188724 48 30 24
0.0459922 0.0406686 -0.00653927 47 30 24
0.0606045 0.042657 -0.0311185 45 28 23
0.063699 0.0409345 -0.0371348 54 35 29
0.0663845 0.0434115 -0.0393995 62 44 36
0.0685833 0.0524214 -0.0479626 90 65 54
0.0648512 0.0388118 -0.0171298 55 37 31
0.0615967 0.0485906 -0.0140232 44 27 21
0.0562735 0.0377854 -0.0247333 46 29 24
0.0670628 0.0557459 -0.0371497 54 37 31
0.0563579 0.0384755 -0.00917649 47 31 25
0.0520925 0.03445 -0.0385266 56 38 32
0.0542333 0.0514276 -0.0357661 48 31 25
0.0630748 0.0451537 -0.0352934 52 34 27
0.0578361 0.0416248 -0.0317703 49 32 26
0.062805 0.0432106 -0.00401725 50 33 26
