ply
format ascii 1.0
comment Created by Open3D
element vertex 1168
property double x
property double y
property double z
property uchar red
property uchar green
property uchar blue
end_header
0.0773447 0.031023 -0.108957 255 216 188
0.0791798 0.0347136 -0.105931 255 255 255
0.0774841 0.0262808 -0.10847 248 192 174
0.0777775 0.0281725 -0.105583 249 243 239
0.0809658 0.0335795 -0.104598 245 142 113
0.0674788 0.0154075 -0.0954536 133 38 31
0.0782053 0.0307961 -0.1073 234 254 255
0.0756709 0.0243774 -0.0738112 205 113 99
0.0672682 0.00944091 -0.0768711 221 123 111
0.0745186 0.0314744 -0.0840389 141 82 69
0.0736239 0.0321501 -0.0798528 138 67 56
0.0790533 0.0285707 -0.107211 251 251 220
0.0725778 0.032671 -0.0798057 141 92 80
0.0764029 0.026308 -0.0808579 122 52 48
0.0644094 0.011143 -0.084633 217 118 123
0.0850601 0.0326473 -0.0998595 22 76 212
0.0666662 0.010874 -0.0605597 179 160 153
0.0724068 0.0341149 -0.0779217 143 110 96
0.0807279 0.0362813 -0.093264 248 160 155
0.0769807 0.0179379 -0.078936 130 63 54
0.0757868 0.0213711 -0.0796002 76 43 33
0.0691349 0.00991419 -0.0843462 113 61 57
0.0781061 0.0233672 -0.0780942 152 64 74
0.0751692 0.0269063 -0.0792009 101 78 76
0.0638557 0.0142696 -0.0805431 148 67 68
0.0625117 0.0133345 -0.0835229 98 28 28
0.0615231 0.016565 -0.0770774 148 61 62
0.0785273 0.0270945 -0.0843068 139 55 47
0.0725961 0.0187953 -0.0543094 119 91 71
0.0646324 0.0135091 -0.0820358 146 43 31
0.0728529 0.0147684 -0.0607802 62 30 26
0.0819512 0.0323489 -0.0873289 146 122 111
0.0731436 0.0313719 -0.0796052 109 52 40
0.0752032 0.0288568 -0.0815862 148 83 71
0.0768045 0.0215235 -0.0700583 255 61 44
0.0782726 0.021763 -0.0761782 164 66 62
0.0738309 0.0190428 -0.0587509 70 10 9
0.0757136 0.0157492 -0.0517205 0 0 0
0.0779191 0.0227595 -0.0716793 190 136 109
0.0770587 0.0210152 -0.0768595 101 80 75
0.0678502 0.0108359 -0.0865709 153 74 68
0.0761462 0.0257126 -0.0774883 178 92 77
0.0767424 0.028986 -0.0820987 181 91 79
0.0670519 0.0109959 -0.0784675 185 93 83
0.0676087 0.0116183 -0.0593446 56 27 22
0.0754658 0.0265136 -0.0698469 203 107 75
0.0832563 0.0306289 -0.101973 178 65 57
0.0715822 0.0380155 -0.0804836 190 85 80
0.0740512 0.0266847 -0.0721921 72 46 36
0.071074 0.010559 -0.0823054 145 87 79
0.0780556 0.0228359 -0.0805782 153 66 68
0.0754291 0.0250416 -0.0794348 138 82 75
0.0737082 0.0257227 -0.0540028 59 31 28
0.0752516 0.0100236 -0.0806165 131 51 43
0.076393 0.0143831 -0.0712684 94 38 35
0.0721537 0.0109991 -0.0812739 133 66 60
0.0745704 0.0241771 -0.0703343 166 83 76
0.0723729 0.0167302 -0.0580346 74 57 42
0.0736751 0.0175019 -0.0580589 82 37 30
0.0691307 0.0121925 -0.0816273 130 63 56
0.0636949 0.0121977 -0.0826507 115 43 38
0.075361 0.0185731 -0.0577153 27 0 0
0.0744081 0.0272595 -0.0768651 83 49 40
0.0738713 0.0175527 -0.0562872 0 0 0
0.0808494 0.017354 -0.0808004 176 91 90
0.0742849 0.0289668 -0.0759815 115 65 46
0.0750272 0.0188415 -0.0548584 8 0 0
0.0774839 0.0131552 -0.0709816 69 22 17
0.0830694 0.0197785 -0.088991 168 70 67
0.0828385 0.0316116 -0.0969669 135 177 159
0.0773123 0.0172374 -0.07047 191 116 99
0.0771923 0.0295618 -0.0815128 167 101 95
0.0751347 0.0179012 -0.0552811 3 0 0
0.0830338 0.0359007 -0.100717 198 138 129
0.0706752 0.00988444 -0.0847205 142 50 44
0.082282 0.0377506 -0.0946314 180 99 92
0.0704445 0.0343029 -0.0814104 136 94 79
0.0774344 0.0317875 -0.106166 251 255 245
0.0753618 0.0183724 -0.0557885 17 0 0
0.0664922 0.0114428 -0.0790118 142 36 26
0.0664798 0.028701 -0.0310933 0 0 0
0.0865648 0.016052 -0.0953328 170 66 69
0.070449 0.0266838 -0.0405577 44 11 9
0.0832122 0.00973521 -0.0827711 121 53 52
0.0693099 0.0148753 -0.0574547 73 40 32
0.0849106 0.0116408 -0.0935547 167 120 99
0.06499 0.0091545 -0.0837322 184 103 93
0.0686994 0.0348642 -0.078232 123 83 65
0.0635916 0.0103887 -0.0837407 255 175 160
0.0747956 0.0209174 -0.0524728 0 0 0
0.0784682 0.0356996 -0.105835 245 250 255
0.0753485 0.0238162 -0.0679558 222 73 58
0.0754423 0.021552 -0.0658548 253 158 133
0.0766949 0.0194173 -0.103381 193 82 77
0.0725289 0.0264085 -0.0405117 41 22 21
0.0720818 0.0119478 -0.0655857 90 45 40
0.0737209 0.0225153 -0.0528352 53 15 10
0.0771428 0.0132742 -0.0677678 45 0 0
0.0636284 0.0118621 -0.0819417 142 37 28
0.0743274 0.0101294 -0.0632355 81 44 38
0.0633396 0.0077209 -0.0621209 75 24 18
0.0764049 0.0392354 -0.0835934 177 73 71
0.0840374 0.0222682 -0.0998051 180 73 65
0.0759823 0.015503 -0.0689051 89 39 36
0.0828506 0.0137119 -0.0947793 178 68 60
0.0608407 0.0189677 -0.0839829 114 35 29
0.0693875 0.0110359 -0.0835716 141 59 51
0.0737326 0.0322319 -0.0807169 146 63 56
0.0772926 0.0265214 -0.0793721 150 58 51
0.0705327 0.0149557 -0.0958235 123 34 26
0.0640049 0.00842794 -0.0695125 97 51 50
0.0802998 0.0384374 -0.0936569 166 75 75
0.0833697 0.020999 -0.100403 171 98 92
0.0742353 0.0150989 -0.0588815 45 21 0
0.0730503 0.00970065 -0.0941666 126 33 21
0.0754414 0.00854218 -0.0798944 108 57 44
0.0691531 0.00671061 -0.0846806 85 17 22
0.0715402 0.0365669 -0.0799117 155 71 67
0.0730706 0.0179013 -0.0569094 94 7 0
0.0772781 0.0129818 -0.0680126 77 30 19
0.0652011 0.0268494 -0.0424975 41 17 15
0.0685576 0.00327441 -0.0828695 107 9 0
0.078192 0.0207094 -0.0772615 56 0 0
0.0719321 0.0180682 -0.0554475 85 59 49
0.0755134 0.00622972 -0.0890182 147 76 71
0.0731436 0.0136607 -0.08982 136 74 64
0.083376 0.0211045 -0.0989208 128 72 60
0.0702752 0.00911312 -0.0629849 46 27 25
0.08288 0.0220944 -0.0995821 172 92 85
0.081504 0.0113612 -0.0777667 112 55 48
0.0664912 0.0299417 -0.0295418 0 0 0
0.0828494 0.035033 -0.102433 183 255 251
0.0755315 0.0274561 -0.0797623 131 44 35
0.0698103 0.0142835 -0.0939137 111 42 36
0.0734253 0.0170948 -0.0963234 182 99 87
0.0642219 0.0231191 -0.0392214 63 26 23
0.0575251 0.00910684 -0.0492623 38 0 0
0.0626212 0.00436379 -0.0468121 115 35 36
0.0810926 0.0184016 -0.0796072 132 46 37
0.0615494 0.00585065 -0.0502418 52 38 30
0.0714858 0.0168961 -0.0580283 51 6 0
0.077199 0.0344176 -0.0815696 255 255 255
0.0757778 0.0377984 -0.0810838 255 255 255
0.0767092 0.0301607 -0.0768156 182 255 255
0.0721964 0.0109889 -0.0609603 194 223 205
0.0685881 0.00855013 -0.0454999 193 111 107
0.0640684 0.0106006 -0.0600394 198 184 163
0.065081 0.0176092 -0.0476617 130 83 81
0.0625588 0.0191857 -0.0433864 174 101 84
0.0577153 0.0158079 -0.0452918 172 82 79
0.0622479 0.0144036 -0.0426813 152 76 66
0.060708 0.0243037 -0.0459159 161 75 70
0.0614286 0.0235092 -0.0454444 176 82 79
0.0613465 0.0258739 -0.0450125 180 80 79
0.0610814 0.0173378 -0.0425577 110 92 57
0.0804078 0.0369386 -0.105536 243 255 248
0.0773432 0.029992 -0.110391 251 255 255
0.077792 0.0295479 -0.109349 251 255 255
0.0770975 0.0303778 -0.108478 255 255 255
0.0742895 0.0270765 -0.110336 255 232 223
0.0782078 0.0348337 -0.106671 233 255 255
0.077651 0.0312043 -0.109497 254 255 255
0.0772005 0.0320572 -0.109247 251 255 255
0.078587 0.0288661 -0.110019 254 255 255
0.0776871 0.0311189 -0.10975 255 255 255
0.0784974 0.0343645 -0.106849 245 255 255
0.0780153 0.0270337 -0.110173 247 255 249
0.0787046 0.0346008 -0.108851 255 255 255
0.0756052 0.037594 -0.103701 238 255 255
0.0795963 0.0370436 -0.10841 244 255 255
0.0773903 0.0325358 -0.108045 255 246 223
0.0783949 0.0324822 -0.10816 255 255 249
0.0782491 0.0311926 -0.110098 255 255 255
0.0778255 0.0356833 -0.106925 243 255 255
0.0813017 0.0363582 -0.098006 145 65 58
0.0815969 0.0245293 -0.0957618 142 71 68
0.0791682 0.0192622 -0.0977523 143 70 60
0.0745988 0.0178569 -0.102064 240 113 102
0.0796404 0.0172281 -0.0944474 153 111 94
0.0762751 0.0180519 -0.103455 247 136 128
0.081153 0.0226069 -0.0939218 157 83 81
0.0815122 0.0221749 -0.0932444 162 85 78
0.0829668 0.0270863 -0.0975985 187 194 192
0.0815593 0.0219843 -0.0891061 161 66 58
0.0765923 0.0170585 -0.098318 255 147 140
0.0797676 0.0279935 -0.085944 163 69 61
0.0806699 0.0296147 -0.0886464 177 106 102
0.0799652 0.0293267 -0.0860435 146 46 45
0.0781952 0.0161067 -0.0806411 137 65 59
0.0700138 0.0127243 -0.0965681 189 109 95
0.0791348 0.019282 -0.0753394 121 53 46
0.0778736 0.0251688 -0.0802251 144 63 59
0.0780873 0.0141071 -0.0824255 127 53 49
0.0776129 0.0314024 -0.0854423 151 94 85
0.077954 0.0343223 -0.0877091 138 59 52
0.0768826 0.00650985 -0.0786074 134 94 85
0.0796911 0.0114456 -0.0764073 72 18 12
0.0786753 0.0300081 -0.0792026 255 255 255
0.0763458 0.0228918 -0.0790664 137 64 61
0.0733769 0.0113479 -0.0835554 110 60 53
0.071994 0.00941873 -0.0772838 96 39 35
0.0652431 0.0115876 -0.0813586 147 80 85
0.0671526 0.00923901 -0.0833611 154 78 72
0.0750366 0.0104831 -0.0726389 103 30 21
0.0767211 0.029231 -0.0804949 207 58 48
0.0754321 0.0261453 -0.0778544 106 47 45
0.0665149 0.0126267 -0.0823224 90 0 0
0.0708895 0.00762432 -0.0735018 79 30 26
0.0764233 0.0295563 -0.0842307 160 84 75
0.06469 0.0145534 -0.0808489 130 45 41
0.0723804 0.0179059 -0.0587295 91 43 38
0.0693415 0.0138931 -0.0593588 87 46 35
0.074012 0.00961731 -0.0651147 40 0 0
0.0643768 0.0112724 -0.0613343 79 45 40
0.0639378 0.0106748 -0.0823199 151 78 78
0.0743171 0.0337125 -0.0779041 105 63 65
0.0735307 0.0329087 -0.0788146 94 46 39
0.0621618 0.0129485 -0.0797522 124 36 23
0.06227 0.0179048 -0.0799207 117 38 36
0.060583 0.016441 -0.0803271 119 55 57
0.062266 0.00974618 -0.0622954 82 34 28
0.0583073 0.011022 -0.0606193 92 27 24
0.0740295 0.0326743 -0.0783446 99 63 63
0.0627056 0.0109975 -0.0606195 77 47 44
0.0612421 0.0207439 -0.0899751 133 53 48
0.0779815 0.029673 -0.109215 254 255 248
0.0781616 0.031593 -0.110256 249 255 255
0.0781771 0.032942 -0.108756 254 255 255
0.0778073 0.0319505 -0.109648 255 255 255
0.0785428 0.0320809 -0.106968 255 255 255
0.075181 0.0266385 -0.10877 245 255 255
0.0786592 0.0336877 -0.108771 253 255 255
0.0784549 0.0281565 -0.108458 229 255 255
0.0779929 0.0305368 -0.110145 255 208 180
0.0770177 0.0373077 -0.104592 254 251 255
0.0755239 0.0271012 -0.108601 255 143 124
0.0761819 0.0233144 -0.107828 255 148 130
0.0776131 0.0191439 -0.102225 255 174 166
0.0825447 0.031733 -0.0961283 160 167 164
0.0824227 0.0215789 -0.09889 171 86 79
0.0728459 0.0150045 -0.0994766 203 109 98
0.0800168 0.0176762 -0.0900809 144 71 64
0.0742267 0.0177273 -0.096843 181 93 83
0.0796282 0.0272974 -0.0826682 121 7 0
0.0716822 0.00965369 -0.0878801 76 9 5
0.07559 0.033068 -0.0834486 178 85 72
0.075722 0.0254824 -0.077597 110 63 56
0.0709971 0.0115909 -0.0819167 119 69 60
0.0763031 0.0328428 -0.0848897 179 91 82
0.0783862 0.0388692 -0.0888693 192 77 65
0.0690878 0.00752083 -0.0720545 65 23 20
0.0660738 0.0130739 -0.082299 126 50 46
0.0696449 0.0145244 -0.0589022 84 52 45
0.0743235 0.0327445 -0.0801334 143 65 60
0.0665023 0.0153642 -0.0933799 139 68 64
0.0679223 0.0113191 -0.0602356 126 71 72
0.0622285 0.0164891 -0.0805658 132 62 62
0.0624351 0.0151826 -0.082268 142 51 43
0.0651453 0.0219606 -0.0461961 46 16 13
0.0726888 0.0320717 -0.0791786 121 102 89
0.0626985 0.0199269 -0.0468758 70 42 33
0.0770238 0.0292047 -0.106666 243 255 255
0.0743309 0.0270135 -0.108842 251 255 255
0.0786076 0.0309477 -0.107208 243 255 242
0.0803565 0.0365381 -0.104474 250 241 215
0.0766274 0.0264223 -0.108362 255 255 236
0.0777092 0.0309873 -0.108623 248 231 192
0.0792175 0.0355332 -0.105398 238 242 230
0.0788882 0.0341228 -0.106372 250 252 248
0.0782725 0.0222526 -0.107851 255 192 179
0.0777233 0.0312181 -0.108817 251 238 217
0.0784272 0.0305643 -0.107228 255 196 174
0.0759538 0.0355046 -0.107463 255 255 230
0.0758519 0.0180025 -0.104099 254 150 139
0.077593 0.0181399 -0.101342 254 155 147
0.08321 0.0355199 -0.101805 179 245 227
0.0730557 0.0170139 -0.098457 194 100 90
0.0820024 0.0370052 -0.0937862 170 95 87
0.076401 0.0370233 -0.0850136 181 84 70
0.0755466 0.0312402 -0.0845097 166 108 94
0.0754636 0.0296625 -0.0762933 255 189 158
0.0732518 0.0319743 -0.0798723 123 54 46
0.0742065 0.0333416 -0.0792686 107 53 44
0.0800251 0.037096 -0.102973 212 230 255
0.0786707 0.034109 -0.108678 255 255 255
0.0741765 0.016815 -0.0976212 216 128 119
0.079284 0.0382797 -0.0904694 163 108 97
0.0790444 0.0330053 -0.106366 255 255 255
0.0779639 0.0271987 -0.110159 248 255 255
0.077573 0.0303514 -0.108452 243 255 255
0.0797293 0.0279126 -0.107928 225 245 225
0.0752424 0.0351983 -0.0819549 165 75 65
0.075327 0.0236797 -0.0795364 136 77 67
0.0688558 0.00898833 -0.0833534 144 64 52
0.0733673 0.0343626 -0.0782784 129 86 80
0.0783785 0.0376323 -0.0935467 151 67 58
0.0763896 0.0345678 -0.0843098 204 139 128
0.0790009 0.02315 -0.107926 228 217 198
0.0804611 0.0352541 -0.105262 255 255 255
0.0816481 0.0361022 -0.103209 223 255 227
0.0751998 0.0294872 -0.0808926 186 143 126
0.0785614 0.0302416 -0.0781832 255 255 255
0.0785135 0.0302765 -0.106792 251 246 216
0.0787412 0.0309446 -0.0809817 255 255 255
0.0733847 0.0323868 -0.0796645 119 52 43
0.0775981 0.0205918 -0.102478 248 111 103
0.0755128 0.028495 -0.0815871 243 209 190
0.0737631 0.0314746 -0.0799525 134 55 52
0.074921 0.0266537 -0.0777753 129 97 101
0.0646524 0.00927971 -0.0849182 197 120 112
0.065891 0.0112365 -0.0833244 125 34 37
0.0681005 0.0117476 -0.0600664 103 50 50
0.0729954 0.0351395 -0.0808279 140 76 65
0.0780552 0.016435 -0.103953 237 193 201
0.067244 0.0107211 -0.0604767 162 131 131
0.0696942 0.0346361 -0.0809247 134 90 76
0.0749224 0.0154158 -0.100706 231 118 109
0.076588 0.0156967 -0.0986911 210 122 109
0.0786874 0.0291407 -0.0846876 154 67 57
0.0769988 0.0193779 -0.0762379 125 63 52
0.0766694 0.0197629 -0.0782079 130 71 62
0.068027 0.0113806 -0.0831783 142 60 55
0.0820892 0.0312522 -0.0841777 254 230 204
0.075876 0.0222946 -0.0778636 118 73 67
0.0759297 0.0307906 -0.0834394 228 146 122
0.0688289 0.0108543 -0.0804507 117 48 43
0.0633764 0.00976457 -0.0623561 73 29 25
0.0818025 0.0317631 -0.0822268 149 59 51
0.0773809 0.0226451 -0.0772578 132 66 60
0.0657841 0.00957728 -0.0780352 221 210 197
0.0742141 0.0293586 -0.0773023 122 87 73
0.0761666 0.0256706 -0.0768518 115 56 50
0.0748964 0.0281909 -0.0812168 134 60 55
0.0754702 0.0298712 -0.080001 175 14 0
0.0773939 0.0302019 -0.0800539 71 138 126
0.0718632 0.0354429 -0.0786087 135 94 82
0.0797549 0.0237138 -0.107626 249 238 219
0.0741538 0.0309347 -0.0751337 125 84 69
0.0772586 0.0230251 -0.0687984 196 20 0
0.0736984 0.0152472 -0.0608155 63 32 27
0.0684214 0.00939066 -0.0840184 158 79 74
0.0730968 0.0203515 -0.0550291 46 18 14
0.0746204 0.0172863 -0.0458586 0 0 0
0.0755669 0.0184491 -0.0629262 61 25 22
0.0735485 0.00603954 -0.0799506 154 116 100
0.0779447 0.0231073 -0.0791955 118 89 86
0.0680675 0.010202 -0.0836551 128 66 60
0.0757002 0.0269621 -0.0786583 138 61 57
0.0690008 0.0119911 -0.0606772 77 35 33
0.0711373 0.0339714 -0.0790461 144 118 96
0.0763667 0.0323597 -0.0845832 164 108 96
0.0801263 0.0266419 -0.107198 218 255 239
0.0773575 0.0318945 -0.0853244 149 169 171
0.0694442 0.00803103 -0.078874 255 255 255
0.0729142 0.0331251 -0.0781987 214 102 95
0.0701893 0.0099919 -0.0855203 143 66 59
0.0658544 0.0120129 -0.079448 127 40 31
0.0742198 0.0294196 -0.0774885 132 74 64
0.0755943 0.0258401 -0.0789707 122 29 38
0.0808503 0.0205581 -0.0878295 133 48 43
0.0768044 0.0155868 -0.0705169 85 33 28
0.0763595 0.0165009 -0.0682628 74 32 26
0.0683209 0.0348862 -0.0811943 133 92 75
0.0652908 0.0117774 -0.0828801 168 63 52
0.0801805 0.0209174 -0.0868004 154 73 66
0.0673231 0.010341 -0.0816572 155 89 94
0.0616351 0.0152411 -0.0919803 149 78 75
0.0720958 0.0336747 -0.0769657 147 83 70
0.0669554 0.00735382 -0.0818433 201 121 120
0.0743986 0.0295966 -0.0736101 110 61 49
0.0642945 0.0109829 -0.0778785 174 115 111
0.0744529 0.0157283 -0.0530523 29 0 0
0.0841696 0.0351145 -0.0957458 134 163 159
0.0733998 0.0298438 -0.0795551 140 83 72
0.0795978 0.0258547 -0.0857331 156 76 69
0.0803134 0.0238225 -0.0881968 141 63 55
0.0635574 0.0295976 -0.037526 30 9 6
0.068243 0.0345135 -0.0809731 180 142 126
0.064311 0.0340916 -0.0468257 37 7 6
0.0801288 0.0272352 -0.0827855 93 38 24
0.0782557 0.029692 -0.083083 82 0 0
0.0755134 0.029165 -0.0840415 152 83 72
0.0738984 0.0196431 -0.0518568 102 80 63
0.0753902 0.0180643 -0.0593008 36 0 0
0.071535 0.0285876 -0.0432416 39 19 13
0.0761969 0.0269085 -0.0788603 239 162 147
0.0815197 0.0365599 -0.0940126 143 164 156
0.0712611 0.0356525 -0.0798885 205 133 113
0.0772211 0.0317111 -0.106113 250 252 254
0.0750662 0.0184002 -0.0563259 63 0 0
0.0715566 0.0334769 -0.0795435 140 107 90
0.0732445 0.0190208 -0.0555338 84 63 50
0.0772964 0.0224401 -0.0746295 172 81 59
0.0737349 0.0288941 -0.0796645 133 78 62
0.0755085 0.0266447 -0.0650564 71 222 223
0.0766678 0.0202333 -0.0745456 174 104 83
0.0760259 0.022624 -0.0712331 206 83 63
0.0670559 0.0279851 -0.026134 0 0 0
0.0756456 0.0227513 -0.0580898 255 232 182
0.0854598 0.0267875 -0.0940742 150 70 78
0.0860905 0.0260083 -0.0876923 64 0 0
0.0813636 0.0269067 -0.101734 173 85 76
0.0695846 0.0102793 -0.0830826 128 71 67
0.0687846 0.0107447 -0.0818683 231 214 197
0.0808698 0.0363809 -0.103479 204 255 217
0.0849847 0.0333579 -0.09977 134 189 197
0.0731787 0.0257476 -0.110554 233 253 231
0.0731027 0.0346339 -0.0791003 139 97 84
0.0768982 0.0207374 -0.0780379 134 69 62
0.0735282 0.0134444 -0.0530106 56 0 0
0.0779784 0.0214307 -0.0721004 79 0 0
0.0804996 0.034852 -0.105026 190 244 219
0.0664827 0.0103856 -0.0817572 255 255 255
0.0669845 0.00845238 -0.084015 152 87 82
0.0800619 0.0376295 -0.102464 255 245 218
0.0774957 0.0235215 -0.072201 121 63 51
0.0794777 0.0234675 -0.0849176 127 49 40
0.0835459 0.0327056 -0.102096 251 153 129
0.0779795 0.0312629 -0.107373 251 255 255
0.0683005 0.0108008 -0.0612768 111 65 63
0.0654563 0.012669 -0.089371 158 92 87
0.0771703 0.0245031 -0.108942 226 253 232
0.0772307 0.031939 -0.0827673 188 255 255
0.0708553 0.0370814 -0.0771677 196 144 135
0.0692778 0.0363272 -0.0793893 134 96 83
0.0722242 0.0352424 -0.0815095 135 67 61
0.0750544 0.0234232 -0.0717105 160 100 85
0.0722858 0.0350927 -0.0781243 126 89 74
0.0732675 0.0164681 -0.0601675 73 28 27
0.0775234 0.0288679 -0.0674329 255 255 255
0.0781377 0.0223831 -0.0721322 255 167 152
0.0843934 0.0307818 -0.0928683 32 255 255
0.0632677 0.0277343 -0.0462153 74 47 68
0.0671688 0.0108948 -0.060734 177 157 153
0.0620533 0.0098929 -0.0612766 95 33 28
0.0802196 0.0250006 -0.0885149 149 62 57
0.0739683 0.00566242 -0.0747521 13 0 0
0.081374 0.0256865 -0.0996405 174 85 75
0.0794063 0.0380212 -0.090143 186 111 99
0.0742038 0.0311249 -0.0671722 175 54 25
0.0740894 0.0335109 -0.0800056 139 85 75
0.0784298 0.0207061 -0.078296 112 57 57
0.0727272 0.0189621 -0.0526283 156 118 91
0.0646628 0.0108681 -0.0824828 137 66 66
0.0746962 0.0287309 -0.0799087 121 23 13
0.0744259 0.0277894 -0.0782077 142 82 67
0.077774 0.019556 -0.0686938 198 94 89
0.0739785 0.0197053 -0.0566726 33 0 0
0.0773283 0.0327581 -0.105736 254 255 239
0.0626216 0.0297161 -0.0386584 0 0 0
0.0687014 0.0348594 -0.0782352 123 83 65
0.0746873 0.0216913 -0.0522905 0 0 0
0.0828006 0.011817 -0.0842315 138 62 66
0.0627178 0.0307364 -0.0389624 0 0 0
0.0739973 0.0136573 -0.0902844 155 95 80
0.0833076 0.0206996 -0.0988736 129 65 55
0.0831563 0.0224919 -0.100089 175 100 93
0.0685181 0.0315221 -0.0330005 0 0 0
0.0789023 0.022104 -0.107457 255 168 142
0.0788494 0.0167578 -0.0880609 149 83 72
0.0753283 0.00500103 -0.0789769 101 77 75
0.0786833 0.0273261 -0.107343 255 221 202
0.078979 0.0153245 -0.105576 161 75 69
0.0830546 0.0363552 -0.0903664 228 86 71
0.0664175 0.0109184 -0.0540746 55 31 29
0.0772632 0.0225814 -0.0799705 142 67 62
0.0763321 0.0315992 -0.0788464 99 10 0
0.0724609 0.0352267 -0.0803593 121 46 40
0.0761221 0.0171403 -0.0649806 41 0 0
0.0856964 0.0309348 -0.10024 126 165 144
0.0740113 0.0326054 -0.0800728 148 66 60
0.0827577 0.0219514 -0.0999972 65 106 103
0.0820695 0.0125266 -0.0848418 164 89 82
0.0809687 0.0384662 -0.0898966 177 87 74
0.074154 0.0334667 -0.0791148 148 75 63
0.0694177 0.022918 -0.0302431 57 26 27
0.0765582 0.0121309 -0.0629391 75 36 34
0.0669709 0.0282968 -0.0207245 62 0 0
0.0786425 0.0160612 -0.0884455 142 71 62
0.0564869 0.0046259 -0.054678 62 23 18
0.0818266 0.0312726 -0.103092 170 82 69
0.0816352 0.0313818 -0.0839864 255 112 105
0.0782891 0.0347382 -0.108529 255 240 229
0.0814448 0.0201074 -0.0853082 241 97 91
0.0701385 0.00660613 -0.0726629 98 61 57
0.0728248 0.0255348 -0.0409446 23 0 0
0.0737537 0.0119616 -0.0705811 87 33 29
0.0727344 0.0134282 -0.0556437 94 63 57
0.0765916 0.0392021 -0.0885544 158 56 47
0.0639616 0.016344 -0.0469015 33 0 0
0.0710376 0.0167264 -0.04605 68 55 47
0.0722647 0.0232334 -0.0414274 45 29 27
0.0600058 0.0151125 -0.070193 67 25 21
0.0853209 0.0176013 -0.0963149 123 63 50
0.0817702 0.0349381 -0.0966471 128 188 165
0.0810616 0.0168103 -0.0928157 153 123 111
0.0605023 0.017501 -0.0828311 131 48 42
0.0719063 0.00838544 -0.0767042 125 41 36
0.0825722 0.0363849 -0.0994354 134 255 255
0.0852834 0.0335427 -0.100937 109 255 255
0.0819389 0.0137484 -0.0859045 136 72 65
0.0686091 0.0101747 -0.0857275 131 44 38
0.0679495 0.0283779 -0.0190851 0 0 0
0.0806039 0.0253766 -0.106829 255 168 141
0.0758638 0.00564323 -0.0777204 119 84 82
0.0696149 0.00490868 -0.0638805 72 22 15
0.0635556 0.00832371 -0.0688978 81 26 22
0.0788284 0.0274119 -0.107571 255 221 202
0.0790165 0.032211 -0.10521 245 134 102
0.0836288 0.00859628 -0.0820462 153 70 65
0.0839606 0.0363998 -0.0988795 66 127 187
0.0660645 0.00911883 -0.0551156 62 29 23
0.0715477 0.00924764 -0.0709597 67 21 19
0.0798002 0.0184968 -0.0612894 179 0 0
0.0861849 0.0311669 -0.0999922 128 166 136
0.0717379 0.0354963 -0.0796224 132 57 50
0.0736218 0.0217403 -0.0507665 24 0 0
0.0834351 0.0243492 -0.101545 106 94 91
0.0814776 0.0140524 -0.0859846 164 88 69
0.0807581 0.0391376 -0.088238 175 87 74
0.0677591 0.0103095 -0.0779666 32 0 0
0.0743637 0.0119715 -0.084064 146 77 66
0.0797053 0.0161534 -0.0879212 151 67 62
0.0749937 0.0161703 -0.0629717 78 36 32
0.0701388 0.026634 -0.0253848 43 0 0
0.0818372 0.0282376 -0.0846893 230 66 55
0.0743681 0.00847817 -0.0741791 100 39 34
0.0740775 0.0344209 -0.0817266 128 47 40
0.0721634 0.013018 -0.0609115 77 63 61
0.0655791 0.0150457 -0.0456171 29 10 10
0.0782735 0.0377217 -0.0868804 175 63 55
0.0750474 0.0125012 -0.0628596 39 0 0
0.0841479 0.0303273 -0.0992424 104 182 150
0.0746654 0.0318849 -0.0789013 173 76 67
0.0607983 0.0154849 -0.0816462 141 30 20
0.0826183 0.0366946 -0.0995652 134 255 255
0.0833105 0.0368105 -0.0985481 106 255 255
0.0809716 0.0150412 -0.087056 126 66 52
0.0780204 0.0338344 -0.0817994 111 0 0
0.0656277 0.000906803 -0.0440244 118 54 0
0.0600573 0.0177178 -0.0485731 61 25 23
0.0814536 0.0146761 -0.0865141 137 64 57
0.0743491 0.0106184 -0.0830664 63 53 51
0.0715511 0.0256551 -0.0264605 0 0 0
0.0791185 0.0327638 -0.108506 250 255 255
0.0781577 0.0345938 -0.106663 228 255 255
0.0739339 0.0271899 -0.110031 251 247 226
0.0787348 0.0313146 -0.107201 239 255 255
0.0763043 0.0282401 -0.108034 252 255 249
0.0779681 0.0352168 -0.107001 244 255 255
0.0789732 0.0338884 -0.108008 252 255 255
0.0768664 0.0278816 -0.111031 249 255 255
0.0794915 0.037054 -0.108637 253 255 255
0.0758014 0.0261551 -0.109 243 255 247
0.0770201 0.0307917 -0.108253 252 255 255
0.0778335 0.0295377 -0.110666 247 255 255
0.0783662 0.0351407 -0.106611 246 255 255
0.0777189 0.030915 -0.107801 239 249 212
0.0783829 0.022656 -0.108355 255 255 255
0.0767071 0.0303294 -0.108299 250 255 255
0.0781876 0.0309088 -0.109349 255 255 255
0.0754356 0.0220118 -0.105714 207 107 103
0.0837488 0.0250304 -0.102062 175 126 109
0.0812662 0.0193671 -0.103601 230 118 113
0.0757503 0.0216835 -0.105159 244 129 126
0.0768737 0.0214987 -0.106239 173 112 108
0.0810129 0.0225508 -0.0955353 151 82 72
0.0748021 0.0195528 -0.102997 246 147 142
0.0845898 0.0356118 -0.0986901 171 147 172
0.0815159 0.0191643 -0.0965485 178 0 0
0.0808048 0.022113 -0.0913824 138 52 44
0.0804235 0.0221712 -0.0934692 136 43 37
0.0750257 0.0176599 -0.0966244 210 112 107
0.0820514 0.0246545 -0.0891859 68 83 71
0.0796146 0.0275633 -0.0825166 160 46 29
0.0789515 0.0163113 -0.0804153 138 61 59
0.0815904 0.0143946 -0.0806712 129 89 88
0.0767337 0.0238729 -0.078269 160 79 77
0.0773187 0.0170751 -0.0788256 132 54 48
0.0778615 0.0276693 -0.0832414 105 32 25
0.0773513 0.0336598 -0.0846881 152 121 108
0.07567 0.0329817 -0.0834703 144 58 50
0.0782733 0.0221697 -0.0769633 158 69 67
0.075212 0.00774948 -0.0789599 125 85 70
0.079499 0.0281643 -0.0828255 143 44 27
0.0774987 0.0189939 -0.0783896 130 65 49
0.0779662 0.0282276 -0.0787703 93 255 255
0.077003 0.0232309 -0.0802346 142 67 63
0.0764956 0.0316759 -0.0851652 157 93 83
0.0786388 0.0320453 -0.0858446 155 73 64
0.0773821 0.0318213 -0.0858614 169 188 191
0.0754117 0.0235071 -0.0781568 113 58 48
0.0675518 0.0122488 -0.0831417 131 56 55
0.0698722 0.0108978 -0.0834301 170 56 58
0.0704353 0.00769374 -0.0741201 85 43 39
0.0675977 0.0112906 -0.0831721 148 92 93
0.0763669 0.0263543 -0.0792576 127 76 82
0.0696998 0.00850201 -0.0822755 125 9 0
0.0734594 0.0104629 -0.0744957 106 56 49
0.0745306 0.0275969 -0.0794901 96 69 57
0.0754384 0.0301974 -0.0792176 205 123 95
0.0735818 0.0169779 -0.0593632 83 37 34
0.0670811 0.00931994 -0.0775773 198 88 79
0.0648393 0.0118635 -0.0812077 152 88 94
0.0724716 0.0168077 -0.0568125 89 51 33
0.069366 0.0113665 -0.0615248 72 34 32
0.0631136 0.010838 -0.0827851 112 51 47
0.0730931 0.0343033 -0.0778755 61 13 8
0.0615766 0.0112099 -0.0620268 80 29 28
0.074048 0.0324429 -0.0807075 108 45 38
0.0729599 0.0331251 -0.0730102 115 38 30
0.0765003 0.0288845 -0.108752 254 255 235
0.0779245 0.0282237 -0.109894 239 255 255
0.0765147 0.0287121 -0.107735 249 255 238
0.0800125 0.0337222 -0.108571 254 255 255
0.0767641 0.0374044 -0.104254 225 238 255
0.0735186 0.0262951 -0.109321 255 126 108
0.0786071 0.0226568 -0.107888 255 157 134
0.0768116 0.036909 -0.104486 230 255 255
0.0813165 0.0223992 -0.102159 200 142 128
0.0822016 0.031164 -0.100473 232 110 99
0.076796 0.0194921 -0.101023 246 162 146
0.0815474 0.0316168 -0.0949524 157 156 136
0.0810402 0.0162196 -0.0961313 167 130 109
0.0732301 0.0183351 -0.101685 225 130 117
0.0798555 0.037987 -0.0904351 190 111 96
0.077155 0.0232493 -0.0795415 142 66 61
0.0647414 0.0104571 -0.0909834 133 80 74
0.0757491 0.0311982 -0.0827767 233 255 255
0.0750351 0.0242605 -0.0781459 110 65 57
0.0789777 0.0300005 -0.0805915 246 0 0
0.0774594 0.0378938 -0.0878018 193 79 67
0.0726415 0.00676958 -0.068795 60 0 0
0.0708723 0.00840813 -0.0694711 78 37 33
0.0643946 0.0113743 -0.0916598 159 67 60
0.0656645 0.0136437 -0.0810149 118 49 41
0.069351 0.0105045 -0.0613569 77 40 39
0.0741118 0.0238352 -0.0573699 57 19 15
0.0758663 0.0278162 -0.108869 242 255 255
0.0773899 0.0310858 -0.110722 238 255 255
0.0730711 0.0262727 -0.107883 254 255 255
0.0789309 0.0262018 -0.10748 240 216 195
0.0790042 0.0241751 -0.107848 255 203 183
0.0783781 0.0315634 -0.107125 255 187 166
0.080051 0.0355221 -0.107285 255 144 107
0.0807977 0.0236244 -0.0938671 172 114 104
0.080553 0.0361207 -0.0935754 146 152 144
0.0848117 0.0318167 -0.0997933 135 177 149
0.0798748 0.037627 -0.0929072 159 91 83
0.0634778 0.011608 -0.0874692 161 92 97
0.076703 0.0323576 -0.0853819 149 108 96
0.0769866 0.0282217 -0.0786609 216 158 139
0.0725534 0.0327541 -0.0791873 141 67 54
0.060803 0.0205973 -0.0893047 135 45 37
0.0774304 0.0279299 -0.108885 239 187 170
0.0798722 0.033878 -0.104234 237 253 255
0.0763392 0.0266585 -0.109913 249 226 208
0.0828381 0.028141 -0.0958238 136 168 148
0.0798508 0.0246044 -0.093397 141 42 37
0.079641 0.0380357 -0.0896744 163 108 97
0.0740313 0.0265806 -0.0795871 126 79 71
0.0765665 0.0297335 -0.107041 253 255 255
0.0786603 0.0229475 -0.105016 254 255 243
0.0758118 0.0249972 -0.0764413 154 85 71
0.0670929 0.0129668 -0.0824461 109 0 0
0.0743999 0.0269816 -0.0774907 140 82 76
0.0734954 0.0346663 -0.0779719 123 87 80
0.0783123 0.0244921 -0.109043 230 216 197
0.0819699 0.033614 -0.104736 255 255 241
0.081769 0.0320932 -0.102692 196 255 236
0.0758712 0.0288899 -0.0807094 141 129 119
0.0750244 0.0307668 -0.0814655 192 129 116
0.0786578 0.0312429 -0.0845267 255 255 255
0.0789249 0.0316176 -0.0750018 88 255 255
0.0816974 0.0222872 -0.105822 255 254 246
0.0787558 0.0279369 -0.107657 240 168 159
0.0722555 0.0334823 -0.0792438 144 79 70
0.0765808 0.0307106 -0.0775489 179 203 175
0.0816018 0.0261678 -0.106169 237 158 155
0.0726078 0.0342707 -0.0781171 156 75 64
0.0661854 0.0123853 -0.0838256 134 56 54
0.0739619 0.0258439 -0.0510156 17 0 0
0.0716382 0.0339985 -0.0792314 150 105 86
0.076845 0.0197709 -0.0771597 156 61 42
0.0708732 0.0108573 -0.0834392 140 62 53
0.0684984 0.0119069 -0.082742 126 46 43
0.0765985 0.0192305 -0.0791596 129 71 62
0.0650409 0.0115351 -0.0829436 116 46 42
0.062427 0.00553661 -0.0653578 99 32 29
0.0760121 0.0299194 -0.0832944 141 66 56
0.0732023 0.0162924 -0.0586884 126 96 86
0.0631201 0.0114141 -0.0818478 119 30 23
0.0752395 0.0206179 -0.10466 255 178 165
0.0774751 0.0284161 -0.107682 247 233 205
0.0813711 0.0301198 -0.0889713 198 56 43
0.0760053 0.0294478 -0.0796945 178 20 0
0.0787523 0.0344515 -0.106765 250 222 222
0.0754549 0.0314246 -0.084466 175 87 77
0.07257 0.0329339 -0.0792873 106 49 41
0.0690328 0.0114014 -0.0831021 137 67 62
0.0776849 0.0300169 -0.108764 255 61 29
0.0761668 0.0218705 -0.0711988 200 50 25
0.0793318 0.0149963 -0.0841383 130 60 53
0.0743015 0.0161391 -0.0606078 62 24 22
0.0747931 0.0192266 -0.0599847 51 21 17
0.076424 0.0204213 -0.074078 198 115 90
0.0776839 0.0224358 -0.0747804 142 114 114
0.078011 0.0226112 -0.0707325 160 58 29
0.0668777 0.0119109 -0.082869 134 58 55
0.0754576 0.0255237 -0.0765531 143 77 84
0.0754187 0.0301527 -0.0840484 159 87 79
0.0739059 0.0286798 -0.0796451 134 74 64
0.0655022 0.0134601 -0.0812709 119 43 35
0.0674595 0.0116404 -0.0602779 84 44 36
0.078917 0.0321704 -0.0881607 141 47 38
0.0791209 0.0336412 -0.107056 249 186 138
0.0761303 0.0240753 -0.0713464 205 72 68
0.0778123 0.0316197 -0.0854365 167 189 189
0.0664035 0.00948642 -0.0787078 214 255 255
0.072956 0.0112557 -0.0827587 107 55 54
0.0781445 0.0182605 -0.0801002 145 57 52
0.0662257 0.0131208 -0.0825251 128 43 39
0.07762 0.0263563 -0.109154 242 205 188
0.0761415 0.026108 -0.0785111 132 70 62
0.0784481 0.0282625 -0.108061 219 255 255
0.0803246 0.0374824 -0.0902758 160 70 64
0.0762222 0.0157418 -0.0660208 78 39 40
0.0765718 0.0164683 -0.0695112 73 30 25
0.0694666 0.0357598 -0.0769484 129 89 76
0.0767741 0.0284638 -0.107639 251 180 163
0.0778601 0.0165029 -0.0797052 133 56 50
0.0766999 0.0236398 -0.0779926 131 69 61
0.0762285 0.0232439 -0.0697756 169 93 91
0.0740575 0.0314786 -0.0799381 136 79 70
0.0825017 0.0189464 -0.0949056 198 24 19
0.0815906 0.0264677 -0.0853875 170 63 57
0.0676376 0.00985207 -0.0812332 180 106 97
0.0607243 0.014385 -0.0917572 160 82 76
0.0835376 0.0247094 -0.103998 167 56 51
0.0668555 0.0101113 -0.0773226 171 87 77
0.0701483 0.0345656 -0.0792532 146 105 77
0.0743685 0.0183868 -0.0562488 2 0 0
0.0740356 0.031233 -0.0816196 139 63 56
0.0755558 0.0321653 -0.0842458 135 99 85
0.0722 0.0168022 -0.0551996 21 0 0
0.0824223 0.036003 -0.101034 160 255 255
0.0729035 0.0115714 -0.0685431 107 51 44
0.0748864 0.0303048 -0.084152 161 97 86
0.0750839 0.0162622 -0.0588826 39 0 0
0.069283 0.0126717 -0.0910448 141 82 74
0.0813747 0.0364228 -0.107201 227 217 250
0.0823644 0.0373966 -0.0963669 156 132 125
0.0753378 0.0319499 -0.0837557 225 175 170
0.0720824 0.0337247 -0.078986 166 105 98
0.0785996 0.0368657 -0.0865243 163 77 71
0.0771795 0.0303679 -0.106563 251 253 230
0.0809552 0.0223094 -0.093735 167 73 66
0.0714799 0.0340466 -0.0791401 126 89 79
0.0747324 0.0210783 -0.0541906 2 0 0
0.0736943 0.0181657 -0.0565181 33 0 0
0.0740544 0.030852 -0.0772128 150 105 95
0.0801349 0.0337848 -0.106385 255 255 197
0.0798702 0.0386732 -0.105857 229 230 229
0.0675659 0.00875098 -0.0765275 222 121 108
0.07804 0.0231871 -0.0786885 155 99 90
0.0810074 0.0207119 -0.0834579 103 0 0
0.0679367 0.0137254 -0.0946792 122 49 43
0.0812027 0.0330621 -0.104747 210 255 214
0.0843857 0.0334378 -0.096199 153 200 169
0.065764 0.0116036 -0.0839051 148 101 105
0.0798298 0.0294967 -0.0797786 31 164 154
0.0741327 0.0178712 -0.0535788 25 0 0
0.0665736 0.0105567 -0.0803392 255 255 255
0.0650375 0.00940222 -0.0829948 170 100 86
0.0812862 0.0380752 -0.0997973 229 255 243
0.0782556 0.0321129 -0.105766 235 104 31
0.0773485 0.0227358 -0.0732611 192 81 65
0.0760339 0.0173018 -0.0648838 60 0 0
0.0809051 0.0238202 -0.0935814 167 118 106
0.0651002 0.0113323 -0.080344 255 255 255
0.070156 0.0350167 -0.0780842 162 101 78
0.0771641 0.0312894 -0.106117 251 254 241
0.0746238 0.0297089 -0.0802587 153 82 77
0.0722905 0.0351005 -0.0790296 136 107 93
0.0781968 0.0276925 -0.0687913 178 255 255
0.0723883 0.033019 -0.0782921 30 0 0
0.0657017 0.0109473 -0.0613345 96 53 49
0.0765709 0.020953 -0.0664099 255 66 67
0.076703 0.0134368 -0.0816986 121 36 28
0.0655978 0.00862566 -0.0709477 73 32 30
0.0740246 0.0316655 -0.0511474 41 14 10
0.0686644 0.00925945 -0.0810868 110 0 0
0.0640629 0.0130346 -0.0816107 150 40 31
0.0769905 0.0313494 -0.0851372 131 58 52
0.0789359 0.0375463 -0.0897324 188 114 102
0.0773447 0.031023 -0.108957 255 216 188
0.0786396 0.0273971 -0.107297 242 231 231
0.0848668 0.0330975 -0.0993747 131 203 166
0.0738339 0.0306882 -0.0639593 255 70 32
0.0849796 0.0365281 -0.0968891 118 149 102
0.0737385 0.0191065 -0.0546352 31 0 0
0.0667667 0.0107669 -0.0609838 159 144 135
0.0705953 0.0344284 -0.0799989 143 108 92
0.0772038 0.0204137 -0.0775162 135 73 70
0.080839 0.0201113 -0.079425 131 62 57
0.0742885 0.021534 -0.0576758 46 0 0
0.0743495 0.025111 -0.0712105 140 79 69
0.0745764 0.0280575 -0.0608158 255 173 141
0.0737891 0.0305609 -0.0801535 154 86 74
0.0739887 0.0281479 -0.0682459 192 122 104
0.0804382 0.0211059 -0.0872829 137 52 53
0.0814928 0.0351832 -0.0923748 138 198 187
0.0778667 0.0180445 -0.0716311 242 161 159
0.0748178 0.0250758 -0.0671566 251 77 55
0.0764049 0.0392354 -0.0835934 177 73 71
0.0684132 0.0131813 -0.0956959 91 48 39
0.0671047 0.0296 -0.029769 59 11 0
0.0804078 0.0369386 -0.105536 243 255 248
0.0773432 0.029992 -0.110391 251 255 255
0.0742895 0.0270765 -0.110336 255 232 223
0.0776871 0.0311189 -0.10975 255 255 255
0.0756052 0.037594 -0.103701 238 255 255
0.0795963 0.0370436 -0.10841 244 255 255
0.0773903 0.0325358 -0.108045 255 246 223
0.0782491 0.0311926 -0.110098 255 255 255
0.0813017 0.0363582 -0.098006 145 65 58
0.0800151 0.0171797 -0.0965971 227 150 146
0.0831916 0.0240788 -0.0976787 162 116 104
0.0783413 0.0380918 -0.0947668 175 80 76
0.0828834 0.0289037 -0.0899088 144 60 51
0.076881 0.0289012 -0.0777393 112 255 255
0.0779815 0.029673 -0.109215 254 255 248
0.0781616 0.031593 -0.110256 249 255 255
0.0778073 0.0319505 -0.109648 255 255 255
0.0784549 0.0281565 -0.108458 229 255 255
0.0770177 0.0373077 -0.104592 254 251 255
0.0730132 0.0112262 -0.0832091 135 66 57
0.0783862 0.0388692 -0.0888693 192 77 65
0.0743309 0.0270135 -0.108842 251 255 255
0.0782725 0.0222526 -0.107851 255 192 179
0.0777233 0.0312181 -0.108817 251 238 217
0.0800251 0.037096 -0.102973 212 230 255
0.079284 0.0382797 -0.0904694 163 108 97
0.0779639 0.0271987 -0.110159 248 255 255
0.0802532 0.0378811 -0.0958602 164 62 57
0.0795442 0.0331192 -0.107788 255 248 238
0.0780033 0.0311345 -0.0804684 255 255 255
0.0669045 0.0133944 -0.0813159 129 60 55
0.0797549 0.0237138 -0.107626 249 238 219
0.0753263 0.0185731 -0.0617798 54 23 19
0.0801263 0.0266419 -0.107198 218 255 239
0.0765403 0.0336652 -0.0849108 143 46 42
0.0616351 0.0152411 -0.0919803 149 78 75
0.0820899 0.0378401 -0.0950167 148 147 141
0.0780699 0.028965 -0.107564 254 251 241
0.0838611 0.031814 -0.10113 166 81 72
0.0808698 0.0363809 -0.103479 204 255 217
0.0836166 0.0317966 -0.0975652 137 180 153
0.0731787 0.0257476 -0.110554 233 253 231
0.0800619 0.0376295 -0.102464 255 245 218
0.0797022 0.0379934 -0.104612 206 103 80
0.0779795 0.0312629 -0.107373 251 255 255
0.0771703 0.0245031 -0.108942 226 253 232
0.0839331 0.0252906 -0.102463 179 75 64
0.0794063 0.0380212 -0.090143 186 111 99
0.0782462 0.0322316 -0.106291 246 238 221
0.0703124 0.0346666 -0.0802683 140 106 85
0.0743301 0.0194907 -0.0551521 33 0 0
0.0786833 0.0273261 -0.107343 255 221 202
0.0809687 0.0384662 -0.0898966 177 87 74
0.0782891 0.0347382 -0.108529 255 240 229
0.0760754 0.00889689 -0.0789536 118 57 48
0.0828789 0.0358564 -0.0985449 149 140 132
0.0825722 0.0363849 -0.0994354 134 255 255
0.0711284 0.00919462 -0.0829315 41 0 0
0.0790467 0.0353319 -0.10712 234 116 125
0.0839606 0.0363998 -0.0988795 66 127 187
0.0771797 0.0173192 -0.0989816 178 69 63
0.0834199 0.030736 -0.0986835 117 174 140
0.0833105 0.0368105 -0.0985481 106 255 255
0.073246 0.0108258 -0.087525 142 67 58
0.071653 0.00889194 -0.0717355 66 17 13
0.0692757 0.00655744 -0.0678079 77 37 35
0.0729826 0.0216781 -0.0536285 41 16 13
0.0715417 0.00810433 -0.0680502 46 10 6
0.0715167 0.0153814 -0.0948203 162 86 77
0.0792618 0.037204 -0.102978 255 255 231
0.0727803 0.00803028 -0.0851398 167 74 67
0.0774146 0.0379925 -0.0908796 156 80 73
0.0780009 0.0304756 -0.111239 224 89 80
0.0820555 0.0286798 -0.096842 177 123 111
0.0750131 0.0141064 -0.0679831 84 33 31
0.0874993 0.0223996 -0.0967289 194 154 146
0.0814201 0.0374447 -0.10138 193 255 255
0.0813224 0.0207589 -0.0864267 148 56 51
0.0726733 0.023871 -0.0493816 45 20 17
0.0812747 0.0126851 -0.0664035 0 0 0
0.0831608 0.0335185 -0.0980647 157 147 142
0.0837081 0.0285327 -0.106968 172 68 49
0.0797582 0.0174991 -0.0876938 138 73 62
0.0684519 0.028514 -0.0363755 29 12 9
0.0726606 0.0274298 -0.0516039 43 17 14
0.0828786 0.0314979 -0.102883 206 115 108
0.0635103 0.0101491 -0.0733903 20 21 20
0.0852748 0.0295897 -0.0979806 121 162 158
0.0734246 0.035718 -0.082009 150 74 64
0.0676123 0.0153618 -0.0511493 64 34 28
0.0746513 0.016003 -0.0948839 133 54 47
0.0780412 0.0359393 -0.0863541 164 65 57
0.0769812 0.0382585 -0.0894851 132 57 49
0.0657345 0.00753496 -0.0697306 81 34 33
0.0849273 0.0260023 -0.0917224 15 126 124
0.0792305 0.0174977 -0.0939605 146 45 38
0.0839114 0.0361021 -0.101929 139 255 255
0.084741 0.0229408 -0.101523 93 152 147
0.0799731 0.0300216 -0.100383 221 121 114
0.076027 0.00919269 -0.0865491 128 32 0
0.0777977 0.0142941 -0.0883004 141 56 50
0.0830228 0.0269047 -0.0842697 162 65 56
0.0833077 0.0291212 -0.0943563 158 74 70
0.0793912 0.0258018 -0.0799521 158 67 60
0.0757703 0.00607781 -0.0773629 79 31 26
0.0804137 0.0168704 -0.0966638 174 110 96
0.0691302 0.0164288 -0.0511007 57 30 25
0.0795951 0.0384701 -0.0884887 153 109 100
0.0680041 0.00367963 -0.0524682 5 0 0
0.0687957 0.0155468 -0.0960538 152 70 63
0.0729894 0.00657894 -0.0843118 110 52 43
0.0626772 0.0097072 -0.0511986 55 28 26
0.0777376 0.0165351 -0.0934583 150 82 71
0.0656683 0.00699188 -0.071951 92 67 60
0.0779164 0.0370272 -0.0928078 178 86 79
0.0858646 0.0342446 -0.0936588 157 168 136
0.0742663 0.0245948 -0.0523713 40 0 0
0.0772752 0.0271493 -0.105579 255 169 155
0.0819801 0.033283 -0.0954037 147 129 121
0.0822291 0.0294725 -0.0915833 112 151 140
0.0825798 0.025875 -0.103225 255 255 255
0.0737837 0.0124653 -0.0829043 146 75 67
0.0819004 0.0307269 -0.0953199 171 66 57
0.0779184 0.0382974 -0.0884622 184 106 91
0.0731743 0.0257874 -0.0365379 36 0 0
0.085697 0.0330607 -0.101061 70 147 189
0.0828482 0.0368412 -0.0973592 149 134 121
0.0832753 0.0321009 -0.100706 152 180 153
0.0675223 0.0173077 -0.0494114 55 23 21
0.0702494 0.0290373 -0.0330036 44 9 4
0.0837594 0.0243314 -0.094539 121 193 180
0.0771036 0.0123618 -0.0879854 110 35 29
0.0757217 0.0136753 -0.088735 134 61 56
0.0610214 0.00847391 -0.0502016 34 8 0
0.0673517 0.0142198 -0.0959145 146 62 57
0.0847789 0.033608 -0.104482 168 113 91
0.0747722 0.0369467 -0.0670035 201 63 0
0.08466 0.0281615 -0.102841 247 168 154
0.0805947 0.0372034 -0.0882312 125 144 128
0.0675831 0.0148797 -0.0507281 72 42 33
0.0616117 0.0105194 -0.0679335 67 36 34
0.080776 0.011861 -0.0813602 139 71 67
0.0726402 0.00909089 -0.0710059 87 27 19
0.0671614 0.00689117 -0.0729009 88 65 58
0.0657829 0.00735062 -0.0685391 64 25 23
0.071314 0.00953318 -0.0670198 48 11 8
0.0698454 0.008757 -0.0652125 76 36 33
0.0706297 0.0167207 -0.0502403 54 27 23
0.0822337 0.0301377 -0.0984492 99 109 96
0.0707917 0.0157157 -0.0957506 160 86 74
0.0789336 0.0373083 -0.10224 255 255 232
0.0853196 0.0329208 -0.0993778 129 120 130
0.0834688 0.0267113 -0.0929911 109 253 228
0.0789977 0.0185488 -0.0817958 127 49 44
0.0690591 0.00663123 -0.0700917 93 47 41
0.0779574 0.0280469 -0.110851 224 89 80
0.0739125 0.013272 -0.0667359 82 33 30
0.0804663 0.025388 -0.0925424 128 134 123
0.0806346 0.0366984 -0.100045 193 255 255
0.0798052 0.0199908 -0.104077 255 255 243
0.0802595 0.0197182 -0.0870794 135 57 52
0.0784463 0.0116312 -0.0705535 46 0 0
0.0824682 0.0365915 -0.0966869 169 132 123
0.0824787 0.0277457 -0.104245 189 76 52
0.0792935 0.0181934 -0.093699 145 70 58
0.0820489 0.0194886 -0.0884686 147 75 65
0.0644894 0.0130793 -0.0907625 92 13 0
0.0821671 0.0211528 -0.089416 186 66 59
0.0744343 0.0379313 -0.0824594 176 81 77
0.0633995 0.0128012 -0.0864175 110 34 32
0.0815221 0.0255601 -0.0852988 167 65 59
0.0810517 0.0192592 -0.0933665 142 62 56
0.0760633 0.011695 -0.0733325 95 36 32
0.0781389 0.0168709 -0.0948713 154 65 58
0.0822047 0.0356918 -0.0990544 154 255 255
0.0821835 0.0211546 -0.101203 94 140 142
0.0811463 0.027153 -0.101485 225 134 120
0.076202 0.0128868 -0.0822641 131 49 44
0.0807454 0.0238073 -0.0873666 151 79 72
0.073736 0.0336264 -0.0802758 136 56 54
0.0754957 0.0144335 -0.0908314 150 72 65
0.0637846 0.00648498 -0.0495241 86 47 36
0.0718495 0.0249931 -0.0462274 43 16 14
0.0793647 0.0220555 -0.08085 152 63 62
0.0786967 0.0382096 -0.0908715 147 102 94
0.0657206 0.00562208 -0.0543971 27 0 0
0.0742502 0.011408 -0.0832169 116 48 37
0.0649563 0.00779368 -0.0687273 60 23 21
0.0602915 0.0083414 -0.0497109 55 23 24
0.0773128 0.0159608 -0.0925858 149 76 67
0.0863664 0.0246535 -0.0996757 171 75 69
0.0769872 0.0384555 -0.0923319 160 84 81
0.0804026 0.0240958 -0.0938902 178 122 108
0.0782658 0.0199547 -0.100039 141 35 29
0.0825498 0.0273542 -0.104161 176 86 78
0.082723 0.0268988 -0.0960034 120 160 145
0.0821727 0.025927 -0.103839 255 255 255
0.0802966 0.0295361 -0.105332 180 78 69
0.0649913 0.00923546 -0.0638008 70 32 28
0.0785861 0.033563 -0.107174 255 135 101
0.085437 0.0332762 -0.10083 0 121 231
0.0760885 0.00869809 -0.0801521 92 39 33
0.0628405 0.0243329 -0.0957839 139 51 47
0.0821631 0.0298665 -0.095337 147 202 183
0.072806 0.00765986 -0.0640182 83 0 0
0.0834337 0.0329785 -0.097594 162 123 107
0.0849373 0.0236236 -0.101027 82 159 144
0.0961022 0.0303861 -0.089596 25 0 0
0.0624911 0.00311945 -0.0535445 107 0 0
0.0730098 0.0377637 -0.0770358 183 34 0
0.0833404 0.0306422 -0.10347 184 136 130
0.0741001 0.0140063 -0.0606965 116 44 0
0.0701398 0.00972735 -0.0838531 120 30 25
0.0770083 0.0380702 -0.0889284 157 62 52
0.0660941 0.0192452 -0.0480958 60 29 26
0.0839305 0.0187759 -0.0992733 112 176 176
0.0556746 0.0166203 -0.0837771 115 39 35
0.0735222 0.0375498 -0.0789438 206 68 48
0.0820831 0.0301759 -0.0978345 167 98 88
0.0803589 0.0361709 -0.107851 255 119 96
0.0779832 0.0311524 -0.109605 241 255 255
0.0778269 0.0341181 -0.107317 251 255 255
0.0780804 0.0318273 -0.108531 247 255 255
0.0792571 0.0363313 -0.107976 237 255 255
0.0774158 0.0294244 -0.107804 246 255 255
0.0775329 0.0314252 -0.106364 238 255 255
0.0748899 0.0259222 -0.109825 228 255 255
0.0732196 0.0260629 -0.11011 235 255 255
0.0782162 0.0287758 -0.109655 249 174 157
0.0775606 0.0295513 -0.107991 230 255 238
0.0778407 0.02056 -0.10622 197 125 122
0.0811198 0.0363108 -0.0940502 155 144 129
0.0739299 0.0168996 -0.0996482 237 131 125
0.0818095 0.0300586 -0.0825218 127 45 31
0.0763805 0.0252955 -0.0808327 147 66 60
0.0782457 0.0297678 -0.084678 159 73 64
0.0768437 0.0183532 -0.0789737 128 65 57
0.077617 0.0311274 -0.0853003 150 106 97
0.0781554 0.0285895 -0.0847833 150 63 55
0.0683059 0.0112502 -0.0916626 150 81 72
0.0765062 0.0257634 -0.0805536 139 57 52
0.0770177 0.0325261 -0.0843945 139 81 76
0.0677257 0.00722386 -0.079976 224 160 157
0.0681875 0.0111234 -0.0866713 177 100 91
0.0762455 0.033561 -0.0796324 204 226 219
0.0768355 0.0217859 -0.0790239 134 80 70
0.0686186 0.012174 -0.0827186 136 63 60
0.0750739 0.0268352 -0.0784625 126 66 60
0.0772105 0.0253111 -0.0808423 141 56 52
0.0761515 0.0291245 -0.0837614 149 73 61
0.0770609 0.0344183 -0.0820945 172 164 153
0.0724599 0.0131068 -0.0639102 75 32 28
0.0754291 0.0271118 -0.079366 158 81 79
0.0660674 0.0119069 -0.0815258 174 80 81
0.0700691 0.00708434 -0.0700583 84 42 38
0.0758717 0.0257626 -0.0789949 143 66 59
0.075662 0.0320107 -0.0849247 165 136 116
0.072203 0.0109147 -0.0685472 71 47 36
0.0742393 0.0304931 -0.0774014 126 85 76
0.0647088 0.0128792 -0.09426 111 37 35
0.0746407 0.0295311 -0.0803894 188 105 107
0.0727264 0.0178596 -0.0587467 89 38 40
0.0656936 0.0107933 -0.0782018 194 96 88
0.0651597 0.0109385 -0.0820336 135 46 43
0.0737491 0.0198461 -0.0548504 86 56 49
0.0659867 0.0135106 -0.0809537 124 52 44
0.072581 0.0138507 -0.0591221 84 42 40
0.0691699 0.0136627 -0.0590117 84 44 38
0.0610452 0.0184415 -0.0936746 204 93 73
0.0732999 0.0321504 -0.0804057 145 78 65
0.0610399 0.0160238 -0.0927403 152 97 93
0.0628807 0.0111451 -0.0628184 65 24 21
0.0628624 0.0159041 -0.0794174 83 32 33
0.0608489 0.00751839 -0.0663927 98 47 44
0.0612284 0.0123846 -0.0606861 73 36 32
0.0733594 0.0347255 -0.0781363 33 5 0
0.0634847 0.0106783 -0.0625106 62 23 19
0.0774741 0.0297338 -0.108131 232 255 255
0.0781136 0.0342608 -0.107005 252 255 255
0.073899 0.0263958 -0.110379 246 255 250
0.0776499 0.0368286 -0.106009 222 235 255
0.0765485 0.0263877 -0.106624 255 141 123
0.0791593 0.0371328 -0.106845 250 255 255
0.0761551 0.0190565 -0.103344 235 148 120
0.08209 0.0373248 -0.0978592 154 171 149
0.080894 0.0324532 -0.0940937 159 77 68
0.0728225 0.0163185 -0.0989711 196 137 139
0.079831 0.0230995 -0.0897881 151 83 74
0.0821292 0.025918 -0.0893113 111 48 45
0.0768351 0.0352138 -0.0853672 154 64 56
0.0784087 0.0225088 -0.080058 133 53 55
0.0770038 0.031126 -0.0824023 132 99 84
0.0778687 0.0234466 -0.0783137 139 116 115
0.0759691 0.0326775 -0.0818086 219 255 255
0.0758599 0.0330575 -0.0819372 162 81 72
0.071493 0.0110343 -0.0814092 120 72 65
0.0752886 0.0322252 -0.0837019 207 123 112
0.0775045 0.0307357 -0.0844131 130 14 12
0.0724911 0.00603331 -0.0705105 91 4 0
0.0708535 0.00736208 -0.070155 87 40 37
0.0738492 0.0117068 -0.0611276 66 30 24
0.0735737 0.0166894 -0.0568805 127 92 85
0.0644724 0.0101354 -0.0825513 134 77 69
0.0642011 0.0153946 -0.0945264 140 86 80
0.0737617 0.0242418 -0.0547939 52 30 28
0.0632051 0.0144466 -0.0801268 128 72 79
0.0621255 0.013636 -0.0801668 138 58 62
0.077656 0.0280777 -0.110219 232 255 255
0.0828746 0.0282344 -0.0956834 160 111 98
0.079972 0.0381211 -0.0928859 167 103 93
0.0796339 0.0386265 -0.0903144 161 105 92
0.0649723 0.00896593 -0.0903945 140 92 82
0.0756292 0.0316385 -0.0846068 176 106 92
0.0743757 0.0271927 -0.0779205 110 60 45
0.0739826 0.0307736 -0.0796015 101 63 55
0.0759522 0.031423 -0.0824106 140 56 47
0.0736247 0.0328425 -0.0785313 105 39 34
0.0612783 0.021642 -0.0888596 139 39 30
0.077771 0.0314633 -0.109065 246 190 163
0.0784633 0.0303435 -0.108785 242 255 249
0.0792106 0.0323546 -0.108988 243 255 255
0.0764135 0.0257478 -0.110505 246 226 207
0.0840603 0.0274452 -0.0985295 170 93 84
0.0674809 0.0147964 -0.0941131 135 70 65
0.0744108 0.0270381 -0.0790368 104 83 70
0.0779289 0.0302585 -0.110176 244 255 246
0.0790944 0.0236158 -0.104481 255 255 252
0.0754576 0.0254325 -0.0769385 137 71 80
0.0692018 0.0102866 -0.0812854 119 39 38
0.075358 0.0253322 -0.0782551 185 97 102
0.0734258 0.0337378 -0.0738597 163 90 67
0.0778114 0.0367791 -0.103732 246 247 246
0.0757487 0.0282329 -0.0791367 225 163 134
0.0771737 0.0330481 -0.0841938 245 255 255
0.0786289 0.0264764 -0.107603 255 246 210
0.0750762 0.0327365 -0.0816994 125 97 92
0.0825502 0.0307268 -0.0946817 160 106 95
0.0778059 0.0283955 -0.106958 255 182 156
0.0747225 0.0287046 -0.0808244 87 10 5
0.0638093 0.00998957 -0.0825037 202 145 143
0.0836265 0.0380859 -0.0902228 178 214 205
0.0836963 0.037011 -0.0962039 186 104 91
0.0713171 0.00940984 -0.0820291 173 106 83
0.0789803 0.0207296 -0.0775754 159 65 61
0.0651286 0.0143504 -0.0816866 130 49 43
0.0654848 0.0122306 -0.0796982 183 94 83
0.0725279 0.00881055 -0.0702145 121 23 11
0.0751941 0.0302054 -0.0839888 160 67 57
0.0645638 0.012152 -0.0815007 133 46 36
0.0821954 0.0354605 -0.103368 207 16 5
0.0664114 0.0101055 -0.0602265 252 239 226
