ply
format ascii 1.0
comment Created by Open3D
element vertex 1165
property double x
property double y
property double z
property uchar red
property uchar green
property uchar blue
end_header
0.0682892 0.014987 -0.0838426 110 47 45
0.0708353 0.0225514 -0.0820873 124 101 88
0.076646 0.0337244 -0.0841585 119 67 68
0.0770837 0.0279906 -0.0890877 136 75 71
0.0802253 0.0336472 -0.0932093 161 116 107
0.076925 0.0207603 -0.0902881 149 57 51
0.0721752 0.0318969 -0.094048 54 0 0
0.0784129 0.0321118 -0.0916587 255 255 255
0.082193 0.0295445 -0.100736 255 132 105
0.0749154 0.0319562 -0.0854268 119 58 48
0.081707 0.0295724 -0.0937303 170 106 95
0.0808152 0.0346874 -0.0931188 160 85 72
0.0718999 0.0336513 -0.0788457 152 111 94
0.0696434 0.0212298 -0.0797929 173 134 126
0.0833825 0.0295936 -0.0928448 175 248 223
0.0667509 0.0207521 -0.0813032 77 31 28
0.0662832 0.0170074 -0.0815866 138 41 34
0.0816487 0.0329153 -0.0916915 158 144 136
0.0715791 0.0234166 -0.0808474 81 41 36
0.0742728 0.0215576 -0.0833524 97 61 52
0.0846273 0.0240709 -0.0960212 155 134 119
0.0767029 0.0301676 -0.0861847 149 91 86
0.0653997 0.0167958 -0.0823307 148 51 47
0.0827742 0.0234686 -0.091759 173 151 136
0.083561 0.0291053 -0.102437 216 109 106
0.0824077 0.0241794 -0.104178 248 103 92
0.0788016 0.0303727 -0.0906147 147 86 79
0.0782362 0.0281953 -0.0908321 135 63 53
0.0820346 0.0269906 -0.0924827 185 200 178
0.0647705 0.0202776 -0.0786406 80 48 39
0.0816198 0.0278922 -0.0967432 181 85 77
0.0830469 0.0259903 -0.101671 194 19 9
0.0765301 0.0339617 -0.0907462 162 90 82
0.0748774 0.0330497 -0.0896687 137 79 68
0.080886 0.0330254 -0.0986646 138 59 58
0.0658284 0.0174115 -0.081646 137 48 49
0.0677667 0.0208764 -0.0786243 84 40 34
0.0834785 0.0334234 -0.0918648 159 166 148
0.0740298 0.0255568 -0.0857635 62 50 40
0.079647 0.0222758 -0.0992663 174 109 96
0.0780373 0.0363574 -0.081957 95 21 17
0.0783243 0.0317554 -0.0881879 164 178 154
0.0718938 0.0171294 -0.0834293 82 53 51
0.0814962 0.0246945 -0.0967636 153 56 40
0.0852131 0.0354317 -0.0927973 149 110 87
0.0838265 0.0249511 -0.0997437 117 92 87
0.0709391 0.0145943 -0.0811732 91 57 51
0.0704844 0.022069 -0.0796384 75 39 30
0.0837892 0.0352253 -0.0972718 255 122 82
0.0682712 0.0151554 -0.0841552 182 219 217
0.0778632 0.0287032 -0.0891964 135 58 56
0.0804269 0.024996 -0.101557 188 40 35
0.0815166 0.0313423 -0.0936062 171 173 153
0.0816376 0.0210976 -0.10025 149 80 69
0.0814732 0.0230434 -0.0990377 145 73 68
0.0793362 0.0233812 -0.0944672 160 60 57
0.0780587 0.0313916 -0.0949083 138 74 64
0.0847566 0.0270727 -0.0924837 178 255 232
0.0839482 0.0346932 -0.10533 252 255 223
0.0867258 0.0240221 -0.0978937 150 127 115
0.073935 0.0364777 -0.0812354 60 0 0
0.0703946 0.0225219 -0.0811463 77 44 38
0.0704239 0.0173017 -0.0851252 255 255 235
0.0823643 0.0357317 -0.0931442 166 126 113
0.0710393 0.0219095 -0.0825295 104 65 58
0.0838646 0.0344978 -0.095804 161 114 106
0.077967 0.0308852 -0.0899436 146 89 83
0.076204 0.0290135 -0.0881343 129 74 86
0.0756389 0.0344563 -0.098986 193 57 42
0.0789235 0.0305867 -0.103144 241 70 61
0.0817291 0.033489 -0.0970339 122 89 80
0.0759967 0.0255764 -0.0856782 26 2 0
0.069814 0.0170127 -0.0843283 71 0 0
0.0816902 0.0333865 -0.0976667 198 98 77
0.0834057 0.0182172 -0.0970095 166 105 111
0.0786986 0.0308077 -0.102032 218 69 61
0.0847648 0.0244356 -0.0943684 145 143 136
0.0638271 0.00629338 -0.0437305 44 0 0
0.0653203 0.0280918 -0.0369283 24 0 0
0.0759 0.0269159 -0.0883503 32 9 0
0.0803103 0.0275292 -0.0984178 255 87 73
0.0777034 0.0326131 -0.0942741 175 53 45
0.0815532 0.01741 -0.0936623 171 134 114
0.0794752 0.0312133 -0.0967919 64 105 90
0.0846934 0.0229962 -0.0952406 138 151 139
0.0733045 0.0242794 -0.0956672 80 17 0
0.0744173 0.0112182 -0.0451676 24 13 17
0.0827584 0.0345719 -0.102379 243 223 205
0.068872 0.0241279 -0.0388674 17 0 0
0.0823253 0.0263567 -0.0917933 137 162 144
0.0827806 0.0231044 -0.106409 175 69 60
0.0814028 0.0161473 -0.0930621 208 170 145
0.0814292 0.0204738 -0.0949619 173 107 83
0.0832704 0.0327985 -0.0943612 117 40 20
0.0835081 0.0320176 -0.0914376 183 139 131
0.0823985 0.0300289 -0.0922222 159 197 171
0.0837217 0.0256598 -0.0893332 220 90 96
0.0805559 0.0214132 -0.0904091 143 81 71
0.0822103 0.02654 -0.0924699 203 150 126
0.0806792 0.0259907 -0.091982 152 92 92
0.0810681 0.0227008 -0.0906095 137 85 84
0.0804031 0.0263488 -0.085882 105 28 18
0.0803667 0.0272673 -0.0900417 131 90 80
0.0778612 0.0326043 -0.0899395 132 38 39
0.0763791 0.0221135 -0.0957419 145 86 73
0.0813106 0.0371249 -0.0963558 154 96 89
0.0812086 0.0312927 -0.0910907 168 103 88
0.0813454 0.0318099 -0.0905854 152 0 0
0.0756612 0.0104187 -0.0873784 136 66 53
0.0780821 0.0209813 -0.0857421 128 61 63
0.0767681 0.0182817 -0.0867839 145 73 59
0.0761108 0.0177349 -0.0865789 151 76 62
0.0790853 0.0221622 -0.0878081 110 45 38
0.0804265 0.0315355 -0.0927199 156 60 47
0.0754471 0.0190873 -0.0846993 104 59 52
0.0777233 0.0253788 -0.0868637 116 54 52
0.0765367 0.0284915 -0.0890169 125 62 58
0.0784471 0.0240709 -0.0886841 116 44 41
0.0772354 0.0273336 -0.087058 120 65 60
0.0787109 0.0325408 -0.0917398 134 19 13
0.0727187 0.0153261 -0.08595 153 68 61
0.0777864 0.0252897 -0.0883997 143 76 82
0.0796598 0.028457 -0.0901909 127 72 64
0.077749 0.0262133 -0.0886919 164 119 112
0.0699217 0.0157966 -0.0861359 124 52 53
0.072125 0.0149795 -0.0849977 229 252 242
0.0772822 0.0280916 -0.088535 165 103 96
0.0776312 0.0337134 -0.0853484 130 109 99
0.0679838 0.0170329 -0.0825771 124 48 43
0.0790469 0.0313587 -0.0904819 159 103 91
0.0750294 0.0309129 -0.084465 28 0 0
0.0777794 0.032013 -0.0871595 141 91 80
0.0775957 0.0315121 -0.0841923 28 0 0
0.077624 0.0278132 -0.0871924 121 85 81
0.068779 0.0188854 -0.0822941 65 24 15
0.0766609 0.0313403 -0.0867466 124 69 58
0.0762914 0.0307852 -0.0844892 134 92 80
0.0790925 0.0316709 -0.0903286 151 120 112
0.0760347 0.030406 -0.0877916 145 80 80
0.0730732 0.0252705 -0.0819275 123 95 90
0.0774188 0.0286166 -0.0889609 124 78 74
0.0738911 0.0346468 -0.082371 111 83 75
0.0773695 0.0312589 -0.0847892 17 0 0
0.0756084 0.0300631 -0.0841362 112 62 57
0.0696389 0.0173747 -0.0842479 129 49 42
0.0777618 0.0344051 -0.080009 88 39 76
0.0714804 0.0227645 -0.0811291 70 21 20
0.0727141 0.0334396 -0.0972345 43 33 30
0.0701855 0.0185744 -0.079962 70 39 32
0.0726391 0.026182 -0.0797199 25 3 0
0.074938 0.0313378 -0.0847325 30 0 0
0.0702917 0.0130761 -0.0864205 181 72 69
0.068646 0.0159293 -0.0825298 146 54 56
0.0745707 0.0325401 -0.0814791 155 127 116
0.0752041 0.033225 -0.0845312 117 50 50
0.0721567 0.0149177 -0.0861578 143 45 39
0.073516 0.0349953 -0.0879822 132 57 52
0.071312 0.0219639 -0.0810532 91 38 36
0.0699481 0.0363687 -0.0829115 131 87 72
0.0710287 0.0301076 -0.0839751 12 0 0
0.0736079 0.0385656 -0.0883593 126 53 54
0.0697362 0.0260711 -0.0771842 68 59 44
0.0721098 0.0377498 -0.0870201 152 98 90
0.0795657 0.0393582 -0.0833761 113 51 47
0.0817108 0.0239076 -0.104674 251 152 137
0.0822416 0.0234501 -0.0951391 184 114 110
0.0824396 0.0270776 -0.0935854 173 89 83
0.0820652 0.0271426 -0.0907444 215 78 60
0.0790146 0.0163745 -0.096932 234 93 83
0.0833299 0.0366059 -0.0972171 167 109 101
0.0803801 0.0259585 -0.0874909 136 74 63
0.0844961 0.0358264 -0.0980398 178 105 101
0.0810633 0.0201358 -0.0903249 143 60 64
0.0800097 0.0336439 -0.0925992 136 62 52
0.0802979 0.0361089 -0.0926058 182 74 71
0.0842983 0.0324803 -0.0830076 149 200 185
0.078191 0.0156937 -0.0896742 173 72 66
0.0797962 0.0298361 -0.0899753 152 97 92
0.0760421 0.0145511 -0.088679 174 93 76
0.0829852 0.0356175 -0.0926211 152 49 38
0.0807049 0.0272557 -0.0913184 118 56 54
0.0810083 0.0258718 -0.0823448 126 72 45
0.0767267 0.0282075 -0.0877409 154 97 95
0.0783383 0.031366 -0.0902119 150 84 76
0.076808 0.0313641 -0.0859098 138 111 97
0.077257 0.0258365 -0.0874024 120 62 59
0.0771555 0.031128 -0.0883548 144 99 108
0.0783309 0.0294306 -0.0885342 153 94 78
0.0782967 0.0304461 -0.0894631 150 119 107
0.0739232 0.016523 -0.0857327 117 58 47
0.0779525 0.0325589 -0.0861031 162 115 93
0.0770658 0.0338948 -0.0812 90 14 10
0.0746135 0.0317652 -0.0833766 135 75 64
0.0715284 0.0160493 -0.0839721 122 55 49
0.0763693 0.0287085 -0.0880103 117 52 55
0.0753458 0.0289221 -0.0846514 131 80 69
0.0767779 0.0301581 -0.0868994 132 85 84
0.0703745 0.0186801 -0.0807902 87 42 40
0.070544 0.0159435 -0.0850897 106 24 26
0.0751989 0.0319287 -0.0816979 144 107 96
0.0713017 0.0130805 -0.0835525 137 50 50
0.0705839 0.0225331 -0.0820063 255 254 232
0.069334 0.0134416 -0.0848555 99 26 19
0.072965 0.0355786 -0.0768761 129 86 85
0.0643574 0.0194169 -0.0828328 124 51 49
0.0743868 0.0322658 -0.0830265 142 89 79
0.0789661 0.019218 -0.106637 230 103 94
0.0822671 0.0275825 -0.0935889 164 170 157
0.0767394 0.0306561 -0.0868933 160 43 23
0.0788561 0.0316819 -0.0905716 149 127 127
0.0776306 0.0303144 -0.0894315 243 255 255
0.077983 0.0288228 -0.0904436 130 60 57
0.0777578 0.0284866 -0.0902453 129 67 65
0.0730464 0.0317761 -0.0929472 56 20 19
0.0812871 0.0186241 -0.10473 237 94 88
0.0818634 0.0249767 -0.0911907 158 47 37
0.0825364 0.0298489 -0.0923263 154 185 168
0.0839875 0.0343675 -0.09276 208 112 101
0.0816163 0.0343056 -0.0900789 155 169 161
0.0821114 0.0297539 -0.0939159 155 123 110
0.0822561 0.0250085 -0.0918417 172 68 52
0.0811275 0.0213758 -0.0901909 142 89 77
0.0762035 0.0221729 -0.0922544 141 66 58
0.0824299 0.0290354 -0.0885882 188 62 35
0.0803311 0.0237251 -0.0898019 121 47 45
0.0726511 0.0179539 -0.0820459 94 43 41
0.079707 0.0237643 -0.099061 203 67 59
0.0788012 0.0366987 -0.089347 255 255 255
0.0752583 0.0293371 -0.0853489 124 89 80
0.074734 0.0319391 -0.0835539 121 85 84
0.0736373 0.0316032 -0.0808524 112 62 46
0.0838699 0.0279918 -0.101956 151 55 47
0.084347 0.0265631 -0.104882 247 92 91
0.0851192 0.0344959 -0.0938638 255 247 210
0.0732025 0.0340365 -0.0825686 101 39 32
0.0734089 0.0278419 -0.0819301 17 15 0
0.0707804 0.0217423 -0.0809308 255 255 255
0.0784467 0.031969 -0.0916806 252 255 255
0.0808366 0.0243366 -0.103671 255 39 32
0.0822739 0.0332715 -0.0923744 163 109 95
0.0781673 0.0353321 -0.0921619 180 79 68
0.0841665 0.0271234 -0.0926086 158 117 97
0.0820389 0.0295377 -0.0937267 166 109 95
0.0795815 0.0331112 -0.0894633 112 42 32
0.0794638 0.0299934 -0.0902494 169 119 117
0.0776758 0.0322925 -0.0875861 179 58 48
0.0724189 0.0333109 -0.0790627 156 117 97
0.07366 0.0274434 -0.0811983 130 98 98
0.0745674 0.0329878 -0.0808797 173 101 104
0.074613 0.0329198 -0.0842726 118 75 69
0.0769125 0.031193 -0.087473 155 91 89
0.0842583 0.028777 -0.094403 157 250 230
0.0818191 0.0271996 -0.0925082 229 172 149
0.0773644 0.0315226 -0.0883592 146 68 56
0.0708248 0.0210659 -0.0779831 255 255 255
0.0707501 0.0363933 -0.0875642 106 36 30
0.0782934 0.0306469 -0.0874136 144 126 113
0.0795576 0.0282475 -0.0949859 155 57 53
0.0787661 0.031899 -0.0885447 152 255 255
0.0662028 0.0216939 -0.078803 66 21 19
0.0831865 0.0285722 -0.0943349 109 100 89
0.078096 0.0331234 -0.0890264 191 255 255
0.0758552 0.032551 -0.0833382 87 64 71
0.0710462 0.0144037 -0.0851636 239 255 252
0.0751282 0.0313577 -0.085904 130 80 73
0.0832124 0.0211779 -0.106925 211 61 53
0.0652204 0.0172425 -0.0819931 144 47 38
0.0838442 0.0255681 -0.108401 151 109 106
0.0836978 0.0306765 -0.0930362 187 83 69
0.0831961 0.0318642 -0.0920097 154 111 95
0.0723937 0.0249777 -0.0814018 91 61 53
0.0707488 0.0177506 -0.0847803 56 0 0
0.0807365 0.0321452 -0.0927019 160 127 112
0.0834381 0.0289487 -0.0941241 160 124 107
0.0833499 0.0369218 -0.098193 178 92 89
0.0814184 0.0329714 -0.0928149 163 91 81
0.0774378 0.0282508 -0.0859695 127 77 71
0.0821537 0.0355823 -0.0909958 156 57 49
0.0824443 0.0335455 -0.0917908 163 54 41
0.0768871 0.0277589 -0.0857388 117 70 63
0.0783061 0.0347809 -0.0906701 157 42 41
0.0779697 0.030047 -0.0878582 136 85 73
0.0740483 0.0172652 -0.0848577 104 35 40
0.0798976 0.0285842 -0.0907193 149 105 95
0.0756185 0.0320705 -0.0837896 138 84 74
0.0756183 0.0350886 -0.084504 82 79 96
0.082313 0.0236941 -0.0951894 169 58 41
0.0818228 0.0280257 -0.0956846 175 83 68
0.0703203 0.0141625 -0.083271 173 167 165
0.0790225 0.0305726 -0.0891424 136 104 101
0.0658297 0.0163274 -0.0829714 151 59 60
0.0713339 0.0304983 -0.0813446 98 71 74
0.0820168 0.0291645 -0.10178 213 0 0
0.0699891 0.0162874 -0.0870136 169 86 82
0.0785336 0.0309537 -0.0894389 149 27 22
0.0818239 0.0293894 -0.0890598 140 40 36
0.0741318 0.0355247 -0.0781126 148 114 101
0.0713768 0.0346586 -0.0755597 175 117 104
0.0802028 0.0191026 -0.098156 131 61 50
0.0822682 0.0259556 -0.0925392 174 197 173
0.0714352 0.0205134 -0.0805735 98 61 63
0.0658163 0.0208416 -0.0781844 66 29 26
0.0813493 0.0255643 -0.0814707 131 45 34
0.070649 0.0218853 -0.0783393 99 54 35
0.0817007 0.0296024 -0.101262 255 82 53
0.0706808 0.0214637 -0.080358 255 255 255
0.0787007 0.0316563 -0.0914797 153 114 105
0.0833023 0.0262169 -0.102364 255 137 109
0.082206 0.0344885 -0.0974302 222 39 39
0.0814487 0.0336428 -0.0911489 156 187 177
0.0786096 0.0304246 -0.0897257 143 149 130
0.0756061 0.035684 -0.0820217 82 104 130
0.0765617 0.0393249 -0.0853142 103 60 62
0.0777958 0.0335625 -0.0885181 141 111 97
0.0708889 0.0365313 -0.0902255 124 54 49
0.0812434 0.0318238 -0.099012 152 63 51
0.0784918 0.0317849 -0.0888268 158 255 255
0.0784306 0.0317728 -0.0871248 145 96 84
0.0745086 0.0273274 -0.0851336 90 39 42
0.0649549 0.0186241 -0.081708 134 41 40
0.0848877 0.0256306 -0.10132 171 138 121
0.0713995 0.0139518 -0.0837686 199 166 171
0.0846407 0.0295393 -0.0917815 170 166 149
0.0844042 0.0270164 -0.102787 158 45 32
0.0823837 0.0270872 -0.0906806 183 140 129
0.0658547 0.0205239 -0.0779086 81 60 45
0.0834602 0.03282 -0.0959933 255 124 77
0.0843662 0.0269542 -0.0928079 153 178 161
0.0849614 0.0245091 -0.0956933 135 171 163
0.0784443 0.0354333 -0.0958643 172 85 79
0.0839323 0.0358352 -0.0941709 171 208 205
0.0849233 0.0333401 -0.0918931 163 165 145
0.0803356 0.0332464 -0.0939877 163 109 99
0.0807564 0.0310564 -0.0909953 161 99 107
0.0821288 0.0305259 -0.0920691 143 102 88
0.0776178 0.0323469 -0.0889736 179 116 105
0.082587 0.0246195 -0.0912673 173 171 151
0.072878 0.0163523 -0.0852907 150 94 82
0.0773959 0.0313459 -0.0909229 151 228 220
0.0783091 0.0254585 -0.0863121 108 56 57
0.0694751 0.0160075 -0.0845205 205 255 255
0.0771535 0.0314397 -0.0818179 135 7 0
0.0716681 0.0157123 -0.085493 183 160 166
0.0774905 0.030569 -0.0885923 169 179 171
0.0838628 0.0286628 -0.0916709 177 158 147
0.073256 0.019673 -0.0828657 95 55 50
0.0816311 0.0274147 -0.102278 173 0 0
0.0822949 0.0306131 -0.0999101 181 58 26
0.0697515 0.0357291 -0.0794479 142 101 81
0.0677482 0.012998 -0.080141 145 35 31
0.0699054 0.0196351 -0.0773675 67 33 32
0.0816812 0.027309 -0.0932368 174 139 120
0.0839498 0.0313985 -0.0908168 145 138 124
0.0814333 0.0346876 -0.0949268 182 100 100
0.0868141 0.030863 -0.0983031 184 255 255
0.0706159 0.0220816 -0.0813468 255 255 255
0.0813128 0.0328174 -0.0972417 252 57 39
0.0824757 0.0357104 -0.098735 184 61 53
0.0841258 0.0274217 -0.0927511 152 206 190
0.0828112 0.0302359 -0.0927888 255 91 76
0.0820484 0.029204 -0.0923938 193 241 215
0.0822663 0.0297618 -0.0927476 198 190 171
0.0713572 0.0309063 -0.0867298 92 16 25
0.0707534 0.0373006 -0.0885444 193 139 134
0.0735237 0.0205763 -0.082808 86 44 39
0.0847129 0.0269931 -0.0938644 131 168 160
0.0743927 0.0332351 -0.0831988 135 74 67
0.0726524 0.03171 -0.0905985 59 0 0
0.0843177 0.0275514 -0.0946036 194 255 231
0.0842459 0.0362422 -0.0947806 255 113 84
0.0709296 0.0215781 -0.0787062 255 255 233
0.0816302 0.0277387 -0.101234 168 0 0
0.0792149 0.0357684 -0.0954093 170 71 54
0.0839205 0.0359487 -0.0938604 255 148 94
0.083308 0.037084 -0.0961675 255 102 73
0.0852455 0.0251319 -0.105822 176 77 81
0.0746419 0.0344201 -0.0927803 167 73 64
0.0701565 0.0149143 -0.0848626 211 142 135
0.0708501 0.0219945 -0.0799128 255 255 243
0.0794995 0.0276243 -0.0904582 130 81 73
0.0833298 0.0284225 -0.101487 218 45 31
0.0839797 0.029212 -0.0922755 162 119 101
0.0876313 0.0352814 -0.0948167 169 136 134
0.082132 0.027583 -0.092989 162 184 170
0.0831219 0.0335558 -0.0911665 160 100 90
0.0774806 0.0342883 -0.0908652 54 12 0
0.0808426 0.0337335 -0.0929406 172 212 218
0.0782812 0.0225017 -0.104981 202 65 52
0.0782703 0.0302794 -0.099125 252 64 49
0.0825238 0.0285704 -0.101775 220 68 59
0.0796349 0.0386971 -0.0956611 138 73 72
0.0844726 0.0274282 -0.0913685 191 77 59
0.0849072 0.0279735 -0.0922559 198 255 238
0.0859706 0.0248535 -0.100672 132 113 106
0.0854726 0.0247717 -0.092725 191 196 150
0.0779556 0.0331717 -0.0972823 179 80 66
0.0805125 0.0326166 -0.0894756 124 0 0
0.0741017 0.0323301 -0.0798253 54 0 0
0.0699433 0.021955 -0.0798778 78 48 37
0.0708169 0.0152568 -0.0858329 139 50 51
0.0705033 0.0227397 -0.0829277 234 250 231
0.0833324 0.0330254 -0.0911208 158 138 126
0.0891365 0.0237348 -0.0971426 120 141 123
0.0819993 0.0322042 -0.0973376 170 25 0
0.0814996 0.0277813 -0.101776 87 24 20
0.0867808 0.0228218 -0.103063 131 162 156
0.078767 0.0342171 -0.0964981 164 99 90
0.0777422 0.0319204 -0.0900402 181 255 255
0.0796499 0.0252374 -0.10373 204 97 90
0.0825268 0.0302337 -0.0924385 156 110 92
0.0834251 0.0271261 -0.106923 255 125 119
0.0814519 0.0322433 -0.0971746 209 79 67
0.0786776 0.0360176 -0.0936785 130 58 54
0.0857496 0.0276827 -0.080121 239 109 103
0.0804983 0.0281864 -0.102583 168 79 75
0.0718687 0.0373763 -0.0875854 131 49 48
0.0784481 0.0321459 -0.0872264 160 77 60
0.0813903 0.0324444 -0.0914638 164 152 141
0.0845517 0.0265018 -0.0950533 105 80 78
0.0804628 0.0350468 -0.098656 143 66 65
0.0687721 0.015879 -0.0845054 235 255 255
0.0829622 0.0289392 -0.102014 139 49 27
0.084103 0.0299922 -0.103565 255 220 194
0.0784323 0.0344477 -0.101667 193 27 23
0.0835836 0.0246058 -0.107365 247 96 89
0.0752771 0.0255993 -0.102185 132 81 77
0.0825432 0.0309126 -0.0991624 89 22 0
0.0839698 0.0283233 -0.108939 196 103 93
0.0713952 0.0166205 -0.0855721 162 76 74
0.0772074 0.0288407 -0.0885177 132 63 59
0.0875664 0.0229159 -0.098482 155 135 122
0.0673832 0.0214928 -0.0814831 67 13 0
0.0787539 0.0328342 -0.0913457 151 53 47
0.0840473 0.0320375 -0.0932451 142 179 169
0.0813189 0.0210266 -0.10169 150 67 59
0.0683665 0.0157839 -0.0845442 200 142 141
0.0849715 0.0304429 -0.105714 215 81 73
0.0823899 0.0350739 -0.101876 249 236 230
0.0851615 0.024642 -0.0949045 144 147 135
0.0852508 0.0263018 -0.0947314 108 141 133
0.0822112 0.0368487 -0.0949707 162 77 72
0.0743202 0.0318835 -0.0836771 49 0 0
0.0701267 0.0218977 -0.0814938 145 100 95
0.0838335 0.0300652 -0.0912778 180 251 223
0.081911 0.0224814 -0.0988194 169 54 50
0.0837828 0.0351994 -0.0972655 255 122 82
0.0828201 0.0211599 -0.103821 215 80 71
0.0696075 0.0218467 -0.0809724 79 39 34
0.0823774 0.0356995 -0.0931493 166 126 113
0.076724 0.0327246 -0.099279 213 68 51
0.0795893 0.0281892 -0.105423 250 63 50
0.0828317 0.0355825 -0.0990778 221 80 73
0.0872308 0.0243578 -0.0979039 123 150 138
0.0852727 0.0194983 -0.0940516 143 140 141
0.0827384 0.0345523 -0.102359 243 223 205
0.0827172 0.0257825 -0.0912445 164 152 139
0.0852299 0.0280974 -0.0965704 123 198 173
0.0767664 0.0308771 -0.0835212 76 0 0
0.0803714 0.00570617 -0.085642 139 0 0
0.0848902 0.031643 -0.0775535 172 66 46
0.0837265 0.0383129 -0.0782583 176 101 91
0.0671281 0.0215276 -0.0804281 65 16 12
0.0811782 0.0151845 -0.0959393 180 83 71
0.0786453 0.0194112 -0.0979608 216 77 72
0.0764891 0.0223921 -0.0988126 147 77 68
0.0835718 0.0329522 -0.0962166 164 255 255
0.0794287 0.0215306 -0.0968801 148 70 60
0.0847125 0.0350513 -0.0983119 224 255 255
0.0837325 0.0305851 -0.10088 255 255 234
0.0774706 0.0219689 -0.102396 208 114 104
0.0816763 0.0260622 -0.104271 250 255 255
0.0877911 0.0215402 -0.0716622 29 0 0
0.0804007 0.0340679 -0.0922806 162 201 188
0.0790479 0.0252791 -0.101723 186 92 83
0.0777612 0.0240033 -0.111534 162 114 102
0.0874834 0.0345021 -0.103251 241 238 253
0.074359 0.0204276 -0.0532614 50 31 27
0.0763213 0.0348583 -0.0780179 112 8 10
0.0824266 0.0323651 -0.0776673 115 4 0
0.0813428 0.0393761 -0.0795396 150 47 37
0.0862594 0.0275604 -0.0958603 147 108 96
0.0721919 0.0238667 -0.0514493 39 33 26
0.0774084 0.0334747 -0.0838231 101 23 24
0.0797958 0.0196707 -0.108258 206 76 67
0.0815224 0.028167 -0.106191 255 255 255
0.0789615 0.0252813 -0.0961082 158 90 78
0.0831869 0.0228038 -0.0927966 111 73 80
0.0848322 0.0286572 -0.100058 191 255 242
0.0868236 -0.00510249 -0.0899784 81 0 0
0.0847094 0.0280965 -0.102896 255 243 210
0.0828078 0.0258016 -0.0944431 140 68 69
0.0851259 0.0200824 -0.109037 188 102 96
0.0834147 0.0298443 -0.104562 241 247 213
0.0630989 0.0221444 -0.0402017 0 30 34
0.0726524 0.0252766 -0.10696 149 99 93
0.0858725 0.028781 -0.105757 239 108 106
0.0828619 0.0247775 -0.109818 255 255 255
0.0861538 0.0263131 -0.105445 183 92 82
0.0855703 0.0317867 -0.0795273 173 152 134
0.0808543 0.0294946 -0.101781 232 77 72
0.0799762 0.0280724 -0.0981216 241 77 57
0.0833002 0.0278115 -0.102344 224 234 214
0.0776643 0.02747 -0.0980988 121 80 66
0.0767217 0.0320417 -0.096977 171 66 47
0.0838548 0.0301358 -0.102006 250 101 91
0.0782478 0.0317778 -0.101933 187 43 38
0.0819592 0.035473 -0.105157 255 255 244
0.0837974 0.0346611 -0.10402 255 206 185
0.0803138 0.0355315 -0.0991166 136 114 100
0.0792931 0.032265 -0.102 235 66 58
0.0793242 0.0204308 -0.0447424 32 25 16
0.0848821 0.0276325 -0.101104 95 110 94
0.0771731 0.0361573 -0.0840252 54 47 61
0.0851617 0.0302719 -0.102905 255 0 0
0.0824465 0.0253606 -0.0929673 132 162 147
0.0855427 0.0246958 -0.0974845 49 147 133
0.0618491 0.0241567 -0.0402503 0 85 107
0.0779425 0.0297129 -0.0993933 161 77 60
0.083098 0.032759 -0.103114 255 254 243
0.0776883 0.0220831 -0.109828 255 255 255
0.078085 0.0246788 -0.104279 224 77 66
0.0689213 0.0286717 -0.0376229 26 92 82
0.0845339 0.0292256 -0.0927318 139 188 166
0.0816799 0.0355324 -0.0759281 178 91 87
0.0760956 0.0332237 -0.078564 55 0 0
0.0846436 0.0295646 -0.0818266 197 56 46
0.0823506 0.0348581 -0.0761437 177 98 92
0.0683053 0.0208003 -0.0808469 59 13 8
0.0829977 0.0125096 -0.0931034 217 63 51
0.07748 0.0203297 -0.101051 210 92 82
0.0758228 0.0223596 -0.101081 182 104 96
0.0805638 0.0188581 -0.0981767 151 63 58
0.0837922 0.0363784 -0.0967555 215 254 255
0.0822837 0.0312866 -0.100184 224 255 255
0.0770563 0.021931 -0.104247 213 111 101
0.0808111 0.0311984 -0.061933 43 0 9
0.0789365 0.036192 -0.0926465 158 196 190
0.0722569 0.031713 -0.0986789 79 60 58
0.0792375 0.0219232 -0.103054 184 94 84
0.076899 0.0262311 -0.111035 162 114 102
0.0887544 0.0315561 -0.103784 241 238 253
0.0772732 0.0109863 -0.0534659 46 31 21
0.076863 0.0309821 -0.0797683 79 5 0
0.0803453 0.0286877 -0.0789249 147 0 0
0.0775256 0.0388221 -0.0742529 141 60 67
0.0837968 0.0299649 -0.0921349 161 118 92
0.0736673 0.0221864 -0.0528665 56 36 30
0.0694347 0.0315721 -0.0601917 35 17 13
0.0767803 0.0351227 -0.0834785 90 17 23
0.0791606 0.021474 -0.104459 246 79 71
0.0779429 0.021889 -0.0964489 151 73 66
0.0869705 0.0236375 -0.0987973 117 91 75
0.0832891 0.0283738 -0.102041 255 245 203
0.0844981 0.0303789 -0.101121 255 202 184
0.0823308 0.0251855 -0.0948977 142 77 72
0.0812545 0.0222533 -0.108943 194 108 101
0.0822512 0.0238489 -0.10628 245 251 218
0.0636202 0.0234603 -0.0394745 0 45 42
0.0723926 0.0252303 -0.105115 165 94 87
0.0796169 0.0205947 -0.101635 255 229 201
0.0833755 0.0312973 -0.102471 241 232 207
0.0859915 0.0290504 -0.105671 238 107 106
0.080833 0.0278693 -0.109594 219 109 99
0.0822856 0.0299618 -0.107655 255 255 255
0.0839609 0.0252635 -0.104074 195 129 99
0.0743385 0.0304101 -0.0975716 108 34 27
0.0832017 0.0345473 -0.0766331 171 123 108
0.0807944 0.0267561 -0.101103 223 76 62
0.0836574 0.0268791 -0.106516 255 255 255
0.083034 0.0240453 -0.10228 255 228 204
0.0788582 0.0271816 -0.0986886 137 82 68
0.0717371 0.0253222 -0.0994141 95 85 82
0.0823705 0.0321624 -0.098061 151 9 0
0.0832591 0.0260207 -0.102856 255 199 184
0.0824548 0.0306925 -0.0974744 156 135 128
0.0707365 0.0198503 -0.0401123 31 5 3
0.0886968 0.0262551 -0.10225 111 100 94
0.079314 0.0388098 -0.0882107 76 49 52
0.0851803 0.0331281 -0.102015 255 0 0
0.0818486 0.0282154 -0.108407 227 80 70
0.0823209 0.027074 -0.0934451 153 180 166
0.0858718 0.0229854 -0.101274 117 132 121
0.0598944 0.0241868 -0.0392975 59 69 56
0.0818082 0.0320253 -0.103126 255 255 252
0.0840148 0.0312147 -0.10315 236 239 222
0.0826192 0.0357137 -0.106046 255 255 228
0.0702532 0.0271029 -0.0376021 65 110 100
0.0785787 0.0298787 -0.0932733 221 222 201
0.0791042 0.0326211 -0.0947858 233 247 253
0.0713906 0.0161769 -0.0856215 194 255 255
0.0767862 0.0312109 -0.0936859 157 56 53
0.0731455 0.0259543 -0.0814835 229 136 115
0.0752181 0.0324973 -0.0895257 176 88 76
0.0736961 0.0335256 -0.0834999 181 120 111
0.0764721 0.0324901 -0.095648 167 78 72
0.0754299 0.0347339 -0.0943729 145 76 73
0.0730114 0.0339688 -0.0866211 129 84 70
0.072673 0.0336552 -0.0824775 254 235 193
0.0850351 0.0229419 -0.0989835 148 99 84
0.0840879 0.0226417 -0.09688 167 128 124
0.0827386 0.02204 -0.0935251 184 114 106
0.082844 0.0287634 -0.0897952 166 50 41
0.0836582 0.0166368 -0.0939313 181 69 59
0.0834017 0.0321862 -0.0952165 117 68 70
0.085076 0.0186199 -0.0931623 213 98 92
0.0836463 0.019984 -0.089211 151 24 17
0.0828437 0.027444 -0.090403 177 149 136
0.0821335 0.0278111 -0.0935077 162 198 178
0.0841107 0.0249378 -0.0898682 150 21 18
0.0829711 0.0244516 -0.0906046 178 40 30
0.083883 0.0316464 -0.104001 150 75 58
0.080714 0.0262645 -0.0940865 176 148 138
0.0809856 0.0225632 -0.0904145 134 79 73
0.0823042 0.0279454 -0.093074 201 157 143
0.0782853 0.0264079 -0.0917275 133 46 43
0.0807916 0.0265329 -0.0908044 134 87 82
0.0832842 0.0178137 -0.0915006 159 99 83
0.081579 0.0208086 -0.0884376 123 37 31
0.0812804 0.0221381 -0.0903853 130 71 64
0.0795931 0.0277058 -0.0889656 144 84 75
0.0819875 0.0144927 -0.0907745 224 90 78
0.0802855 0.0250015 -0.0889951 117 61 57
0.0811326 0.024493 -0.088747 111 83 75
0.0801181 0.0278492 -0.0902448 133 96 90
0.0795943 0.029844 -0.094072 166 47 38
0.0783187 0.0329235 -0.0893721 138 55 52
0.0727588 0.0186941 -0.0978845 172 65 57
0.0763876 0.0220186 -0.0954304 144 80 71
0.0809243 0.0371068 -0.0962188 153 102 89
0.0778487 0.0192625 -0.0847305 141 75 69
0.0809484 0.0344819 -0.0910251 162 84 72
0.0801313 0.0291109 -0.0901172 139 88 87
0.0721689 0.0129152 -0.085505 139 64 58
0.0774446 0.0100698 -0.0874138 137 65 53
0.0780059 0.0244238 -0.0856852 122 59 53
0.0742897 0.0125744 -0.092778 172 65 63
0.07719 0.0182558 -0.0876285 141 45 41
0.0775037 0.022062 -0.0871646 112 40 36
0.0796227 0.0308728 -0.0935361 158 60 51
0.0799118 0.0265282 -0.0887972 126 65 60
0.0754698 0.0192608 -0.0843846 107 61 53
0.0778678 0.0244446 -0.0871627 116 61 57
0.0771541 0.0284167 -0.0896106 130 62 58
0.0779864 0.02601 -0.0864237 114 50 50
0.0784519 0.0250384 -0.0877374 101 51 51
0.078664 0.0325331 -0.0935909 137 24 15
0.0738423 0.0156483 -0.0855445 159 79 66
0.0755541 0.0188985 -0.0829786 90 31 27
0.0689351 0.0100951 -0.0850778 128 70 61
0.0734677 0.0159852 -0.0869419 131 66 59
0.0803588 0.0275334 -0.0916168 146 84 85
0.0753637 0.0313584 -0.0856856 115 58 52
0.077523 0.0263478 -0.0882281 173 137 126
0.069484 0.0149095 -0.086784 216 252 241
0.0773571 0.0268813 -0.0870171 109 68 58
0.0722329 0.0206291 -0.0924073 147 57 58
0.0698682 0.0172333 -0.084688 151 55 46
0.0773579 0.0321769 -0.0851491 165 127 123
0.0774745 0.0341449 -0.0869925 145 90 79
0.0664283 0.0203455 -0.0793913 123 47 46
0.078501 0.0313771 -0.0905858 153 136 124
0.0779757 0.0277672 -0.0871275 37 0 0
0.0749913 0.0285359 -0.0834886 32 0 0
0.0773208 0.0319244 -0.0872653 149 97 89
0.0760659 0.0271254 -0.0868195 21 0 0
0.0681299 0.0146379 -0.0888793 151 54 47
0.0775426 0.0280031 -0.0870048 130 89 81
0.0754654 0.030026 -0.0851156 129 63 58
0.0769209 0.0309044 -0.088187 150 79 67
0.0770252 0.0302851 -0.085163 144 95 86
0.0776242 0.0326075 -0.0898812 169 148 127
0.0774687 0.0305127 -0.0884659 143 99 98
0.0828507 0.0311169 -0.0886367 129 44 40
0.068533 0.0113452 -0.0863541 139 50 44
0.0732283 0.026481 -0.080894 118 117 91
0.0750723 0.0309333 -0.0853273 128 81 71
0.0757817 0.0298774 -0.0852433 34 0 0
0.0733761 0.026463 -0.0840613 86 49 42
0.0696485 0.0132408 -0.0855816 133 42 38
0.0752421 0.0309695 -0.0854111 137 84 71
0.0698749 0.0145388 -0.0855477 141 60 55
0.0739417 0.0278121 -0.0836464 83 49 42
0.0711561 0.0188798 -0.0818517 81 38 34
0.0716301 0.0220964 -0.08132 116 63 59
0.0720161 0.0202491 -0.0916327 144 52 47
0.0749819 0.0355783 -0.0841817 108 50 49
0.074189 0.0325953 -0.0859919 34 16 7
0.0734408 0.0321424 -0.0827047 153 111 98
0.0707577 0.0177193 -0.0800918 77 37 35
0.066324 0.0200626 -0.078815 75 31 29
0.0712381 0.0278798 -0.0782187 33 0 0
0.074746 0.0310264 -0.0852799 25 0 0
0.0697604 0.0160977 -0.0837611 175 94 83
0.0671672 0.0142371 -0.0848684 143 52 45
0.071482 0.0218873 -0.0790647 114 71 69
0.073634 0.0320253 -0.0824603 130 105 86
0.0764858 0.0330281 -0.0852003 117 56 54
0.0700114 0.0175116 -0.0850322 142 51 43
0.0724717 0.0362182 -0.0887418 142 55 46
0.0700426 0.022026 -0.0859341 60 16 17
0.0663103 0.0168157 -0.0817653 125 39 31
0.0735415 0.0318114 -0.0833289 26 0 0
0.0674934 0.0239207 -0.0784192 59 36 34
0.074032 0.0371722 -0.088481 120 52 54
0.0686462 0.0275109 -0.0765026 57 55 47
0.0730252 0.038003 -0.0878087 149 91 84
0.0800758 0.0384856 -0.0889311 113 55 45
0.082762 0.0246111 -0.1049 255 143 128
0.0801788 0.0184056 -0.0990594 255 142 136
0.0849834 0.0223682 -0.0938329 153 128 108
0.0827409 0.0175555 -0.091687 203 149 128
0.0821367 0.0283283 -0.0915879 188 120 103
0.0822102 0.0232625 -0.0946982 170 116 105
0.0822955 0.029283 -0.0925385 146 154 139
0.0826243 0.0175612 -0.0901821 196 66 43
0.0824722 0.0292284 -0.0939572 149 88 75
0.0818229 0.026322 -0.0910374 229 72 59
0.0819601 0.030854 -0.0918311 175 110 100
0.0802197 0.027646 -0.0956115 90 74 64
0.080529 0.0258391 -0.088249 127 72 66
0.0802304 0.0265655 -0.0899578 131 77 76
0.0831282 0.0357041 -0.0979802 165 100 97
0.0808501 0.0230128 -0.0903215 135 63 57
0.0754424 0.0135222 -0.0913361 218 135 118
0.0762221 0.0187375 -0.088316 132 59 51
0.0803534 0.0321072 -0.0918229 145 74 63
0.081951 0.0362554 -0.0929935 178 83 77
0.0784759 0.0155541 -0.0895052 179 89 86
0.0767871 0.014717 -0.0886464 168 76 62
0.080191 0.0275243 -0.0920861 123 54 52
0.0812121 0.023897 -0.0824759 130 56 45
0.0812179 0.0386253 -0.085473 134 40 34
0.0769862 0.0157648 -0.0895163 194 108 93
0.0783024 0.0225701 -0.0883232 116 48 44
0.0763308 0.0179682 -0.0861953 126 66 57
0.0749185 0.0191781 -0.0889779 112 13 0
0.0751028 0.0196495 -0.0852413 112 70 61
0.0779512 0.0275795 -0.0889972 142 116 114
0.0774968 0.0298761 -0.0887609 137 89 78
0.0782784 0.0320945 -0.0878483 128 77 71
0.0746657 0.014354 -0.0864985 141 39 32
0.0794017 0.0314939 -0.0899752 126 117 119
0.0688956 0.00966423 -0.084342 143 78 67
0.0773241 0.0340376 -0.0853804 176 89 56
0.0703602 0.0101393 -0.0859907 146 72 64
0.0705832 0.0125257 -0.0850548 150 56 48
0.0778919 0.0308382 -0.0912735 158 119 114
0.0739285 0.0159586 -0.0862961 119 53 32
0.0779843 0.0315305 -0.0871021 142 149 136
0.0782312 0.0312409 -0.0878782 150 117 108
0.0745574 0.0179092 -0.0839879 52 0 0
0.0708225 0.0149612 -0.0861639 146 59 51
0.0730641 0.01853 -0.0828692 124 78 68
0.0753393 0.0302587 -0.0848437 139 99 85
0.0770157 0.0320613 -0.0860892 151 79 78
0.0674094 0.00913327 -0.0835126 152 71 59
0.070985 0.0184694 -0.0814569 93 46 43
0.0711522 0.0349214 -0.08025 131 57 46
0.0727888 0.0304638 -0.0830791 151 112 98
0.0700436 0.0230605 -0.0827963 238 236 221
0.0729244 0.0354066 -0.0767826 143 99 87
0.0649074 0.0161047 -0.0825953 130 47 42
0.0752337 0.0337764 -0.0850812 108 58 62
0.0849768 0.0184232 -0.0962333 138 110 105
0.0822865 0.0162612 -0.0928714 197 133 119
0.0825453 0.0239738 -0.0917207 180 142 129
0.0825373 0.0296106 -0.0916283 171 72 62
0.082851 0.0252176 -0.0921476 134 171 158
0.0833407 0.0194352 -0.0949965 188 69 62
0.0820154 0.0269085 -0.0954447 167 74 59
0.0773759 0.0328265 -0.0872726 139 127 122
0.0783665 0.0314548 -0.0895706 220 255 255
0.0775041 0.0282196 -0.0902562 131 53 58
0.0783019 0.0323816 -0.0877955 129 79 71
0.0768408 0.0279845 -0.0899111 135 72 70
0.0715901 0.0346691 -0.0913451 53 21 18
0.0810627 0.0191935 -0.0913134 167 73 55
0.0824993 0.0194586 -0.0973013 251 119 118
0.0818682 0.0252861 -0.0908308 169 53 42
0.0842799 0.0362542 -0.0920372 164 179 171
0.0837079 0.0302073 -0.0926149 162 124 105
0.0825134 0.0299588 -0.0913945 159 82 71
0.0811272 0.0239269 -0.0900329 129 86 77
0.0766263 0.0216433 -0.0922053 146 63 55
0.0831194 0.0261261 -0.0928991 156 50 34
0.077327 0.0330213 -0.0894391 172 99 88
0.0725919 0.0177311 -0.0822107 90 48 46
0.0716438 0.0309777 -0.0971585 74 30 27
0.0808555 0.01809 -0.0912684 177 77 70
0.0756523 0.0390931 -0.084106 121 50 47
0.0782014 0.0322059 -0.0929429 255 255 255
0.0769992 0.0304252 -0.0881385 156 137 124
0.0752651 0.0295943 -0.0853406 142 111 97
0.0755391 0.0298664 -0.0852525 140 87 77
0.073798 0.0311764 -0.0814984 93 67 53
0.0846186 0.0321999 -0.0938049 219 251 228
0.0767296 0.0335148 -0.0859864 173 71 62
0.0733431 0.0268574 -0.0791053 127 149 115
0.0754487 0.0276858 -0.0817477 166 95 70
0.0716576 0.0291944 -0.0807962 31 0 0
0.0705401 0.0219351 -0.0803785 255 255 255
0.0771922 0.0319373 -0.0909141 240 255 255
0.0842022 0.0265058 -0.101996 255 56 56
0.0784916 0.0334524 -0.093053 179 76 63
0.0849397 0.0279382 -0.0942174 165 119 105
0.0813503 0.0330748 -0.092735 159 108 101
0.0829854 0.0306706 -0.0926215 114 45 39
0.078793 0.0301947 -0.0903618 176 119 110
0.0774943 0.0338288 -0.0893404 155 120 113
0.0814799 0.0308763 -0.093528 166 124 114
0.0775066 0.0302554 -0.0883787 131 68 62
0.0723094 0.0341991 -0.0793669 158 89 79
0.0817397 0.0308707 -0.0906125 132 53 41
0.0738814 0.0264852 -0.0831657 136 102 104
0.0794652 0.0162942 -0.0922403 202 117 99
0.0832446 0.0262924 -0.0920787 189 79 80
0.0773161 0.0275463 -0.0872074 108 68 58
0.0738584 0.0324708 -0.080729 156 109 90
0.0720401 0.0239233 -0.0796421 134 80 65
0.0790889 0.0309951 -0.0906501 250 255 255
0.0778331 0.0312843 -0.0879598 151 96 87
0.0838871 0.0314029 -0.0933332 161 250 227
0.0824651 0.0224953 -0.0934406 187 99 97
0.07437 0.0217051 -0.0831956 103 59 51
0.0711883 0.0168985 -0.0878302 196 255 255
0.0824676 0.0254701 -0.0917402 238 182 161
0.0733837 0.0151574 -0.0874675 165 82 73
0.0795216 0.0329365 -0.0881123 119 72 67
0.0695445 0.0200895 -0.0766368 255 255 255
0.0804837 0.031143 -0.0888385 137 49 43
0.0767272 0.0299568 -0.0881564 151 112 105
0.0804387 0.0290628 -0.0934984 151 45 38
0.0811228 0.0323409 -0.0908922 164 76 57
0.0773575 0.03156 -0.0864117 173 255 255
0.0702868 0.015775 -0.0829622 118 77 69
0.0686457 0.0181864 -0.0933295 143 58 51
0.0721621 0.0236566 -0.0779011 97 48 47
0.0741368 0.0275438 -0.0827271 113 87 73
0.0667243 0.0194338 -0.0802177 64 23 22
0.0703149 0.0218023 -0.0817275 227 155 146
0.0784571 0.0317771 -0.0864941 151 65 64
0.0728488 0.0255262 -0.0865872 78 39 35
0.082541 0.0300575 -0.0907389 134 162 153
0.0782998 0.0332265 -0.0876157 148 255 255
0.0776029 0.0306339 -0.0866557 166 162 132
0.0764519 0.0187121 -0.0865538 123 51 45
0.0771706 0.0288654 -0.0876913 154 108 109
0.069889 0.0174278 -0.0845569 207 251 250
0.0750584 0.0330224 -0.0884395 161 255 255
0.0638673 0.0199246 -0.0833232 133 57 51
0.082682 0.0292537 -0.0913215 182 72 65
0.0799312 0.0338246 -0.0893155 255 255 253
0.0779381 0.0317146 -0.0896329 154 201 188
0.0721707 0.0169311 -0.0849878 48 0 0
0.0738487 0.021377 -0.0829196 102 61 52
0.078179 0.0316575 -0.089937 171 255 255
0.0818963 0.0301625 -0.0940939 158 122 107
0.0832323 0.0314097 -0.0931218 151 140 127
0.0824015 0.0277872 -0.0929309 193 106 97
0.082906 0.0275352 -0.0941592 152 112 97
0.0775439 0.0277823 -0.0868436 112 77 69
0.0757594 0.0197735 -0.0850342 120 60 51
0.079258 0.0289269 -0.090427 131 78 77
0.0776038 0.0281243 -0.0907383 128 72 70
0.0778459 0.0337006 -0.0925033 158 45 43
0.0779139 0.0311975 -0.0874931 122 75 65
0.0736447 0.0171021 -0.0849446 95 53 50
0.0750345 0.0323555 -0.0832049 143 83 75
0.0801644 0.0289176 -0.09733 185 91 81
0.0820343 0.0274054 -0.0925544 169 180 159
0.0716886 0.0107824 -0.0867724 148 72 64
0.0796957 0.030547 -0.0936693 166 56 48
0.073674 0.0154215 -0.0854253 135 74 62
0.0732166 0.0163706 -0.086727 145 73 62
0.0773896 0.0300121 -0.0888421 136 99 89
0.0683645 0.0289878 -0.0807465 84 57 43
0.0650906 0.0166998 -0.0814258 153 59 45
0.0716131 0.0307013 -0.0814719 54 50 49
0.0823857 0.0292798 -0.102124 213 0 0
0.0823493 0.0235522 -0.101889 255 96 81
0.0709476 0.0159952 -0.0866612 164 74 77
0.0840134 0.0321634 -0.104485 251 103 100
0.0812667 0.0289834 -0.0905487 142 46 42
0.0736519 0.035282 -0.0787499 150 106 92
0.0727418 0.0333328 -0.0779164 163 113 101
0.0802546 0.0240374 -0.0879251 110 29 22
0.0798676 0.0245252 -0.0965688 143 67 55
0.0821038 0.0253305 -0.0930237 153 187 165
0.0726855 0.0150188 -0.0873593 160 69 63
0.0830522 0.0272721 -0.0938482 117 166 160
0.0839197 0.0218498 -0.103344 199 53 40
0.0745886 0.018443 -0.0824048 119 67 62
0.0776593 0.0257123 -0.0863946 123 76 66
0.0686959 0.0204694 -0.0787267 74 28 26
0.0830368 0.0261967 -0.0965627 173 81 60
0.0830848 0.0227247 -0.0933694 158 158 153
0.0707606 0.0212898 -0.0803846 255 248 245
0.0824857 0.0269887 -0.092894 210 176 162
0.0792261 0.0321416 -0.0933014 151 117 103
0.0671844 0.0175988 -0.0808797 76 36 30
0.084424 0.0374181 -0.0993822 199 24 10
0.0826606 0.0327876 -0.0935021 156 147 138
0.0786549 0.0327088 -0.0902048 176 58 43
0.0805097 0.0281026 -0.0908621 152 93 85
0.0783852 0.0371336 -0.0894936 133 72 72
0.0755063 0.0354308 -0.0822161 111 84 68
0.0745658 0.0347276 -0.0832479 108 87 80
0.0777526 0.0336561 -0.0883696 138 115 111
0.0737395 0.0343507 -0.0856849 134 59 51
0.0758089 0.0332139 -0.0880386 117 47 43
0.0814558 0.0309922 -0.0993964 138 69 59
0.0785732 0.0328218 -0.0892134 169 255 255
0.0781215 0.0322833 -0.0870847 136 93 86
0.0738276 0.0270993 -0.0839754 85 50 42
0.0659505 0.0154216 -0.0832691 138 43 31
0.083775 0.0267844 -0.101693 159 142 129
0.0855006 0.027295 -0.0960779 165 124 108
0.0692207 0.0146163 -0.0842722 208 152 148
0.0839344 0.0321356 -0.0926314 151 167 156
0.0821282 0.024422 -0.0923605 138 148 135
0.0705867 0.0213831 -0.0800801 255 255 255
0.0667675 0.0200602 -0.0781386 105 70 61
0.0839799 0.0279186 -0.0926732 143 173 159
0.081549 0.0313773 -0.0928701 156 130 132
0.0853568 0.0254543 -0.0950991 120 168 149
0.0801301 0.0366823 -0.0968096 172 92 85
0.0837815 0.0349584 -0.0928508 152 199 193
0.084861 0.0285761 -0.0922618 152 161 142
0.0811534 0.032566 -0.0919961 165 105 94
0.0798673 0.032282 -0.0907347 168 99 106
0.0796476 0.028924 -0.0911449 153 91 86
0.0785819 0.0316743 -0.0910363 140 112 107
0.0742616 0.0277493 -0.0841486 74 37 33
0.0771273 0.0301409 -0.087969 145 187 173
0.08267 0.0219773 -0.0982849 160 113 109
0.0827701 0.0270288 -0.0911844 171 168 148
0.0812148 0.0221265 -0.0837908 128 70 49
0.0736318 0.0146964 -0.0853521 162 102 86
0.0771255 0.0323786 -0.0923826 134 152 142
0.0697219 0.0146248 -0.0848059 216 255 255
0.0778218 0.0313484 -0.0831674 133 23 17
0.0728288 0.0163995 -0.0850193 136 64 56
0.0764321 0.0252803 -0.0877063 42 0 0
0.0775868 0.0317359 -0.0877565 177 209 183
0.0725947 0.0173254 -0.0831739 85 52 51
0.0798372 0.0262904 -0.0947031 139 45 40
0.0807352 0.0251039 -0.102291 167 44 33
0.0726838 0.0346133 -0.07709 156 108 85
0.0665643 0.0200122 -0.0780506 58 20 17
0.0719263 0.0156963 -0.0826761 97 55 54
0.081914 0.0249634 -0.102602 186 0 0
0.0775183 0.0228896 -0.0867973 97 46 41
0.0702969 0.0215894 -0.0787571 239 193 181
0.0768077 0.0323449 -0.0986341 230 58 43
0.0760445 0.0339595 -0.0962566 168 73 65
0.0867987 0.0328409 -0.0921312 213 255 248
0.0826555 0.028494 -0.0952999 148 97 83
0.0767953 0.0287028 -0.0862317 183 136 126
0.0816196 0.0302033 -0.0929438 176 133 120
0.0828061 0.0267511 -0.102283 255 255 239
0.0704412 0.0223821 -0.0810084 255 255 255
0.0845945 0.03564 -0.101046 240 68 54
0.080495 0.0384776 -0.0884215 175 106 98
0.081928 0.0339898 -0.101936 255 255 255
0.0834627 0.0315778 -0.0947572 135 192 194
0.0830903 0.035298 -0.0955218 149 202 189
0.0814749 0.0316803 -0.0925002 187 174 175
0.0725161 0.0310259 -0.0850561 82 60 54
0.0814415 0.0316336 -0.0991258 127 57 43
0.0825188 0.0324967 -0.0911078 165 80 63
0.0836549 0.0292211 -0.0922341 134 172 156
0.082133 0.029554 -0.0926904 161 123 104
0.0755876 0.032331 -0.0845824 119 58 53
0.0722794 0.0330388 -0.0879657 51 0 0
0.0815959 0.0336471 -0.0891265 163 101 89
0.0837892 0.0293983 -0.0950768 164 255 239
0.0775745 0.0307749 -0.089717 155 116 115
0.0716918 0.0218267 -0.0783408 255 255 233
0.0820803 0.0320449 -0.100748 180 0 0
0.0829284 0.0271617 -0.104498 193 85 69
0.0776488 0.0326136 -0.0947796 161 57 49
0.0694262 0.0142421 -0.0869816 195 168 154
0.0706736 0.0212379 -0.0776579 255 250 228
0.0712021 0.034384 -0.0783382 169 136 122
0.0828307 0.0288367 -0.0936982 120 74 68
0.0806463 0.0286545 -0.0935748 126 62 53
0.0716984 0.0234178 -0.08 90 46 41
0.0735063 0.0348279 -0.0811275 129 69 65
0.0825938 0.0344541 -0.0914068 154 101 90
0.0755817 0.0305944 -0.0886694 125 78 73
0.0699254 0.0168495 -0.0850523 234 151 136
0.0770819 0.0329722 -0.0862958 124 27 19
0.0727748 0.0315292 -0.0954781 57 16 15
0.0827083 0.024502 -0.0903236 208 66 57
0.0838647 0.0315711 -0.0918156 161 100 79
0.0784982 0.0338754 -0.0908124 55 23 0
0.0780676 0.0280734 -0.0866283 115 71 62
0.0834781 0.0328553 -0.0915065 192 78 69
0.0813272 0.0325063 -0.0936069 164 173 175
0.070179 0.0217059 -0.0811381 255 255 255
0.0806818 0.0331948 -0.0974374 172 116 100
0.0765126 0.027472 -0.0963835 235 76 58
0.0818412 0.0290628 -0.102068 249 64 36
0.0776868 0.0321233 -0.0951955 133 81 72
0.0825696 0.0264268 -0.0890381 211 62 52
0.0836392 0.0309406 -0.0918462 164 255 239
0.0778186 0.037024 -0.0973148 206 96 79
0.0761559 0.029961 -0.100053 162 54 43
0.0845395 0.0237474 -0.0982764 128 107 93
0.0845869 0.0259132 -0.0939502 137 184 166
0.0811487 0.0334471 -0.089757 125 13 0
0.0726176 0.031311 -0.0854591 39 0 0
0.0708379 0.0224726 -0.0806102 239 255 240
0.0822468 0.0312366 -0.0979427 146 29 3
0.0804606 0.0290979 -0.0976745 222 108 98
0.0821167 0.0301725 -0.0936112 156 114 101
0.0825881 0.0286524 -0.104012 105 36 28
0.0860738 0.0231265 -0.100016 153 143 136
0.081189 0.022017 -0.0968454 162 68 58
0.0789435 0.0366123 -0.0920426 148 208 202
0.0765583 0.0316198 -0.09613 236 86 74
0.0703681 0.0224082 -0.0819161 255 255 255
0.0804578 0.0261255 -0.102235 194 83 75
0.0818436 0.0316854 -0.0938556 152 119 104
0.0777806 0.0375273 -0.0975768 210 71 65
0.0759388 0.0344302 -0.0918562 127 59 59
0.0848632 0.0276957 -0.093672 185 255 243
0.0810961 0.0288368 -0.10178 169 88 78
0.0678995 0.0209786 -0.0783618 74 49 41
0.0725342 0.0358319 -0.0831842 137 68 63
0.0789041 0.0320052 -0.0874878 122 87 69
0.083727 0.0325457 -0.0930719 145 180 168
0.0808982 0.0236314 -0.107218 255 140 120
0.0811192 0.0371423 -0.0913408 165 87 81
0.078035 0.0328588 -0.089843 147 63 56
0.0850318 0.0295554 -0.094641 117 79 59
0.0833485 0.0368212 -0.0993528 140 71 68
0.0701787 0.0169622 -0.0850137 214 255 255
0.0795351 0.032996 -0.0896207 124 74 70
0.0820305 0.0315699 -0.100903 126 39 21
0.078449 0.0378406 -0.0967675 159 56 50
0.0782379 0.0231005 -0.105137 242 104 97
0.0703538 0.0154201 -0.0854686 216 241 238
0.0837985 0.0162643 -0.094967 148 118 115
0.0814656 0.0299142 -0.101258 97 13 8
0.0789004 0.0336708 -0.101135 216 35 36
0.0798256 0.0337986 -0.104244 113 49 51
0.0772996 0.0246977 -0.101408 133 74 67
0.0688612 0.0163897 -0.0841689 113 93 90
0.0823028 0.025788 -0.0918503 161 139 122
0.0830518 0.021572 -0.096956 136 145 133
0.0707849 0.01548 -0.0843772 124 46 49
0.0764171 0.0340739 -0.082393 120 48 45
0.0764829 0.029093 -0.0879948 121 72 71
0.0854624 0.033622 -0.093196 164 199 177
0.079273 0.0316166 -0.0913143 255 255 255
0.0788577 0.032624 -0.0920638 160 81 75
0.0767713 0.0287092 -0.0880593 122 66 60
0.0821697 0.0255818 -0.0913591 237 152 138
0.0674166 0.0213844 -0.0821622 65 18 0
0.0795985 0.0324633 -0.0924225 147 57 48
0.0811482 0.0308234 -0.102573 255 104 66
0.0803044 0.0300829 -0.090995 112 77 77
0.0821593 0.0269427 -0.0930651 175 205 178
0.076941 0.0314716 -0.089471 146 92 82
0.0809458 0.0323423 -0.0986408 163 72 52
0.0835953 0.0309908 -0.0936034 146 185 168
0.0837664 0.0299753 -0.092208 152 160 140
0.0793201 0.0231554 -0.0952993 153 74 63
0.0817819 0.0284457 -0.0938243 138 64 58
0.0800138 0.0238616 -0.10104 152 37 32
0.0801275 0.0234961 -0.0964412 129 59 49
0.0627491 0.0222435 -0.0796267 69 39 31
0.0685582 0.0153757 -0.0843655 192 210 205
0.0797333 0.0266498 -0.0970099 122 70 61
0.0698216 0.0114177 -0.0841523 255 140 125
0.0758608 0.0340844 -0.0985733 191 59 44
0.0847427 0.0267146 -0.0941256 130 150 136
0.0861774 0.0288402 -0.0949899 133 149 129
0.0823008 0.036928 -0.101881 118 104 88
0.0787438 0.0327795 -0.0974852 111 94 83
0.0791308 0.0281532 -0.103021 195 78 74
0.0811383 0.0332515 -0.0985689 117 93 81
0.0780372 0.0269228 -0.104832 170 94 86
0.0800915 0.0278845 -0.103366 230 93 86
0.0841237 0.0216436 -0.0959548 160 169 147
0.0695543 0.0170389 -0.0854705 137 49 47
0.08378 0.0326587 -0.0773974 187 116 100
0.0700967 0.0223542 -0.0818887 112 80 69
0.0813659 0.0355393 -0.0934478 164 107 102
0.0767428 0.0298964 -0.0913572 255 255 255
0.0845929 0.0323643 -0.103368 255 140 114
0.0811805 0.0278201 -0.0963341 182 88 81
0.081224 0.0335595 -0.0983123 148 76 72
0.0836027 0.0320247 -0.0914256 162 159 145
0.0705727 0.022488 -0.0814951 78 50 43
0.0787815 0.0305745 -0.103469 253 70 63
0.0822682 0.0356557 -0.0969544 216 94 76
0.0785179 0.031638 -0.102892 223 65 60
0.0805882 0.0262395 -0.098126 242 82 71
0.0833676 0.0203026 -0.0922703 166 129 108
0.0796214 0.03006 -0.0962799 72 95 82
0.0854594 0.0245328 -0.0947818 141 150 138
0.0825904 0.0259259 -0.0917261 158 150 134
0.0800721 0.0156128 -0.093859 222 132 125
0.0799656 0.0257654 -0.0902586 148 83 77
0.0814143 0.0320438 -0.0893197 158 0 0
0.0832301 0.0252565 -0.104885 255 158 136
0.082008 0.0240943 -0.0906397 217 70 55
0.0818191 0.0274505 -0.0927348 165 171 153
0.0819271 0.0257586 -0.0908746 158 43 34
0.0707441 0.0219594 -0.0804685 255 255 255
0.080098 0.0301037 -0.0920784 229 255 255
0.0848224 0.0272181 -0.0935564 154 116 99
0.0790744 0.0304785 -0.0893321 169 70 59
0.0723972 0.0348392 -0.0774148 144 99 75
0.0841707 0.028493 -0.0955421 156 243 226
0.0781147 0.0310754 -0.0894005 170 255 255
0.0820971 0.0306137 -0.0916736 162 109 96
0.0703662 0.0179555 -0.0843197 79 0 0
0.0826813 0.0274013 -0.088667 135 35 29
0.0843327 0.0303144 -0.103529 255 96 64
0.0698279 0.0214961 -0.0801908 244 244 240
0.0803151 0.0302994 -0.0983709 162 67 60
0.0782444 0.0325467 -0.0880256 158 255 255
0.0829903 0.025282 -0.0906148 178 133 124
0.0828389 0.0331163 -0.0963152 255 131 101
0.0805554 0.0346555 -0.0928145 164 102 94
0.0727545 0.0152054 -0.0849672 195 119 106
0.0776156 0.0308565 -0.0903989 158 185 177
0.0693279 0.0147364 -0.0845452 210 255 255
0.0828453 0.0276294 -0.100934 159 58 30
0.0705646 0.0218457 -0.0810517 255 255 255
0.0838206 0.03142 -0.0999615 245 56 44
0.0845853 0.0265754 -0.0928723 127 164 154
0.0825173 0.0275071 -0.0930354 164 184 168
0.0848128 0.0281931 -0.0910545 196 255 228
0.0851571 0.0257604 -0.0919535 181 176 137
0.082157 0.0328843 -0.0974851 174 44 14
0.081573 0.0271916 -0.101603 94 28 25
0.0795864 0.0241176 -0.103816 210 95 87
0.0822175 0.0336956 -0.0968608 206 78 72
0.0843887 0.0291358 -0.106255 178 84 75
0.0699975 0.0144797 -0.0855554 219 255 255
0.0788131 0.0345643 -0.100931 191 32 27
0.0827808 0.0328321 -0.0894053 142 183 184
0.0817095 0.0189302 -0.0989434 173 32 29
0.0704771 0.0223274 -0.0813121 125 88 76
0.076271 0.0357087 -0.0965178 195 66 54
0.0794358 0.0302678 -0.10319 255 62 53
0.0852518 0.0213204 -0.0937843 140 148 145
0.0857039 0.026645 -0.0966558 85 211 180
0.0843305 0.033838 -0.0973774 165 255 255
0.0789852 0.0220147 -0.103353 229 95 89
0.0820827 0.0245699 -0.103429 243 255 251
0.080691 0.0359989 -0.0924948 166 193 183
0.0826977 0.0312954 -0.0794668 119 13 0
0.0824184 0.0295598 -0.107356 255 255 255
0.0849101 0.0273195 -0.0997648 191 255 240
0.0832928 0.0255764 -0.0945365 135 74 65
0.0807465 0.0296137 -0.101508 241 71 64
0.0832178 0.0264991 -0.10331 236 239 220
0.0769587 0.0364212 -0.0942518 162 59 45
0.0771986 0.032887 -0.102264 194 44 39
0.0788068 0.0324402 -0.103094 231 68 60
