ply
format ascii 1.0
comment Created by Open3D
element vertex 1559
property double x
property double y
property double z
end_header
0.0647597 0.0466546 -0.0631242
0.0560397 0.0584121 -0.0713235
0.0555325 0.0577445 -0.0691273
0.0605067 0.0617957 -0.0671922
0.0654946 0.0584252 -0.0633063
0.066879 0.0517246 -0.0623716
0.0665938 0.0485382 -0.062052
0.0659501 0.0456968 -0.0618032
0.0640004 0.0394671 -0.0635581
0.0543265 0.0586477 -0.0709451
0.0604226 0.0626196 -0.0653464
0.0653657 0.0592865 -0.0651393
0.0664943 0.0583751 -0.0655262
0.0659423 0.0496041 -0.0651982
0.0645736 0.0429468 -0.0631112
0.0643191 0.0410065 -0.0654897
0.054573 0.0578173 -0.0712012
0.056417 0.057943 -0.0702909
0.0662861 0.0648711 -0.0606166
0.0640955 0.0610075 -0.0645488
0.067967 0.0555771 -0.0619939
0.0674162 0.0599173 -0.0615865
0.0634316 0.0446526 -0.0651939
0.0591387 0.0572753 -0.0676036
0.0640943 0.0573854 -0.0653164
0.0637185 0.039235 -0.0631513
0.0539173 0.0593993 -0.0682132
0.0583456 0.0564664 -0.0681042
0.0645635 0.0597502 -0.0645785
0.0673563 0.0556991 -0.0623427
0.0663544 0.0576501 -0.0637896
0.0679298 0.0570241 -0.0637692
0.0657097 0.0519728 -0.0638168
0.0549793 0.0583271 -0.0718689
0.0607547 0.0586557 -0.0671185
0.0603973 0.0608707 -0.0683939
0.0611562 0.0626562 -0.0652317
0.0662418 0.057799 -0.0684332
0.0630705 0.0604289 -0.066824
0.0617349 0.0625491 -0.0676738
0.0678139 0.0607205 -0.0601632
0.0705264 0.0590553 -0.058634
0.0659383 0.0463973 -0.0641516
0.0531771 0.0596705 -0.0688453
0.0565663 0.0575651 -0.0699363
0.0642794 0.0604291 -0.064542
0.0670114 0.055899 -0.0638957
0.0681483 0.0565009 -0.0604039
0.0641929 0.0421437 -0.063594
0.053428 0.0595045 -0.0689205
0.0534836 0.0596316 -0.0688556
0.0627666 0.0603746 -0.0668613
0.0678104 0.0609344 -0.0533411
0.0642455 0.0405813 -0.0643081
0.0537362 0.0588562 -0.0696224
0.0574746 0.0575991 -0.0682036
0.0636803 0.0421269 -0.06316
0.0606954 0.0639121 -0.0657648
0.0674355 0.0604399 -0.0601755
0.0663262 0.0575928 -0.0640355
0.0529304 0.0597876 -0.0687892
0.0658644 0.0565531 -0.0644148
0.0551614 0.0585156 -0.0687887
0.0596501 0.059277 -0.0694145
0.0636842 0.0578662 -0.0664592
0.0659936 0.0573261 -0.0630648
0.0661783 0.0564603 -0.06316
0.0638191 0.0412455 -0.0637064
0.0636636 0.0420948 -0.0640089
0.0631187 0.0584102 -0.0659619
0.0598754 0.0594713 -0.0681283
0.0640584 0.0569799 -0.066904
0.0643113 0.0599809 -0.0654902
0.0655663 0.0617658 -0.0626667
0.0418776 0.0626965 -0.00976152
0.0419203 0.066949 -0.0168971
0.0585715 0.0499124 -0.00481713
0.0378541 0.0626764 -0.0108544
0.0508014 0.0598455 -0.00390398
0.0368773 0.051925 -0.0548403
0.040145 0.0541996 -0.00764003
0.0552327 0.0510564 -0.00458282
0.0503742 0.0624602 0.000699773
0.0530854 0.0548896 -0.00390839
0.0346251 0.0518976 -0.0534338
0.0605076 0.0418821 -0.0134539
0.0332031 0.0584216 -0.0152652
0.0505849 0.0655771 0.00603599
0.0482267 0.0624659 -0.00554749
0.0472824 0.0573362 -0.00595064
0.057112 0.048067 -0.00533698
0.0558662 0.0593454 -0.00301016
0.0357007 0.0722625 -0.0324077
0.0354899 0.064174 -0.0268728
0.0485718 0.0528409 -0.00502708
0.0442258 0.0637308 -0.00869917
0.038737 0.0730051 -0.0285452
0.0358904 0.0699529 -0.0299027
0.0350974 0.0625728 -0.0455783
0.0541948 0.0750302 0.00244943
0.0585053 0.0587972 -0.00223747
0.0340005 0.0662719 -0.039918
0.036314 0.06905 -0.0420509
0.0597414 0.0634084 -0.00695543
0.0352571 0.0627068 -0.0443332
0.0356666 0.0653292 -0.0433156
0.0480288 0.0748864 -0.0133667
0.0599579 0.0732853 -0.00352317
0.0488268 0.0745564 -0.0090295
0.0513602 0.072574 -0.0107194
0.0500777 0.07846 -0.0187751
0.0362801 0.0670073 -0.0509607
0.0485866 0.0769332 -0.0150239
0.0493843 0.0747606 -0.0139494
0.0347019 0.0660257 -0.0511573
0.0432294 0.0783876 -0.0190431
0.0358521 0.0724614 -0.0405725
0.0494739 0.0720213 -0.0112024
0.037244 0.0679645 -0.0457071
0.0380354 0.0701463 -0.0466992
0.0351209 0.067172 -0.0501904
0.0496661 0.0789029 -0.0203794
0.0374274 0.0819978 -0.0314577
0.0615802 0.0695206 -0.012487
0.0369999 0.0724459 -0.0540098
0.0463547 0.0775063 -0.0152818
0.0486903 0.0804424 -0.0196401
0.0670827 0.0717528 0.000353913
0.0574375 0.0688345 -0.00910743
0.0367963 0.0689126 -0.0454541
0.0381571 0.0678509 -0.0477495
0.0350427 0.0698777 -0.0535541
0.0708446 0.068017 -0.00263051
0.0722548 0.0664126 -0.0148664
0.0428223 0.0861624 -0.0380539
0.066121 0.065824 -0.0140804
0.0464754 0.0814861 -0.0377038
0.0696487 0.0584974 -0.0128405
0.0628505 0.0802567 -0.00946825
0.0651537 0.0695034 -0.0164082
0.0632302 0.0617235 -0.00791937
0.0699843 0.0595581 -0.0138115
0.0371104 0.0672697 -0.0513251
0.0348423 0.0681022 -0.0527419
0.0525446 0.08338 -0.0263145
0.038988 0.081708 -0.0419287
0.0450434 0.0802157 -0.0407713
0.0467298 0.0809386 -0.0361594
0.0668145 0.0795806 -0.00923876
0.0453333 0.0812338 -0.0354287
0.0484468 0.0808517 -0.0453506
0.0668557 0.0728888 -0.0196845
0.0460836 0.0728757 -0.0548424
0.0465927 0.0873121 -0.0350539
0.0469057 0.0819761 -0.0370896
0.0748993 0.0554806 -0.0260402
0.0397362 0.0709172 -0.0548019
0.0644809 0.084675 -0.0238105
0.0656164 0.0814586 -0.0244261
0.0710484 0.0791698 -0.0280273
0.0421758 0.0712965 -0.0581221
0.0760108 0.0792232 -0.0296674
0.0670786 0.0841164 -0.031781
0.0654578 0.0802516 -0.0243675
0.075944 0.0545442 -0.0194153
0.0747106 0.0542992 -0.0294395
0.0495254 0.0830928 -0.0350785
0.0780289 0.0632551 -0.0184862
0.0757722 0.0564982 -0.0168798
0.0615417 0.0819642 -0.0407323
0.0553704 0.079247 -0.0379046
0.0543072 0.0818446 -0.0360447
0.0418949 0.0700765 -0.0566667
0.0487355 0.0772538 -0.052964
0.0432489 0.0720971 -0.0575373
0.0493836 0.0737119 -0.053841
0.0771238 0.0624747 -0.0433836
0.0785282 0.0512016 -0.0468006
0.0814498 0.070742 -0.0318435
0.0426473 0.0748908 -0.0561695
0.0473967 0.0738824 -0.0614176
0.0479203 0.0820495 -0.0523633
0.0687307 0.057408 -0.0512812
0.0443319 0.0683267 -0.060837
0.0696011 0.0489492 -0.0445558
0.0448452 0.0744736 -0.05821
0.0512247 0.0738411 -0.0608855
0.0695541 0.0403072 -0.0498725
0.0444742 0.0722537 -0.0571985
0.0486877 0.0751671 -0.0519958
0.0710276 0.0494643 -0.0502661
0.0476796 0.0706725 -0.0623916
0.0778763 0.068102 -0.0267157
0.0721637 0.0457489 -0.0527029
0.0482487 0.0754021 -0.0538265
0.0519257 0.0778498 -0.0568937
0.0491748 0.0730732 -0.0598424
0.0477808 0.0746161 -0.051469
0.0697223 0.0535572 -0.0488787
0.0452034 0.0693077 -0.0634588
0.0475687 0.070783 -0.0593154
0.0711239 0.0512431 -0.0476535
0.0482741 0.072787 -0.0588891
0.05104 0.0726402 -0.0592647
0.047621 0.0751257 -0.0601477
0.0692599 0.0466895 -0.0514146
0.0690324 0.0395847 -0.0523797
0.0460054 0.070452 -0.0603633
0.0509307 0.0801792 -0.0556759
0.0530992 0.0763858 -0.0606646
0.0468797 0.0743055 -0.06053
0.0482694 0.0740956 -0.0629656
0.0477713 0.0749578 -0.0606477
0.0557527 0.0764831 -0.0585864
0.0641969 0.081548 -0.0501454
0.0712101 0.0496148 -0.046499
0.0687234 0.0431822 -0.0500784
0.0489425 0.0740024 -0.0542302
0.0569029 0.0773859 -0.0527877
0.070501 0.0473225 -0.0507174
0.0516992 0.0720806 -0.0585942
0.0719282 0.0416057 -0.0470006
0.0708929 0.0492762 -0.0499886
0.0716062 0.052079 -0.0472948
0.0725203 0.0517592 -0.0562831
0.0480953 0.0675737 -0.0637523
0.047803 0.0674938 -0.0638621
0.0483437 0.0714679 -0.0627895
0.0512424 0.0734646 -0.0629903
0.0655689 0.0805513 -0.0551286
0.0471404 0.0726613 -0.0603108
0.0712687 0.0484036 -0.0535011
0.0493117 0.0743576 -0.0565958
0.0740503 0.0478072 -0.0508597
0.0536951 0.0783272 -0.0574594
0.0643684 0.0741583 -0.0562648
0.0705163 0.04188 -0.0494885
0.0469825 0.0671687 -0.0632953
0.052254 0.0699423 -0.061614
0.0468137 0.0743676 -0.0570228
0.0699835 0.0439817 -0.0526837
0.0700952 0.0455537 -0.0555713
0.0674764 0.0397429 -0.0535395
0.0694437 0.0514667 -0.0485495
0.0704013 0.0495481 -0.0526477
0.0512509 0.0730491 -0.0611249
0.0586 0.0756923 -0.053537
0.0676887 0.0570206 -0.0507107
0.0696076 0.0461303 -0.0472836
0.070626 0.0489469 -0.0513407
0.0759776 0.0699325 -0.0566047
0.0745488 0.0501313 -0.0508807
0.0687444 0.0582895 -0.0520693
0.0698186 0.0493797 -0.048615
0.0690612 0.0465914 -0.0574031
0.0718139 0.0492578 -0.0496621
0.0655379 0.0692892 -0.0593823
0.0577828 0.0743611 -0.0580575
0.049718 0.0686156 -0.0680336
0.0685388 0.0450225 -0.0500464
0.0699276 0.0502833 -0.0511232
0.0494068 0.0682019 -0.0661364
0.0670978 0.0396268 -0.0537583
0.0484438 0.0686988 -0.0670001
0.0578633 0.0712918 -0.0589986
0.0647786 0.0662953 -0.0592927
0.0665113 0.0660244 -0.0543873
0.0681628 0.0641969 -0.0565224
0.0678083 0.062926 -0.0541618
0.0708189 0.048994 -0.0533439
0.0535206 0.0705074 -0.061771
0.0685811 0.0395768 -0.0535918
0.0491385 0.0682423 -0.0666175
0.0525282 0.0698923 -0.0640186
0.070923 0.0546254 -0.0503027
0.0644815 0.0743755 -0.0523522
0.0649689 0.0679456 -0.0543793
0.0698408 0.0568738 -0.0559595
0.0679378 0.0643551 -0.0579965
0.0709055 0.0514264 -0.0520643
0.0684121 0.0424619 -0.0532669
0.0714712 0.0511278 -0.0515788
0.0713667 0.0462349 -0.0528174
0.0653293 0.0658794 -0.055388
0.065265 0.0679665 -0.0561077
0.0502438 0.0634718 -0.0706204
0.0720013 0.0484325 -0.0506748
0.0691992 0.0619539 -0.0594131
0.0689033 0.0433537 -0.0588757
0.0679332 0.0630343 -0.0560005
0.0567034 0.0750241 -0.0637236
0.0568179 0.0683814 -0.0633627
0.0698239 0.0514905 -0.0544706
0.0694892 0.0501558 -0.053296
0.0508481 0.0678347 -0.0634428
0.0662796 0.0642643 -0.0667159
0.0473287 0.0672213 -0.0642576
0.0503098 0.0663763 -0.065467
0.0576801 0.0629922 -0.0657122
0.0695983 0.0584523 -0.0573142
0.0703837 0.0549313 -0.0607653
0.0543292 0.0732167 -0.0623824
0.068754 0.0441544 -0.0558253
0.0634115 0.0382991 -0.0664183
0.0573777 0.0666288 -0.0643374
0.0663864 0.0634586 -0.0530968
0.0713138 0.0560077 -0.0542165
0.0698563 0.0580217 -0.0566235
0.0712376 0.0561505 -0.0555526
0.0713305 0.0517072 -0.0587214
0.0673765 0.0404387 -0.0562928
0.0689706 0.0506413 -0.058319
0.0638726 0.0407079 -0.0636041
0.0621258 0.0620287 -0.0641676
0.0542628 0.0596459 -0.0736368
0.0532101 0.0600918 -0.072055
0.0653273 0.0640473 -0.0630102
0.0642426 0.0643419 -0.061433
0.064496 0.0637287 -0.0641886
0.0669301 0.0621232 -0.0641492
0.0525247 0.0604601 -0.0699825
0.0659856 0.0638765 -0.0618341
0.0649352 0.0641065 -0.0616734
0.0629493 0.0645908 -0.0667658
0.0688711 0.0595255 -0.0567644
0.0671472 0.0452626 -0.0596578
0.0671822 0.0447982 -0.0590746
0.068331 0.0611423 -0.06041
0.0697854 0.0573769 -0.0560276
0.0686478 0.0613882 -0.059019
0.0533465 0.0598726 -0.0687344
0.0671424 0.063603 -0.05896
0.0666669 0.0454553 -0.0641197
0.0553838 0.0596978 -0.0710289
0.0531554 0.060192 -0.0714077
0.067302 0.0623807 -0.0583197
0.0665631 0.0469156 -0.0632657
0.0520494 0.0594316 -0.0692431
0.0652611 0.067297 -0.0561736
0.0684476 0.0605917 -0.0588552
0.0629945 0.0650067 -0.0674463
0.0573934 0.0673577 -0.0654247
0.0640892 0.0635687 -0.0660014
0.063214 0.0631967 -0.0661089
0.0552504 0.0591601 -0.0702511
0.0664659 0.0648902 -0.0664133
0.0644163 0.0390034 -0.0604035
0.0647304 0.0460096 -0.0639874
0.0651998 0.0420494 -0.0628431
0.0541334 0.0593546 -0.0696918
0.0549587 0.0578364 -0.0713432
0.0545631 0.061757 -0.0674704
0.060438 0.0625804 -0.0684816
0.0530815 0.059676 -0.0719928
0.0578425 0.060333 -0.0726495
0.0565448 0.0670557 -0.0642166
0.0597951 0.0624979 -0.0687706
0.0621183 0.0624304 -0.0671889
0.064067 0.0383531 -0.0619405
0.0626328 0.0398728 -0.0642371
0.0568223 0.0592753 -0.0677401
0.068473 0.0501762 -0.062819
0.0563133 0.0591318 -0.0726554
0.0536692 0.058956 -0.068432
0.0653066 0.0537577 -0.0646448
0.0635101 0.0662182 -0.0619007
0.063743 0.0440398 -0.0641448
0.0549588 0.0589406 -0.0675451
0.0624803 0.0607949 -0.067375
0.0635563 0.038794 -0.0624517
0.0624007 0.0620143 -0.0665798
0.0656012 0.0582376 -0.0628743
0.0676787 0.0526038 -0.062347
0.0647024 0.0651748 -0.0615986
0.06409 0.0604809 -0.0647929
0.0673902 0.0595077 -0.0609982
0.0663404 0.0533065 -0.0629589
0.0625096 0.0590945 -0.0694767
0.063192 0.0610571 -0.066761
0.0646762 0.0585842 -0.065443
0.0653984 0.0526479 -0.0641601
0.059019 0.0610157 -0.0701829
0.0637467 0.0404479 -0.065492
0.0527454 0.0587037 -0.0701101
0.0672484 0.0562765 -0.0626088
0.0550941 0.0581718 -0.0684005
0.0643588 0.0567806 -0.0647426
0.0648843 0.0606699 -0.0639153
0.0631048 0.0396689 -0.062278
0.0626003 0.0580321 -0.0673964
0.0659888 0.0578014 -0.066629
0.0663282 0.0583212 -0.0653145
0.0332714 0.0530244 -0.0564703
0.0323269 0.0502122 -0.0560949
0.0347617 0.050121 -0.0489613
0.0691454 0.0598896 -0.0141195
0.067207 0.0482215 -0.0170415
0.0377677 0.0706464 -0.0514671
0.036462 0.0701832 -0.0511713
0.0696019 0.0512464 -0.045376
0.0693086 0.0392167 -0.0495107
0.0699064 0.0456575 -0.0476623
0.0534186 0.0765556 -0.0585085
0.0522236 0.0775008 -0.0554728
0.0683639 0.0380217 -0.0555671
0.0695798 0.04638 -0.048935
0.0656765 0.0394433 -0.0555785
0.0496501 0.0683732 -0.0632904
0.0503969 0.0669207 -0.0652988
0.0580076 0.0726921 -0.0637017
0.0676833 0.0392952 -0.0543497
0.0662939 0.0639377 -0.0530208
0.0642163 0.0689001 -0.0532781
0.0715243 0.055369 -0.0568688
0.0694914 0.0579614 -0.0516655
0.0690861 0.0447347 -0.0548183
0.0689703 0.0435024 -0.0528629
0.0693983 0.0497569 -0.0566609
0.0686427 0.0498149 -0.0636372
0.0664897 0.0388122 -0.0563725
0.0697485 0.0560087 -0.0506121
0.0629932 0.0393799 -0.0615173
0.0686363 0.059267 -0.0518932
0.0698501 0.0482119 -0.0483701
0.0499935 0.0623025 -0.0684552
0.0644026 0.0404966 -0.0621771
0.0660237 0.0441704 -0.0598176
0.0689619 0.0469596 -0.0580349
0.0680626 0.04285 -0.0606843
0.0515814 0.0621746 -0.0677142
0.0678706 0.0451105 -0.0571341
0.0677729 0.0608927 -0.0530364
0.0680845 0.0452376 -0.0563465
0.0695327 0.0491261 -0.059072
0.065412 0.0431341 -0.069529
0.0549482 0.0644069 -0.0676491
0.0694562 0.0597139 -0.0531276
0.0529613 0.0587908 -0.0712604
0.0689118 0.0445399 -0.0589118
0.0651756 0.032366 -0.0663995
0.065409 0.0635273 -0.0591776
0.0683627 0.0602037 -0.0582861
0.0524203 0.0602867 -0.0702194
0.0661739 0.0644 -0.0600232
0.0637506 0.0380937 -0.0641374
0.0640383 0.040363 -0.0618664
0.052597 0.0591938 -0.0715281
0.0674122 0.0457479 -0.0583601
0.0646693 0.0406609 -0.0609584
0.0694774 0.0588391 -0.0580678
0.0549436 0.0613782 -0.0687475
0.0641815 0.0397631 -0.0651242
0.0526333 0.059888 -0.0703005
0.0693082 0.0583023 -0.0588348
0.0658526 0.0400236 -0.0591292
0.0633699 0.0391177 -0.0620047
0.0634699 0.0405984 -0.063735
0.0641737 0.0385073 -0.0608694
0.0634633 0.0383365 -0.0615003
0.0538446 0.0595049 -0.0710291
0.0634377 0.0406848 -0.0638134
0.064065 0.0406184 -0.0641301
0.0642375 0.0411672 -0.0649744
0.0631943 0.0387513 -0.0619073
0.0635075 0.0391489 -0.0617641
0.0528036 0.0595924 -0.068736
0.0544381 0.0588548 -0.0703473
0.0656021 0.0454866 -0.0646487
0.0532192 0.0589318 -0.0698043
0.0539868 0.0576506 -0.068906
0.0636701 0.0379208 -0.0650697
0.054186 0.0584304 -0.0690869
0.0551621 0.0580206 -0.0705273
0.0598467 0.0599864 -0.0682735
0.0539388 0.0588345 -0.0709325
0.0575799 0.0606986 -0.0679789
0.0651544 0.0406017 -0.0602984
0.053472 0.060437 -0.0680568
0.0634232 0.0590477 -0.0657547
0.0635456 0.0384406 -0.0633214
0.0649527 0.0414259 -0.0614749
0.0631805 0.0382522 -0.0638019
0.0555222 0.058631 -0.0714943
0.0630823 0.0384566 -0.0634324
0.0544716 0.0578448 -0.07083
0.0644942 0.0401967 -0.06482
0.0546965 0.0598903 -0.068657
0.0655846 0.0497192 -0.0637707
0.0526131 0.0603063 -0.0680613
0.0664131 0.0560445 -0.062736
0.0674162 0.0505915 -0.061643
0.0633744 0.038509 -0.0649085
0.0638484 0.0403479 -0.0651267
0.0638206 0.0414795 -0.0637753
0.0537075 0.0592319 -0.0683986
0.0633137 0.0399743 -0.0624836
0.0569442 0.055838 -0.0705893
0.065786 0.0594724 -0.0635784
0.0637577 0.0390356 -0.061746
0.067092 0.0590455 -0.0638098
0.053473 0.0569552 -0.0709574
0.0524713 0.0598449 -0.0688038
0.0633814 0.0607288 -0.0673098
0.064192 0.0392615 -0.0614568
0.0572151 0.0569107 -0.0686427
0.063446 0.0405454 -0.0632763
0.0559009 0.0589301 -0.0709202
0.0651915 0.0503517 -0.0640578
0.0657034 0.0557113 -0.0643893
0.0666743 0.0546938 -0.0645848
0.0649766 0.0455921 -0.0651107
0.0658065 0.0485876 -0.063153
0.0527666 0.0593716 -0.0695732
0.0637935 0.0414309 -0.0626341
0.0623568 0.044692 -0.0673778
0.0635147 0.0415672 -0.0653779
0.0634013 0.0405258 -0.0627209
0.0358209 0.0662075 -0.0207288
0.0679512 0.0472855 -0.0176344
0.0694656 0.0395982 -0.0546198
0.0541134 0.0762877 -0.0603116
0.0702257 0.0414118 -0.0516419
0.0676483 0.0443838 -0.055853
0.0710367 0.0484085 -0.0533137
0.0707066 0.0506979 -0.0557846
0.0676223 0.0449122 -0.0582214
0.0687087 0.0488341 -0.0570986
0.0676374 0.0451374 -0.0586037
0.0673764 0.0469825 -0.0590858
0.0700942 0.0509577 -0.0534477
0.0701209 0.049275 -0.0530396
0.0695363 0.0471194 -0.0539929
0.0701236 0.047807 -0.0556346
0.0706113 0.0567983 -0.0552648
0.0646788 0.0661606 -0.0587981
0.0658138 0.0641425 -0.0648049
0.0519674 0.0613773 -0.067589
0.0641329 0.0435961 -0.0637442
0.0674665 0.063189 -0.0564352
0.0666937 0.0429119 -0.0595855
0.0508288 0.0600903 -0.0687124
0.0683417 0.0597978 -0.0640547
0.0645091 0.0426753 -0.0634872
0.0531673 0.058553 -0.0702207
0.0647139 0.0314757 -0.066908
0.070745 0.0507164 -0.0543014
0.0635156 0.0410263 -0.0637856
0.0547686 0.0597033 -0.0705006
0.054597 0.0604138 -0.0692265
0.0566951 0.0585802 -0.0715503
0.0637993 0.0386252 -0.0612596
0.055747 0.0586281 -0.070267
0.063724 0.0462592 -0.0651556
0.06324 0.0616052 -0.0664018
0.0642927 0.0404028 -0.0648225
0.0657874 0.057261 -0.0648522
0.0644197 0.0418516 -0.0625378
0.0632036 0.0394008 -0.0626413
0.0345917 0.0614732 -0.0411611
0.0312419 0.0681917 -0.048165
0.0463252 0.0609704 -0.00638934
0.0556222 0.0813304 0.00283102
0.039301 0.0664377 -0.0186057
0.0630206 0.0579908 -0.00152326
0.0532442 0.0797168 -0.0215898
0.0353707 0.0647283 -0.0517984
0.0490788 0.0723002 -0.0112945
0.0406974 0.0676401 -0.0477312
0.0632947 0.0678679 -0.016384
0.0450304 0.0829763 -0.0226116
0.0414951 0.0735034 -0.0605681
0.0493705 0.0759806 -0.0522596
0.0425459 0.0700214 -0.0566784
0.0701604 0.0733568 -0.0368124
0.0631494 0.0844733 -0.0313461
0.0664629 0.0765599 -0.0341246
0.0480421 0.0735775 -0.0525504
0.0698411 0.0521277 -0.0474229
0.0687235 0.038819 -0.053639
0.0682068 0.0598827 -0.0519545
0.0717833 0.0507954 -0.0537791
0.0574027 0.0700429 -0.0620582
0.0704703 0.0556694 -0.0508419
0.0479329 0.0683281 -0.0647988
0.0536568 0.0744648 -0.0598329
0.0700501 0.0552014 -0.0505386
0.0598987 0.068548 -0.0638103
0.0503629 0.0700152 -0.0648755
0.0686217 0.0595856 -0.0520634
0.0709455 0.0547994 -0.0525327
0.0503433 0.0683065 -0.0656245
0.0679697 0.0607837 -0.0527905
0.0680204 0.0600226 -0.0515766
0.0680557 0.0609594 -0.0534757
0.0711631 0.0560482 -0.0538833
0.0664234 0.0646303 -0.0559911
0.06732 0.0617183 -0.0525592
0.0666508 0.0641288 -0.0559559
0.0708616 0.0544985 -0.0540499
0.0680958 0.0606278 -0.0539163
0.0694618 0.0569646 -0.0530553
0.0657236 0.0680337 -0.0545456
0.0695823 0.0586301 -0.054058
0.0696312 0.0589758 -0.0533013
0.0565796 0.067691 -0.0647058
0.0649373 0.0671281 -0.0585928
0.0677959 0.059816 -0.0524479
0.0676975 0.0609599 -0.0532945
0.0684547 0.0588815 -0.0516592
0.0690092 0.0597266 -0.0545301
0.0687041 0.0593926 -0.0544883
0.0504313 0.0652445 -0.0653743
0.0694913 0.0622428 -0.0549863
0.0663701 0.0610977 -0.0560447
0.0513664 0.0647993 -0.06642
0.0654534 0.0415086 -0.0641676
0.0675856 0.0654635 -0.0555584
0.0522556 0.0665415 -0.068476
0.0688796 0.059723 -0.053314
0.0705208 0.0498512 -0.0558755
0.0685662 0.0586346 -0.0532973
0.0629615 0.0396842 -0.0660299
0.0631919 0.037943 -0.0656422
0.0680379 0.0463438 -0.059279
0.0649651 0.0405909 -0.0651144
0.0650496 0.0623203 -0.0657909
0.051242 0.0595549 -0.0700087
0.0517722 0.0595364 -0.0702787
0.0690603 0.0412261 -0.0565749
0.0545079 0.059494 -0.070619
0.0532338 0.0590216 -0.0721244
0.0630467 0.0384487 -0.0626985
0.0525617 0.0591796 -0.0712642
0.0640389 0.0382049 -0.0652589
0.0540333 0.0609734 -0.0679644
0.0635451 0.0429189 -0.0641337
0.0526585 0.0599542 -0.0708543
0.0649561 0.0426553 -0.0625328
0.0546705 0.0579743 -0.0688363
0.0622598 0.0627369 -0.0694773
0.0544757 0.0597125 -0.0719602
0.0552761 0.0584264 -0.0708006
0.0521742 0.0599737 -0.0686189
0.0645761 0.0593824 -0.0653252
0.0584943 0.0600529 -0.0695241
0.0535095 0.0594235 -0.0686348
0.0661058 0.0599398 -0.0666905
0.0648546 0.0452633 -0.0648298
0.0532908 0.0589655 -0.0696801
0.0647003 0.0454049 -0.0648461
0.0670037 0.0451925 -0.0616274
0.0569141 0.0575153 -0.0696817
0.0512303 0.0585973 -0.06991
0.0533348 0.0598955 -0.0674814
0.0543279 0.0576403 -0.070326
0.062046 0.0454992 -0.0672766
0.0651086 0.0581603 -0.0648385
0.0679575 0.0442654 -0.0396265
0.0699667 0.048719 -0.0487845
0.0640886 0.0646422 -0.0682717
0.0696775 0.0619125 -0.0606898
0.0684457 0.0617159 -0.0534084
0.050339 0.0656473 -0.0652788
0.0700302 0.0555545 -0.0523652
0.0714111 0.0511492 -0.0506335
0.0704442 0.0520912 -0.0532722
0.0715344 0.050288 -0.0545163
0.069375 0.0498128 -0.059108
0.05388 0.0593125 -0.0696584
0.0650898 0.0432543 -0.0669885
0.0522733 0.0604441 -0.068323
0.0536187 0.0578829 -0.0725946
0.0571451 0.0615644 -0.0701943
0.0643371 0.0442609 -0.0641781
0.070508 0.0506545 -0.048435
0.0705312 0.0568075 -0.0520764
0.0682643 0.0582697 -0.0524386
0.0699983 0.0588627 -0.055579
0.0703136 0.056767 -0.0543324
0.0627456 0.0415967 -0.0633107
0.0639911 0.0384004 -0.0651238
0.0631296 0.0390714 -0.0616456
0.0535247 0.0591006 -0.0681268
0.066316 0.0502309 -0.0628125
0.06778 0.0437745 -0.0629203
0.0650247 0.0452343 -0.0639348
0.0517509 0.0599342 -0.070663
0.0629895 0.0395574 -0.0619827
0.0645259 0.0390771 -0.0604207
0.0670459 0.0483281 -0.0650955
0.0545228 0.0592449 -0.0708596
0.0661005 0.0461878 -0.065673
0.0557321 0.0598019 -0.0684757
0.0630536 0.0402639 -0.0635693
0.0559272 0.0576636 -0.0696799
0.0633755 0.0378836 -0.0633916
0.0526528 0.0595974 -0.0691092
0.0543253 0.0584145 -0.0695684
0.0635476 0.0397882 -0.0640131
0.0635278 0.0426352 -0.063988
0.0634617 0.0415129 -0.0648897
0.0667326 0.040259 -0.0613041
0.063396 0.0377361 -0.0636856
0.0678003 0.0519347 -0.0612465
0.0661938 0.0503093 -0.0684297
0.0533082 0.0575635 -0.0709515
0.0677178 0.0532745 -0.064908
0.0630545 0.0400385 -0.0633392
0.0554636 0.0758574 -0.0548675
0.0653279 0.040231 -0.0656882
0.0711476 0.0466368 -0.0579276
0.0667132 0.0395063 -0.0620851
0.0661911 0.0406515 -0.0647415
0.0525688 0.059805 -0.0689082
0.0514568 0.0595967 -0.0712867
0.0671768 0.0475783 -0.0608483
0.0635493 0.0418992 -0.0640064
0.0633379 0.0428189 -0.064688
0.040048 0.0730418 -0.0286116
0.041237 0.0767003 -0.0589043
0.0691182 0.0460632 -0.0441396
0.0504444 0.0843156 -0.0480662
0.0683767 0.0566727 -0.0502088
0.0457878 0.0696311 -0.0652072
0.0690176 0.0586403 -0.0530516
0.069682 0.0568517 -0.0498108
0.0695127 0.0498938 -0.0472717
0.0542732 0.0594581 -0.07355
0.0694395 0.0590507 -0.0543462
0.0682365 0.0626867 -0.0582544
0.0548058 0.0590337 -0.0740378
0.0525437 0.0597067 -0.0688922
0.0673588 0.0534306 -0.0643454
0.0659048 0.0512109 -0.0615187
0.0632184 0.0396037 -0.0655899
0.0357862 0.0715937 -0.0278209
0.0468277 0.0698874 -0.0679579
0.0666206 0.0641944 -0.0553589
0.0532681 0.0600462 -0.0722186
0.051588 0.0632559 -0.0721575
0.0554986 0.0638518 -0.0716687
0.0634829 0.0405078 -0.0633154
0.0378583 0.0776906 -0.0217572
0.0694032 0.0598565 -0.0541667
0.0688926 0.0401284 -0.0539492
0.0661007 0.0401656 -0.0580478
0.0633478 0.0402656 -0.0631425
0.0652916 0.0394367 -0.0603051
0.0642946 0.0397964 -0.0605355
0.0680279 0.0406072 -0.0618363
0.0652202 0.0425884 -0.0622291
0.0649861 0.040601 -0.0631857
0.065883 0.0443853 -0.0656042
0.0400759 0.0747028 -0.0271263
0.0366284 0.0693687 -0.051404
0.0373403 0.070525 -0.0508295
0.0688809 0.0455463 -0.0415252
0.071069 0.0390451 -0.0429899
0.0698677 0.0507146 -0.0450811
0.0698458 0.0433278 -0.0455151
0.0689025 0.0479905 -0.0437038
0.0692199 0.0513464 -0.04582
0.070409 0.0518892 -0.0485106
0.0689025 0.0547118 -0.0481747
0.0696371 0.0492849 -0.0471558
0.069778 0.0566118 -0.0496526
0.0684074 0.0538842 -0.0478914
0.0698121 0.056077 -0.0499649
0.0698297 0.0571669 -0.0520273
0.070105 0.0537074 -0.0508651
0.0700029 0.0593485 -0.0560035
0.0697326 0.0573705 -0.0539223
0.0695482 0.0616779 -0.0545137
0.0676551 0.0615021 -0.0532527
0.0689517 0.0597681 -0.0529184
0.0673574 0.0617402 -0.0535724
0.0693071 0.0573093 -0.0483808
0.0700867 0.0570194 -0.0532118
0.0686539 0.059549 -0.0539413
0.0691943 0.0609395 -0.0555145
0.0691672 0.0598988 -0.0547321
0.067768 0.0621823 -0.0534708
0.0683175 0.0606647 -0.0548535
0.0698151 0.0617783 -0.0544999
0.0674022 0.0617109 -0.0544201
0.0667344 0.0647021 -0.0559431
0.0685975 0.0598944 -0.0532003
0.0686527 0.0596303 -0.0529339
0.0700459 0.0573729 -0.0545373
0.0677134 0.0607344 -0.0521151
0.0646027 0.0389496 -0.0628809
0.0520723 0.0600878 -0.0699426
0.0632988 0.0390894 -0.0618902
0.0531176 0.0579881 -0.0711955
0.0632563 0.0395102 -0.0644141
0.0529791 0.0598437 -0.0713295
0.06797 0.0408731 -0.0599713
0.0541694 0.0597457 -0.0690618
0.0551525 0.0580203 -0.06952
0.0550614 0.0583155 -0.071936
0.052733 0.0591879 -0.0713931
0.0551613 0.0573581 -0.0715804
0.0541112 0.057954 -0.0708773
0.0556979 0.0586106 -0.0703583
0.0531477 0.0591363 -0.0687472
0.0535793 0.0584724 -0.0699449
0.0678138 0.052736 -0.0601261
0.0542224 0.0579798 -0.0700082
0.0532288 0.0580431 -0.0703028
0.0530841 0.0581463 -0.0704868
0.0381067 0.073204 -0.0278981
0.0678967 0.0432808 -0.0172945
0.066654 0.0644529 -0.0560048
0.0695525 0.0583872 -0.0543377
0.0694491 0.0609099 -0.0539959
0.0538584 0.0622149 -0.0709347
0.068037 0.0657325 -0.00395502
0.0709433 0.0508317 -0.0476275
0.0693927 0.0578316 -0.0516402
0.0558841 0.0585632 -0.0696922
0.0633662 0.039933 -0.0657461
0.0637982 0.0384202 -0.0639166
0.0534416 0.0600832 -0.0679929
0.0633934 0.0379649 -0.0636053
0.0550545 0.0592612 -0.0708781
0.0539199 0.0594349 -0.0693658
0.0539714 0.0591468 -0.0713367
0.0537553 0.0580832 -0.0702236
0.0529598 0.060145 -0.0693558
0.0530101 0.0589134 -0.0699249
0.0567118 0.0741715 -0.059095
0.0552127 0.06128 -0.0680122
0.0535448 0.0599682 -0.0685838
0.0635052 0.0378283 -0.0635506
0.064431 0.0399937 -0.0605324
0.0641506 0.0400337 -0.0657891
0.0375128 0.0738064 -0.0261573
0.0379582 0.0688844 -0.0258504
0.036745 0.0795509 -0.0446374
0.034133 0.0680918 -0.0498077
0.0678792 0.0476673 -0.0196186
0.0713156 0.0677448 -0.0360097
0.0680593 0.055732 -0.0495062
0.0686169 0.0533173 -0.0477666
0.0694677 0.0577482 -0.0516507
0.0700183 0.058045 -0.0541804
0.0679163 0.0536684 -0.0480774
0.0694675 0.0590787 -0.0541702
0.0692734 0.0587227 -0.0516576
0.068242 0.0628645 -0.055139
0.0685497 0.0624046 -0.0565778
0.0689349 0.0602333 -0.0542931
0.0690099 0.0605838 -0.0563128
0.0670249 0.0628061 -0.0562503
0.0673422 0.0633196 -0.0582521
0.0653001 0.0436038 -0.0635975
0.0541285 0.0596807 -0.0708582
0.0538821 0.0593121 -0.0692747
0.0525833 0.057322 -0.0712057
0.0672217 0.0469516 -0.0603862
0.0528422 0.0594278 -0.0691257
0.0379779 0.0720425 -0.0291451
0.0431587 0.0781433 -0.0431165
0.0538141 0.075558 -0.0610015
0.0679482 0.0597769 -0.0537414
0.0557299 0.073863 -0.0578489
0.0668624 0.0644479 -0.0562964
0.0672881 0.0654272 -0.0527829
0.0680339 0.0612468 -0.0540942
0.0568673 0.0587179 -0.0684505
0.0645774 0.0399374 -0.0667069
0.064585 0.0410922 -0.0635684
0.0568316 0.057777 -0.0695653
0.0522407 0.0599013 -0.0702215
0.0549367 0.057904 -0.0699352
0.0526454 0.0586403 -0.070163
0.0546668 0.0619774 -0.0675423
0.0634537 0.0445594 -0.0678462
0.0641526 0.0413301 -0.0667287
0.0773077 0.0643518 -0.0293059
0.0702343 0.0476684 -0.0610153
0.0684558 0.0414317 -0.0403494
0.0718136 0.0500178 -0.0499979
0.0692279 0.0532854 -0.048168
0.0711037 0.0559761 -0.0550347
0.0676457 0.0630149 -0.0562313
0.0636103 0.0447353 -0.064249
0.0710866 0.0508299 -0.0476312
0.0704073 0.0594953 -0.0553729
0.0683983 0.0627141 -0.0560297
0.0623393 0.0745597 -0.0540175
0.0694743 0.0498079 -0.0448782
0.0521863 0.0602546 -0.0704133
0.0645031 0.0442282 -0.00966138
0.0701164 0.0310361 -0.0274874
0.0712423 0.0446105 -0.0244257
0.057904 0.0803787 -0.014927
0.0772918 0.0587073 -0.0240099
0.0688646 0.0464844 -0.0425624
0.0679364 0.0361905 -0.0549151
0.0689817 0.0518818 -0.0461858
0.0682422 0.0401424 -0.0515087
0.0697711 0.0482652 -0.0498695
0.0524342 0.0741893 -0.059564
0.0515007 0.0746774 -0.0622248
0.0559658 0.0747778 -0.0596002
0.0556865 0.0781189 -0.0526725
0.0693818 0.0575612 -0.0526689
0.0697594 0.0565772 -0.0511777
0.0714533 0.0526043 -0.0516008
0.0552626 0.075575 -0.0631953
0.0669379 0.0620835 -0.0533243
0.070042 0.0567448 -0.0498131
0.0678947 0.0622045 -0.0534777
0.0662278 0.06226 -0.0543155
0.0676739 0.0617831 -0.0584464
0.0691836 0.0590024 -0.0544407
0.0705279 0.0585876 -0.0595446
0.0700729 0.0584466 -0.0541147
0.0699923 0.0536466 -0.0623244
0.0686867 0.0604337 -0.0522856
0.0691839 0.0599556 -0.0516361
0.0670676 0.0625959 -0.0528827
0.0703253 0.0549488 -0.0559806
0.0693953 0.0591376 -0.0574028
0.0722199 0.0541616 -0.0575512
0.0687211 0.059924 -0.0584879
0.0645727 0.0395747 -0.065397
0.0693413 0.0599588 -0.0499243
0.061715 0.0429444 -0.0663222
0.0642802 0.0365916 -0.0647641
0.0640044 0.0342854 -0.0659502
0.0539313 0.0601225 -0.0740458
0.0697833 0.058169 -0.0569877
0.0542451 0.0631022 -0.0681339
0.0501987 0.0589558 -0.0691335
0.051941 0.0592853 -0.0707497
0.0520012 0.0608627 -0.0716575
0.0636268 0.0366256 -0.0636621
0.0548461 0.0586875 -0.0695943
0.0503606 0.0609764 -0.0733535
0.0526707 0.0582959 -0.0703043
0.0530568 0.059788 -0.0719516
0.0646985 0.0393953 -0.0644633
0.0522119 0.059437 -0.0716238
0.0643506 0.0453158 -0.0656098
0.0522717 0.0598992 -0.0677488
0.0534978 0.0593751 -0.0680679
0.0496621 0.0585308 -0.0700846
0.0533583 0.0589454 -0.069642
0.0533411 0.0576315 -0.0731154
0.0542888 0.0573654 -0.0726735
0.0513122 0.058842 -0.0718108
0.0544366 0.0577833 -0.0701332
0.0547508 0.0559394 -0.0679877
0.0551593 0.0580875 -0.0707811
0.0553744 0.0584359 -0.0697901
0.0564802 0.0577426 -0.0719605
0.054655 0.0558704 -0.071291
0.0582111 0.0569157 -0.0709105
0.053329 0.0582269 -0.069894
0.0525562 0.0579052 -0.0707709
0.0563759 0.0568518 -0.0726147
0.0573636 0.0541132 -0.0716317
0.0702545 0.0469947 -0.0213524
0.067953 0.0646327 -0.0585211
0.0701839 0.0574126 -0.0547031
0.0705702 0.057198 -0.0540274
0.0524291 0.0605558 -0.0727546
0.0550063 0.0584601 -0.0680527
0.0495128 0.0594213 -0.0697245
0.0515259 0.0587711 -0.0700895
0.0623702 0.0408565 -0.0634141
0.0510461 0.0603388 -0.0723416
0.0542028 0.0590987 -0.0710591
0.0545853 0.058922 -0.0739725
0.0699244 0.0352082 -0.0293432
0.0695021 0.0572492 -0.0562391
0.063833 0.0334966 -0.062241
0.0511411 0.0600159 -0.068375
0.0675436 0.0502184 -0.0692255
0.0520634 0.0596963 -0.069034
0.0528452 0.0601463 -0.0725659
0.051859 0.0606053 -0.0681961
0.0530486 0.0597436 -0.0707912
0.050408 0.0599122 -0.070747
0.0488872 0.0608788 -0.0726637
0.0585712 0.0562866 -0.0728176
0.0529764 0.0588765 -0.0692782
0.0531344 0.0594291 -0.0689865
0.0541715 0.0580811 -0.0698862
0.0539812 0.0581748 -0.0692179
0.0551269 0.0585009 -0.0698281
0.0628316 0.0416892 -0.0683577
0.0535758 0.0573106 -0.0688686
0.0638852 0.0358083 -0.0648906
0.0634426 0.0392971 -0.066045
0.0555421 0.0582207 -0.07032
0.0537864 0.0577318 -0.0710663
0.0632212 0.0428091 -0.0639158
0.0530474 0.0593397 -0.0698407
0.0543716 0.0578274 -0.0685988
0.0640213 0.0400196 -0.0675896
0.0399515 0.0829062 -0.0484638
0.0480588 0.0845744 -0.041794
0.0531256 0.0873271 -0.0359151
0.0775574 0.0627444 -0.0248214
0.0689416 0.0402805 -0.0430133
0.0682473 0.0463088 -0.0419121
0.0477313 0.07258 -0.0592988
0.061667 0.0721707 -0.0620733
0.0520324 0.0758295 -0.0596798
0.0707845 0.0672801 -0.060395
0.0666431 0.0376685 -0.0578443
0.0660177 0.064193 -0.0654936
0.0683336 0.0612042 -0.0528681
0.0682038 0.061821 -0.060595
0.0701018 0.0572412 -0.0560179
0.0697619 0.0596434 -0.0597175
0.0693986 0.0551422 -0.0503694
0.0509718 0.0635423 -0.0680508
0.0711033 0.0591528 -0.0556141
0.0666119 0.0614676 -0.0652884
0.0555496 0.0585053 -0.0713564
0.0666256 0.0510161 -0.064285
0.0538092 0.059819 -0.0715367
0.0529314 0.0587881 -0.0708811
0.0547254 0.0581533 -0.0717145
0.0561118 0.0604374 -0.0681697
0.0559912 0.0547321 -0.0681454
0.0535238 0.0595484 -0.0687721
0.0639549 0.0366956 -0.0650927
0.0669621 0.0444145 -0.0678276
0.0676656 0.0493097 -0.0660544
0.0562873 0.0566824 -0.0712006
0.0669954 0.048954 -0.0706113
0.0703237 0.0555406 -0.0669537
0.0296297 0.0495239 -0.0574361
0.0683984 0.0590276 -0.0525818
0.0670314 0.0392445 -0.0572124
0.0645378 0.0652797 -0.0602747
0.0666109 0.0644463 -0.0562625
0.0701059 0.0598154 -0.0536422
0.0644673 0.0374044 -0.0566645
0.0529864 0.0555253 -0.0682597
0.052973 0.0592105 -0.0696349
0.0784647 0.0400336 -0.0384314
0.0659405 0.0657307 -0.0559368
0.0685606 0.0486685 -0.0570177
0.0655161 0.0387878 -0.0563119
0.0536071 0.0589334 -0.0698347
0.0560288 0.0579377 -0.071721
0.0540157 0.0576406 -0.0694059
0.064104 0.0413469 -0.062415
0.070424 0.0365836 -0.0467119
0.0654427 0.0391143 -0.0600605
0.0682134 0.0458889 -0.0709319
0.062404 0.0449081 -0.0705301
0.0656967 0.0428368 -0.0672284
0.0631247 0.0412785 -0.0692182
0.0703476 0.0477101 -0.0491988
0.0682019 0.0581926 -0.0506245
0.0675189 0.061973 -0.0556918
0.0647939 0.0423675 -0.0660978
0.0664132 0.0501049 -0.0686698
0.0712024 0.0439931 -0.0223866
0.070558 0.048078 -0.0475028
0.0701795 0.0764067 -0.0154003
0.0650481 0.0386896 -0.0573145
0.0671612 0.0386931 -0.0223243
0.0684435 0.0621877 -0.0536077
0.06993 0.0579049 -0.0579112
0.0676056 0.0629461 -0.0563914
0.0690599 0.0485905 -0.0154902
0.0690243 0.0612517 -0.05202
0.0677995 0.0592306 -0.0516014
0.0511766 0.0605973 -0.0689989
0.0492993 0.0610451 -0.0708405
0.063419 0.0375189 -0.0637502
0.0587862 0.0588721 -0.0709668
0.0512461 0.0607936 -0.073364
0.0530697 0.0600431 -0.0738234
0.0529601 0.0590294 -0.0709916
0.0509195 0.0601286 -0.0730523
0.0525722 0.0599262 -0.068815
0.0556666 0.0589186 -0.0694585
0.0542592 0.0594064 -0.0721304
0.058207 0.0585875 -0.0726493
0.0542063 0.0579006 -0.0700125
0.05961 0.055997 -0.0712505
0.0394262 0.0744906 -0.0252331
0.0688385 0.0601916 -0.0557749
0.0542635 0.0606182 -0.0710171
0.0504419 0.0600938 -0.0723826
0.0640686 0.0440807 -0.066334
0.0547047 0.0598488 -0.0715119
0.0669695 0.038182 -0.0607398
0.0645737 0.0350861 -0.0631397
0.0637607 0.0379574 -0.0642866
0.0642454 0.0366036 -0.0635734
0.064547 0.0365289 -0.0636203
0.0496163 0.060913 -0.0711875
0.055424 0.0586565 -0.0690753
0.0520196 0.0598444 -0.0701004
0.0644943 0.0386217 -0.0648472
0.0513528 0.0597649 -0.0724798
0.0643546 0.0444315 -0.0684771
0.0564887 0.0579721 -0.0719279
0.057187 0.0586737 -0.0706804
0.0643867 0.0437386 -0.0677845
0.0639782 0.04405 -0.0676855
0.0504049 0.0602087 -0.072301
0.04974 0.0607796 -0.0724663
0.050126 0.0609769 -0.0728075
0.0638328 0.043758 -0.0673092
0.0644544 0.0389903 -0.0648837
0.0364874 0.0678573 -0.0438163
0.0376021 0.0747983 -0.0261676
0.029733 0.0765553 -0.0395597
0.0377496 0.0730422 -0.0284592
0.0476064 0.0820721 -0.0335594
0.040645 0.0742931 -0.0530932
0.072541 0.0629718 -0.0641631
0.0494255 0.0628753 -0.0694598
0.0688879 0.0609694 -0.0547947
0.067289 0.0615291 -0.0543919
0.058653 0.0631181 -0.0701366
0.0574371 0.0591704 -0.0729397
0.0694155 0.0536108 -0.0645396
0.0555089 0.0591193 -0.0736054
0.0555479 0.0585852 -0.074862
0.053353 0.0601704 -0.0717635
0.0664758 0.0507729 -0.0623442
0.0601518 0.0567273 -0.0708848
0.0680993 0.052994 -0.066636
0.05894 0.0569088 -0.0710364
0.0503578 0.0595043 -0.0729028
0.039598 0.0747639 -0.0249656
0.069276 0.0382808 -0.0498833
0.0453693 0.0734547 -0.0560541
0.0697291 0.0392659 -0.0498253
0.0701122 0.0562878 -0.0523774
0.0690836 0.0523864 -0.0606703
0.0579221 0.0577618 -0.0693977
0.0670877 0.0536353 -0.0669602
0.0640104 0.0377335 -0.0209546
0.0643346 0.0362295 -0.0626892
0.0654112 0.0431339 -0.0695275
0.064612 0.0346058 -0.0650354
0.0557453 0.0598613 -0.0725823
0.0292826 0.0786361 -0.0393458
0.052303 0.0605071 -0.0700869
0.0666176 0.0462693 -0.0672984
0.0676621 0.0446895 -0.040898
0.0529376 0.0591064 -0.0703381
0.0689838 0.0467567 -0.0131139
0.0543218 0.0601273 -0.0707983
0.0651923 0.0395752 -0.0643601
0.0694784 0.0461195 -0.0442109
0.052373 0.0605624 -0.07315
0.0674373 0.0622769 -0.053002
0.0730362 0.0687188 -0.03399
0.0662032 0.0464245 -0.068018
0.0626671 0.0426683 -0.0673341
0.0488925 0.0599943 -0.0712572
0.0645147 0.036384 -0.061612
0.0485213 0.060647 -0.0701793
0.0597928 0.0272556 -0.062712
0.0546697 0.0584247 -0.0749144
0.0638904 0.0427474 -0.0658028
0.065294 0.0348901 -0.0637949
0.0585931 0.0573635 -0.0711639
0.0261775 0.0705906 -0.0547639
0.0413977 0.0750248 -0.0290178
0.0380265 0.0777542 -0.021604
0.0378383 0.0681436 -0.0207823
0.0741057 0.0576094 -0.011993
0.0545107 0.0818137 -0.0215285
0.0564713 0.0831902 -0.0368234
0.071903 0.041905 -0.0456317
0.0676772 0.0710066 -0.0365373
0.0769466 0.0645254 -0.029874
0.0697489 0.0540856 -0.0503202
0.0501126 0.0756056 -0.0622383
0.0536046 0.0767996 -0.0569445
0.0700978 0.0556527 -0.0526783
0.0694104 0.0584828 -0.0531894
0.0704781 0.0577578 -0.0552312
0.0576254 0.0738083 -0.0558347
0.0687867 0.0604284 -0.0550914
0.064393 0.0360418 -0.0623691
0.0701119 0.0570406 -0.0518644
0.0644296 0.0350027 -0.0649751
0.0660129 0.039135 -0.0667728
0.0490556 0.061828 -0.0706735
0.0506087 0.0610278 -0.0696058
0.049699 0.061781 -0.0712027
0.0538397 0.0605067 -0.0710695
0.0539832 0.0606313 -0.0717459
0.0705099 0.0613776 -0.064131
0.0492568 0.06115 -0.0710199
0.0531205 0.0606012 -0.0683734
0.0508991 0.061058 -0.0713419
0.0503371 0.060615 -0.0722016
0.0645061 0.036423 -0.063612
0.0485276 0.0599313 -0.0697202
0.0560633 0.0597892 -0.0725408
0.0566084 0.0593503 -0.0712781
0.0501124 0.0607207 -0.0725004
0.0534919 0.0601548 -0.067832
0.0494158 0.0597259 -0.0723403
0.0560548 0.0596003 -0.0729415
0.0649642 0.0419804 -0.0656471
0.0568107 0.0589882 -0.0727191
0.0557053 0.0587559 -0.0710614
0.05453 0.0591167 -0.0708479
0.0559627 0.0595195 -0.0735708
0.0535936 0.0596235 -0.0723001
0.0503568 0.0594745 -0.0739663
0.0584458 0.0584736 -0.0718386
0.0580948 0.0582014 -0.0725696
0.05664 0.0586597 -0.0697098
0.0560211 0.0594157 -0.0734432
0.0590511 0.0570257 -0.0712957
0.0562736 0.0584218 -0.0748597
0.0520517 0.0591539 -0.0740406
0.0392278 0.0731179 -0.0539934
0.0729456 0.0704614 -0.0324563
0.0685693 0.0594008 -0.0589401
0.0642096 0.0360584 -0.0628114
0.0510966 0.0609562 -0.0714324
0.0563072 0.0601888 -0.070692
0.0503118 0.0600154 -0.072577
0.0498214 0.0601277 -0.0719624
0.0648006 0.040708 -0.0651275
0.0536405 0.0600397 -0.0731875
0.0572878 0.0587455 -0.0737585
0.0591961 0.0373094 -0.0156913
0.0657008 0.0687335 -0.0575712
0.0669993 0.0377854 -0.0604
0.0642668 0.0342737 -0.063295
0.0534154 0.0613778 -0.0709011
0.064075 0.0355458 -0.0631233
0.0522642 0.0612898 -0.0727072
0.0646532 0.0362672 -0.0640403
0.0495012 0.0609259 -0.0713392
0.0509682 0.0606608 -0.0692056
0.0535194 0.0603782 -0.0716598
0.0515075 0.0607257 -0.070956
0.0533548 0.0590138 -0.0701601
0.0501984 0.0605397 -0.0711113
0.0642801 0.0386359 -0.064438
0.0541198 0.0601951 -0.0708171
0.051685 0.0598791 -0.0742627
0.0559603 0.0584332 -0.0723407
0.0644141 0.0428206 -0.0674889
0.0565636 0.0581647 -0.0743737
0.0637944 0.0383188 -0.0632748
0.0526912 0.0596598 -0.0733553
0.0636972 0.0370067 -0.0637336
0.0558826 0.0581544 -0.0745368
0.0646724 0.0438495 -0.0680182
0.0639579 0.0440492 -0.0675126
0.0513888 0.0742093 -0.0619621
0.0560542 0.0600966 -0.0717327
0.0502294 0.0601823 -0.072452
0.0493002 0.0609895 -0.0729677
0.0528052 0.0605549 -0.0748382
0.0634325 0.0431867 -0.0660177
0.0643415 0.0438685 -0.0669735
0.0354365 0.0647476 -0.0447701
0.0376049 0.0739784 -0.0258617
0.038944 0.0728105 -0.0284153
0.0407062 0.0771391 -0.0250369
0.0717265 0.0403659 -0.0247694
0.0393147 0.0743779 -0.0561972
0.039475 0.0706727 -0.0562963
0.0736754 0.0682182 -0.0190423
0.0708602 0.043286 -0.0470392
0.0590145 0.0866584 -0.0336048
0.0465467 0.0807111 -0.0523983
0.0696855 0.0566368 -0.0500866
0.0634939 0.0720986 -0.0578918
0.0638012 0.0723186 -0.0560962
0.0692416 0.0569396 -0.0487574
0.0670738 0.0371289 -0.0586195
0.0704018 0.0615482 -0.0543339
0.069012 0.0594829 -0.0500374
0.0679507 0.0540766 -0.0484487
0.0651662 0.0681852 -0.0534086
0.0489551 0.0629742 -0.0695676
0.0688278 0.0594419 -0.0546846
0.0687543 0.0578034 -0.0534128
0.0678989 0.0619129 -0.0534509
0.0702343 0.0530769 -0.0542369
0.0508402 0.061389 -0.0720028
0.0671714 0.0629787 -0.0554344
0.0678924 0.0625183 -0.0591101
0.0573625 0.0593328 -0.0736165
0.0697316 0.0543811 -0.0647796
0.0493851 0.0604189 -0.0729254
0.0512681 0.0608589 -0.0708371
0.0607944 0.0633692 -0.0671671
0.0552875 0.060175 -0.0727784
0.0510348 0.0605873 -0.0752107
0.0692926 0.0536999 -0.0600626
0.0546702 0.0582579 -0.0725062
0.0507392 0.0610588 -0.0732987
0.0490765 0.0592932 -0.0698105
0.0611887 0.0623628 -0.0682175
0.069096 0.0598522 -0.0657453
0.0685436 0.0524657 -0.0664258
0.0602474 0.0568683 -0.0709774
0.060844 0.0568679 -0.0710969
0.0625376 0.0591173 -0.0693468
0.0638268 0.0379121 -0.064327
0.059069 0.0567465 -0.0708371
0.0684313 0.0383429 -0.0242112
0.0688946 0.0386534 -0.0491633
0.0695251 0.0391696 -0.0492055
0.0699342 0.0575524 -0.0565535
0.0531291 0.0730747 -0.0619881
0.0686661 0.0423991 -0.0614351
0.0539791 0.0689909 -0.0668052
0.0519867 0.0612648 -0.0733095
0.0674647 0.0536458 -0.0679349
0.0491549 0.0599285 -0.0727366
0.0391754 0.0763049 -0.024193
0.0657478 0.0641032 -0.0597955
0.0639833 0.0357371 -0.0626678
0.0502375 0.0608372 -0.0732004
0.0523677 0.060216 -0.0707321
0.0546223 0.0597482 -0.074433
0.0543175 0.0588959 -0.0693272
0.052057 0.0603631 -0.0694362
0.0669762 0.0499277 -0.0668036
0.0638108 0.0402524 -0.0629273
0.0686576 0.0362328 -0.0266829
0.0507571 0.0612874 -0.0704858
0.0649334 0.0462147 -0.0648703
0.0655432 0.0468538 -0.0671471
0.064496 0.0402428 -0.0648136
0.0687318 0.0589298 -0.0515241
0.0679501 0.0595077 -0.0532594
0.0704518 0.0587807 -0.0553461
0.0519456 0.0605774 -0.0682507
0.0646803 0.0439988 -0.0159388
0.0515794 0.0606845 -0.0714594
0.0689898 0.0530582 -0.0472751
0.0522171 0.074604 -0.0592592
0.0684105 0.0447762 -0.0396014
0.0682901 0.0631271 -0.0544838
0.0547396 0.0596299 -0.0706265
0.0677908 0.0622591 -0.0548402
0.0690048 0.0371513 -0.0233699
0.0696075 0.0573129 -0.0532523
0.0532169 0.059025 -0.0731234
0.0535597 0.058622 -0.0731872
0.0546977 0.0606948 -0.0709358
0.0500105 0.0600475 -0.074943
0.0554649 0.0592762 -0.0693771
0.0787154 0.0636009 -0.0473584
0.0694921 0.0559451 -0.0505192
0.0678921 0.0626854 -0.0598111
0.0513609 0.0605823 -0.0728394
0.0682278 0.0386457 -0.0243202
0.0767777 0.0580873 -0.0196857
0.0535778 0.0599558 -0.0742557
0.0661631 0.0460401 -0.0681818
0.0528331 0.0612195 -0.0739957
0.0573461 0.0582111 -0.0699319
0.0645316 0.0362175 -0.0617341
0.0523118 0.0598885 -0.0717219
0.0527711 0.0600991 -0.0708585
0.0567171 0.0578887 -0.0737152
0.0653274 0.0428781 -0.0683256
0.0740785 0.05484 -0.0265953
0.0596099 0.055997 -0.0712504
0.0504419 0.0600938 -0.0723826
0.0647744 0.0339995 -0.0635495
0.0643937 0.0357738 -0.0627122
0.0496163 0.060913 -0.0711874
0.0513529 0.0597648 -0.0724797
0.0643546 0.0444315 -0.068477
0.0564886 0.0579721 -0.0719278
0.0643867 0.0437386 -0.0677844
0.0639782 0.04405 -0.0676855
0.0638191 0.0356956 -0.0627263
0.050405 0.0602087 -0.0723009
0.0638328 0.0437579 -0.0673091
0.0601517 0.0567273 -0.0708848
0.0643026 0.0365817 -0.0626832
0.05894 0.0569088 -0.0710364
0.050358 0.0595042 -0.0729027
0.0650533 0.0690834 -0.0565292
0.0532956 0.0794699 -0.0216525
0.063005 0.0346656 -0.0239511
0.0730892 0.0682546 -0.0347221
0.0662031 0.0464244 -0.0680178
0.0488926 0.0599943 -0.0712572
0.0485214 0.060647 -0.0701792
0.0631223 0.0347835 -0.0238191
0.0394933 0.0751297 -0.0241226
0.0700558 0.0489512 -0.0111727
0.0686271 0.0494598 -0.0118944
0.0571805 0.0810451 -0.0206334
0.0737414 0.0669238 -0.019864
0.0548591 0.0826712 -0.0359522
0.0729143 0.0692459 -0.0216067
0.0555988 0.0797952 -0.051752
0.0478351 0.0751876 -0.059592
0.0484062 0.0756623 -0.0607948
0.0707015 0.0542219 -0.0528652
0.0558893 0.079124 -0.053628
0.0724831 0.0417491 -0.0501164
0.0564388 0.0748743 -0.0554249
0.0696714 0.0565514 -0.0512718
0.0697172 0.0586776 -0.054079
0.0712283 0.0536992 -0.0571619
0.0697661 0.0573222 -0.0534662
0.0657567 0.064204 -0.0561926
0.0682418 0.0383084 -0.0610545
0.0695356 0.0580899 -0.0534375
0.0675148 0.0593054 -0.0518403
0.0688028 0.062641 -0.0518046
0.0644278 0.0358295 -0.0626611
0.0691547 0.0592831 -0.0536009
0.0648522 0.0350822 -0.0653088
0.0492268 0.061947 -0.0705254
0.0656982 0.042054 -0.0654346
0.0572737 0.0597841 -0.0699583
0.0512861 0.0610721 -0.0687111
0.0517874 0.0607598 -0.0695941
0.0513938 0.0613177 -0.0718051
0.0701631 0.0621883 -0.0640919
0.0499069 0.0614906 -0.0730744
0.0486358 0.0616938 -0.0721095
0.0518024 0.0605614 -0.0694665
0.0516443 0.0606245 -0.0730459
0.0643325 0.0381656 -0.0638974
0.04984 0.0604277 -0.0720352
0.0557842 0.0604276 -0.0728373
0.0568684 0.0593917 -0.0711457
0.0499808 0.0610441 -0.0729723
0.0549904 0.058716 -0.0697916
0.0559235 0.0596948 -0.0719105
0.0491641 0.060141 -0.0730639
0.0550749 0.0600426 -0.0736102
0.064783 0.0423283 -0.0656052
0.0556122 0.0593973 -0.0734151
0.0558539 0.0589127 -0.0738407
0.0526998 0.0604766 -0.0743832
0.0510475 0.0594937 -0.0719178
0.0521378 0.0597998 -0.0735081
0.0534819 0.058407 -0.070557
0.0544124 0.0596458 -0.0722041
0.0584786 0.0583398 -0.0722095
0.0550457 0.0579534 -0.0720218
0.0565614 0.0583475 -0.0724485
0.0496833 0.0600322 -0.0739237
0.0560273 0.0626234 -0.0680667
0.0594586 0.057095 -0.0719153
0.0546866 0.0585525 -0.0740792
0.0524543 0.0588926 -0.0733503
0.0595876 0.0566197 -0.0714232
0.0634909 0.0437213 -0.0158344
0.0672457 0.0360768 -0.0432999
0.0652784 0.0679822 -0.0563228
0.070321 0.059146 -0.0564087
0.0644735 0.0360524 -0.0625601
0.0496013 0.0616657 -0.0728073
0.0504213 0.0606882 -0.0727196
0.0549773 0.0605015 -0.070503
0.0502062 0.0599724 -0.0726903
0.0540006 0.0599007 -0.0692369
0.0497463 0.0602857 -0.0720901
0.0652779 0.0426393 -0.0665915
0.053379 0.0599918 -0.0726985
0.0579321 0.058759 -0.0732203
0.0726989 0.0551629 -0.057722
0.0666255 0.0388892 -0.0601209
0.0641479 0.0340304 -0.0627799
0.0644219 0.0337878 -0.0629683
0.0533593 0.0611158 -0.0701697
0.064049 0.0351918 -0.0632466
0.0650579 0.0354105 -0.0641897
0.0493929 0.0609207 -0.0714678
0.0549419 0.0604903 -0.0729946
0.0510491 0.0614609 -0.0731231
0.0543309 0.0614569 -0.0660053
0.0554383 0.05929 -0.0707561
0.0549565 0.0595347 -0.0715224
0.0643472 0.0384185 -0.0642782
0.0551193 0.0600737 -0.0719551
0.0546976 0.0583967 -0.070408
0.0585269 0.0593042 -0.0736929
0.0564811 0.0582628 -0.0721608
0.0552147 0.0585014 -0.0720632
0.064501 0.0430332 -0.0676417
0.0573193 0.0574729 -0.0733702
0.0564156 0.0587294 -0.0686
0.0583549 0.0580265 -0.0689241
0.0638526 0.0366747 -0.0636042
0.0587207 0.0576358 -0.0725934
0.050461 0.0588525 -0.0738413
0.0563676 0.0580937 -0.0748192
0.0647581 0.0439244 -0.068009
0.0643246 0.0442229 -0.0680431
0.0532817 0.0757277 -0.060863
0.0631712 0.0346359 -0.0630627
0.056701 0.0599819 -0.0715914
0.0501679 0.0601546 -0.0726134
0.0500308 0.0609182 -0.0728298
0.0556589 0.0586864 -0.0701353
0.0496722 0.061012 -0.0732187
0.0499844 0.0610826 -0.0744232
0.0534761 0.0601258 -0.0734603
0.0636968 0.0434636 -0.0665318
0.0645425 0.0444497 -0.0677938
0.0354197 0.0640134 -0.0434457
0.0304346 0.059782 -0.0203814
0.0340004 0.0579517 -0.0549343
0.0612701 0.0330005 -0.022843
0.0491498 0.0719534 -0.00908607
0.0730632 0.041927 -0.0241041
0.0396151 0.0704717 -0.0561758
0.0566532 0.0750837 -0.0582807
0.069508 0.0576611 -0.0516174
0.056369 0.0742982 -0.0574502
0.0678398 0.0398826 -0.0609837
0.0701483 0.0577133 -0.0515963
0.0694196 0.0581314 -0.0511401
0.0675786 0.0619882 -0.0533993
0.0679114 0.0622352 -0.0534436
0.0490829 0.0629179 -0.0695097
0.0567847 0.0669746 -0.0644631
0.0713956 0.0536315 -0.0544193
0.0524854 0.0609999 -0.071854
0.0697156 0.0606218 -0.0553777
0.0663434 0.0642392 -0.0609284
0.0520685 0.0609901 -0.0732875
0.0577125 0.0592874 -0.0737685
0.0593782 0.0596829 -0.0711956
0.0702446 0.0543622 -0.0652634
0.0552452 0.0603258 -0.0732178
0.0554082 0.0582698 -0.0699711
0.0551729 0.0600551 -0.0718225
0.0522979 0.0598438 -0.0734563
0.0680305 0.053992 -0.0621636
0.0554383 0.0579587 -0.0721718
0.0546132 0.059884 -0.0723498
0.0609299 0.061801 -0.067932
0.0674244 0.060764 -0.0615934
0.0686291 0.0524217 -0.066402
0.0603272 0.0568091 -0.0712072
0.0611364 0.056823 -0.0713721
0.0628385 0.059119 -0.0699716
0.0640557 0.0376035 -0.0645643
0.0698607 0.0568823 -0.0643139
