ply
format ascii 1.0
comment Created by Open3D
element vertex 1557
property double x
property double y
property double z
end_header
0.0762182 0.0463902 -0.0183853
0.0494353 0.0717218 -0.00744313
0.0564187 0.0609671 -0.0229383
0.0610731 0.0552612 -0.0264576
0.0551583 0.0671188 -0.0232885
0.0603301 0.0573034 -0.0290248
0.0602865 0.0566852 -0.0282728
0.0600848 0.0691605 -0.0290824
0.0618846 0.0675432 -0.000670115
0.0625278 0.0552858 -0.0250723
0.0523361 0.0620065 -0.0208772
0.0631055 0.0549034 -0.0265596
0.0609369 0.062416 -0.0210451
0.0502918 0.0584718 -0.0195526
0.0642118 0.0539792 -0.0175205
0.0604348 0.0716983 -0.0284689
0.055466 0.0527932 -0.029336
0.0635145 0.0524606 -0.0314514
0.0530198 0.0641606 -0.0177676
0.0705389 0.0555342 -0.0152735
0.0595173 0.0642471 -0.0271596
0.0623962 0.0547379 -0.0304322
0.0755472 0.0428591 -0.0385716
0.053362 0.0728107 -0.0102106
0.0615037 0.0603587 -0.0281857
0.0585551 0.0650342 -0.0329722
0.0817743 0.0428393 -0.00302166
0.0607875 0.0552921 -0.0274652
0.0539807 0.0694683 -0.0251683
0.0613551 0.0569286 -0.0220332
0.0676817 0.0657483 -0.0164886
0.0532337 0.0685899 -0.0156354
0.0791111 0.0562436 -0.0107476
0.0824755 0.0210426 -0.0234517
0.0624619 0.0619888 -0.0123754
0.0660647 0.0435232 -0.0379731
0.05361 0.0779454 -0.0283522
0.0665959 0.0538679 -0.0266214
0.0642685 0.0531225 -0.0386047
0.0532702 0.0618421 -0.0253409
0.0704879 0.0560021 -0.0342091
0.0595829 0.0677787 -0.0196036
0.0620837 0.0687204 -0.0196519
0.0569128 0.0745619 -0.0193456
0.0568982 0.0659919 -0.022015
0.0896439 0.0595504 -0.000356018
0.0627408 0.05736 -0.0382901
0.0551921 0.0717804 -0.0158232
0.065312 0.0719948 -0.0260691
0.0560024 0.0717169 -0.0234764
0.0636425 0.0745838 -0.0376973
0.062877 0.0820195 -0.0394055
0.0585807 0.0586264 -0.0273126
0.0584477 0.0709213 -0.0236988
0.0576122 0.0670339 -0.0367397
0.0683742 0.0672686 -0.0325915
0.0683047 0.0551871 -0.0332191
0.0652313 0.0647319 -0.0290408
0.0625907 0.0654112 -0.0356711
0.0664201 0.0624076 -0.0329891
0.0484151 0.075321 -0.0494243
0.0592143 0.0599595 -0.0414564
0.0613793 0.0740278 -0.0132067
0.0605043 0.0721082 -0.0190832
0.0667581 0.0633391 -0.0338408
0.0544547 0.0790244 -0.0430591
0.0624821 0.062201 -0.0369081
0.0630373 0.0651962 -0.0347024
0.0607461 0.063241 -0.00458076
0.067764 0.0494735 -0.0491031
0.0658934 0.0635025 -0.0326401
0.0621036 0.063561 -0.0378022
0.0652148 0.0674866 -0.0323225
0.056926 0.0738009 -0.0195372
0.0576424 0.0739757 -0.0276413
0.0622117 0.0627386 -0.0364624
0.0654201 0.0687339 -0.0309192
0.0594021 0.0639025 -0.0383574
0.0675437 0.0647635 -0.0470404
0.0276692 0.0515704 -0.0153006
0.033804 0.0400006 -0.0043984
0.0352285 0.0464469 -0.00656707
0.0570887 0.0256874 -0.0282895
0.0351752 0.0415159 -0.000736127
0.0312349 0.0507962 -0.00972482
0.0201392 0.0498224 -0.0132974
0.0412933 0.0402851 -0.0111173
0.0341681 0.042503 -0.0182252
0.0526012 0.0199766 -0.0207297
0.0407895 0.0429811 -0.00810828
0.0350776 0.0398775 -0.0321256
0.0348113 0.0404035 -0.0154075
0.0392963 0.0570847 -0.0205007
0.0364722 0.0526152 -0.0193509
0.0266555 0.0560892 -0.0192493
0.0361159 0.0465022 -0.00477353
0.0359313 0.0466492 -0.00972512
0.0672447 0.01381 -0.00392472
0.0336257 0.0612316 -0.012276
0.0314079 0.0562794 -0.0220274
0.0610595 0.0184979 -0.0269863
0.0440413 0.0593535 -0.0259185
0.0284067 0.0583834 -0.00957222
0.0420092 0.0493606 -0.0187046
0.0345873 0.0511747 -0.0131092
0.0322699 0.0518917 -0.0189642
0.0501355 0.0454063 -0.0183054
0.0383331 0.0484599 -0.00977127
0.0431373 0.0481833 -0.0164918
0.0386357 0.0618488 -0.0131654
0.0525 0.0308468 -0.0571608
0.0628479 0.0272823 -0.0325485
0.0654416 0.0250511 -0.0276694
0.0660905 0.0225559 -0.0251926
0.0649748 0.0236173 -0.0259989
0.0920696 0.0032762 0.0110053
0.0474055 0.0560478 -0.0188983
0.059973 0.0334576 -0.024863
0.0457098 0.0593296 -0.0130103
0.064401 0.0153687 -0.0306718
0.0774804 0.0418779 -0.0233652
0.0614057 0.0407152 -0.0333338
0.0533082 0.0581651 -0.0239183
0.0707599 0.0307294 -0.00792556
0.0588479 0.0468265 -0.0354367
0.0407277 0.0691158 -0.0289165
0.0477508 0.0582597 -0.0164252
0.072294 0.0382439 -0.0198961
0.0779905 0.0341154 -0.0216651
0.0360617 0.0757315 -0.0339597
0.0673983 0.0439091 -0.0474862
0.0758498 0.0458218 -0.0343333
0.0823759 0.0437453 -0.0104397
0.0660462 0.0521461 -0.0404325
0.0763186 0.0492827 -0.0258931
0.0647684 0.0651005 -0.0101017
0.0664519 0.0509033 -0.0269544
0.0661909 0.0672289 -0.0403729
0.0643552 0.0671137 -0.02162
0.0693209 0.0714309 0.00148815
0.0683783 0.0583036 -0.0416972
0.0644757 0.0711638 -0.0304136
0.0458292 0.0778727 -0.043078
0.0619621 0.0609447 -0.0443751
0.0678057 0.0637671 -0.052916
0.0594195 0.0708721 -0.0412684
0.0519296 0.0776089 -0.0310734
0.0635202 0.0618975 -0.0298977
0.0744896 0.0522815 -0.0474142
0.0643643 0.0817613 -0.0235044
0.0380849 0.0477564 -0.016457
0.0371458 0.0499478 -0.0155826
0.0226092 0.0416717 -0.00212568
0.0367218 0.049206 -0.0138827
0.0415362 0.0443289 -0.0246138
0.0353161 0.0463531 -0.0219004
0.035244 0.0265857 -0.0322701
0.0337052 0.0469979 -0.0235538
0.0299279 0.0533455 -0.0188651
0.0317718 0.0530467 -0.0165291
0.0384754 0.0428505 -0.0212153
0.0310681 0.0510137 -0.0227409
0.0376794 0.0494631 -0.0165253
0.0573216 0.024342 -0.0299358
0.0290976 0.0467032 -0.0141576
0.0318152 0.0554363 -0.0393924
0.0609437 0.029696 -0.0246431
0.0392449 0.0573221 -0.0143037
0.0584962 0.0282627 -0.0315618
0.065934 0.0227773 -0.026398
0.0644345 0.0254034 -0.0277785
0.0650555 0.0285663 -0.0293644
0.0612582 0.0408934 -0.0310778
0.043372 0.0571778 -0.0183275
0.0463461 0.0555092 -0.0171337
0.037112 0.0713459 -0.00111122
0.0497246 0.0658099 -0.0103086
0.0667919 0.0371694 -0.0282896
0.0598973 0.046772 -0.0334716
0.0751291 0.0446828 -0.0248624
0.0649912 0.0537201 -0.0391903
0.0615613 0.0519674 -0.0409883
0.0853726 0.0276849 -0.000987175
0.0576175 0.0524864 -0.054029
0.0513107 0.0571838 -0.0576873
0.0920882 0.050972 0.0107492
0.0678461 0.0598804 -0.0356501
0.0762797 0.0657871 0.00408877
0.0625852 0.0794648 -0.0119479
0.0732108 0.0525329 -0.0292753
0.061934 0.0728421 -0.0191167
0.0618706 0.0679053 -0.00180317
0.0554232 0.0636343 -0.044497
0.051419 0.0917251 -0.0136733
0.0549813 0.0699491 -0.031471
0.0606435 0.0664416 -0.0306112
0.0633771 0.0854781 -0.0135997
0.0353667 0.0426858 -0.00112062
0.0436818 0.0412743 -0.0173976
0.0368592 0.0481958 -0.0128414
0.032694 0.0398913 -0.00390045
0.0374666 0.0487441 -0.0138032
0.0634595 0.0252711 -0.028021
0.0645823 0.0618451 -0.0377968
0.0749308 0.0561431 -0.0210732
0.065262 0.0660349 -0.0452702
0.0272282 0.055883 -0.0165738
0.0326527 0.0455265 0.000478447
0.0254419 0.0484567 -0.00526147
0.0315758 0.052697 -0.00838803
0.0363768 0.0495066 -0.0186303
0.0294611 0.0507079 0.00166727
0.0311232 0.0500666 -0.00735792
0.0367137 0.0397071 -0.0136542
0.0379795 0.0488982 -0.00695771
0.0656015 0.0247672 -0.02885
0.0481707 0.0549537 -0.0226054
0.042738 0.0712637 -0.0344175
0.0269833 0.0572381 -0.0166139
0.0545686 0.0177076 -0.0201236
0.0338747 0.0404081 -0.00720775
0.0426061 0.0442799 0.0174252
0.037757 0.053161 -1.78584e-05
0.027941 0.0476055 -0.0185016
0.0362323 0.0407377 -0.00122196
0.035932 0.0554622 0.000461436
0.0264462 0.0520472 -0.00509342
0.0314973 0.0497096 -0.0257879
0.0395919 0.0309815 -0.0461406
0.0409374 0.0557279 -0.0191044
0.0258867 0.0632988 -0.0107096
0.0360821 0.0519458 -0.023224
0.0516069 0.0417097 -0.0239495
0.0436726 0.0513549 -0.0185462
0.0604089 0.0328235 -0.0291013
0.0554209 0.0255882 -0.0311269
0.0594996 0.0304137 -0.0343878
0.0661372 0.0209226 -0.0252923
0.0546472 0.0296723 -0.0432099
0.0753765 0.0256187 -0.00645158
0.0622356 0.0305864 -0.0262247
0.058507 0.0381314 -0.0299772
0.0651157 0.0317647 -0.0279563
0.0591628 0.0417704 -0.0286521
0.0621994 0.0476547 -0.0325099
0.0582679 0.0427635 -0.0273556
0.0621634 0.0405377 -0.0274998
0.0715392 0.021385 -0.0232486
0.0397896 0.0729658 -0.000980199
0.034843 0.0745552 -0.0328201
0.0494384 0.0580556 -0.0166282
0.0407037 0.0674985 -0.00479756
0.0733085 0.0344361 -0.0386424
0.078018 0.0374072 -0.0235326
0.0419014 0.0716158 -0.0295467
0.0693269 0.0434633 -0.0386616
0.0490474 0.0392541 -0.00835452
0.0650248 0.0429077 -0.0209349
0.0636728 0.070112 -0.0022496
0.0430469 0.0696574 -0.019069
0.0834978 0.0284063 -0.0223036
0.0678145 0.0557578 -0.0176804
0.0560277 0.0665462 -0.0159352
0.054675 0.0689428 -0.0199358
0.0724753 0.059085 -0.0107277
0.0553695 0.0617446 -0.00869413
0.0733679 0.058694 -0.0140993
0.070162 0.0581982 -0.0111926
0.0711178 0.0601863 -0.0172559
0.0686808 0.0648686 -0.036636
0.061544 0.0725504 -0.0189171
0.0600016 0.063764 -0.0214885
0.0622928 0.0657197 -0.0308761
0.0549784 0.0741384 -0.014673
0.0673653 0.0676588 -0.0487912
0.0624787 0.0660505 -0.0309754
0.0606303 0.0660199 -0.0319584
0.0426763 0.0821492 -0.0365712
0.059232 0.0721583 -0.0215728
0.0612176 0.065554 -0.0391966
0.0498696 0.0828584 -0.0395668
0.0615618 0.0637011 -0.045725
0.0693768 0.087278 -0.00975078
0.0690212 0.0622975 -0.0329974
0.0300652 0.0673716 -0.00976164
0.0366753 0.0410843 -0.0094932
0.0364749 0.0401216 -0.0120992
0.0373578 0.0484565 -0.00986405
0.0574306 0.0245104 -0.042486
0.0362019 0.0492157 -0.0155026
0.0350301 0.0603585 -0.00991551
0.0368435 0.0448245 -0.0181061
0.051125 0.0418434 -0.0207413
0.0757672 0.00545986 0.0194272
0.0529543 0.0329791 -0.0275436
0.0516514 0.0423338 -0.0238518
0.0700975 0.032684 -0.0257388
0.0619577 0.0205118 -0.0224409
0.0699027 0.0302392 -0.0234986
0.0670814 0.0213465 -0.0255899
0.0631792 0.030609 -0.0311801
0.0408831 0.0585082 -0.0140314
0.0494939 0.0594457 -0.0101971
0.0510447 0.0562069 -0.0253868
0.0854089 0.0434615 -0.0321291
0.0486553 0.061311 -0.0228779
0.0572055 0.0627962 -0.00449415
0.07244 0.0498839 -0.0213466
0.0772492 0.0339827 -0.022824
0.0741442 0.0415325 -0.0296144
0.0540927 0.0594246 -0.0203051
0.051722 0.070657 -0.018412
0.0610767 0.0717407 -0.0231311
0.0499594 0.0491671 -0.0600046
0.0725986 0.054394 -0.0146235
0.0916499 0.0718146 -0.0173796
0.0809863 0.0548941 -0.0109968
0.0864498 0.0576754 -0.0011568
0.0733918 0.0611838 -0.0248194
0.0809578 0.0698846 -0.0396136
0.059795 0.065259 -0.0362458
0.0663042 0.0753567 -0.0277355
0.0583436 0.0645262 -0.0398605
0.0645008 0.0741654 -0.0392832
0.0654768 0.0893511 -0.00408718
0.0735438 0.0610418 -0.0466828
0.0693447 0.0841442 -0.033376
0.0647861 0.0766043 -0.0211272
0.0360956 0.0501711 -0.0152077
0.0376194 0.0485308 -0.0161695
0.0451767 0.0406426 -0.0193382
0.0517332 0.0422147 -0.0270822
0.0541368 0.0438562 -0.0244313
0.0538416 0.037701 -0.0265832
0.0484029 0.0546776 -0.019251
0.0686811 0.0246304 -0.0254978
0.0569445 0.0490785 -0.0260399
0.0720413 0.0532126 -0.0169726
0.0798768 0.0792272 -0.0145601
0.0539242 0.0624191 -0.0461318
0.0299256 0.0515848 -0.0188385
0.0593516 0.040833 -0.0327745
0.0571094 0.0488393 -0.0253288
0.0624229 0.0629022 -0.0352238
0.03286 0.0553219 -0.0139395
0.0711631 0.0150003 -0.0189447
0.0580928 0.048023 -0.0352727
0.0584653 0.0752681 -0.0440626
0.0426242 0.0333307 -0.0139108
0.0366071 0.046071 -0.008613
0.0365592 0.0468219 -0.0192964
0.0440565 0.0330362 -0.0221215
0.0516666 0.0702438 -0.0383699
0.0350272 0.0522184 -0.0130145
0.0448732 0.0423912 -0.0201916
0.035115 0.0335044 -0.00339797
0.0599448 0.0202095 -0.00483741
0.041966 0.0282063 -0.0129232
0.0446318 0.0476384 -0.0235201
0.0467021 0.039515 -0.00527781
0.0456793 0.036661 -0.0230708
0.045089 0.0406613 -0.0142245
0.0443981 0.0376319 0.0081669
0.0388885 0.0411337 -0.0205092
0.0520967 0.0259682 -0.0328142
0.0469735 0.0378499 -0.0183443
0.0612376 0.00359838 0.0240629
0.0415933 0.0456997 -0.0197863
0.0524115 0.029942 -0.0210973
0.0449092 0.0411563 -0.015075
0.0431483 0.0499325 -0.0138862
0.0511946 0.0410155 -0.00993473
0.0325305 0.0394943 -0.00638139
0.0414424 0.0393463 -0.00731097
0.0386023 0.0390475 -0.0159609
0.0293134 0.0454 -0.00742059
0.0482757 0.0391904 -0.0186591
0.047609 0.0345367 -0.00300789
0.0388946 0.0484812 -0.0182185
0.0659895 0.00661884 0.024779
0.0493677 0.0321242 -0.0225642
0.0325326 0.04789 -0.0229307
0.0435073 0.0409199 -0.0174178
0.0466631 0.0437049 -0.0250804
0.060313 0.0278577 -0.029891
0.0395785 0.0422244 -0.00488029
0.0606262 0.0294075 -0.0269375
0.0569535 0.0261754 -0.0303331
0.038171 0.0536858 -0.0230121
0.0315967 0.0581064 -0.0250021
0.0709561 0.0119251 -0.0144372
0.0401137 0.0285812 -0.0162327
0.0649076 0.0270857 -0.0264142
0.0524609 0.0440344 -0.0283762
0.061022 0.0265454 -0.0337716
0.0444508 0.0428096 -0.0236223
0.0658928 0.0243349 -0.0253126
0.0716903 0.0285519 -0.00345046
0.0629494 0.0257138 -0.030868
0.0645576 0.0375137 -0.035309
0.0404561 0.040363 -0.00708917
0.0529567 0.0442404 -0.023949
0.0434863 0.0519666 -0.0188706
0.0623039 0.0235058 -0.0199326
0.0611292 0.0292627 -0.0308511
0.0433433 0.0490851 -0.00586214
0.0605152 0.0378429 -0.0281763
0.0501944 0.0607021 -0.0146604
0.0572695 0.0385664 -0.0275903
0.0417054 0.0552048 -0.015355
0.0569295 0.0375341 -0.0310045
0.0610076 0.0404377 -0.0337524
0.0787734 0.0331666 -0.0230189
0.0493762 0.0587215 -0.0264877
0.0583554 0.042551 -0.0282828
0.0614313 0.0304944 -0.0313662
0.0577702 0.0507491 -0.0271824
0.0509003 0.0627774 -0.0138437
0.0533388 0.0536021 -0.00778504
0.0660057 0.0353624 -0.025208
0.0625189 0.0410301 -0.0426874
0.0622829 0.0509132 -0.0511231
0.0640861 0.0554493 -0.0338557
0.0500649 0.0734777 -0.0153332
0.0658899 0.0575745 -0.0381052
0.0540628 0.0636661 -0.0188813
0.0653737 0.0460716 -0.0387245
0.0630494 0.0554019 -0.0303083
0.0552753 0.0666534 -0.0147542
0.055788 0.0689058 -0.014481
0.0643465 0.0622249 -0.030444
0.0572254 0.0729117 -0.0214924
0.0639384 0.0641514 -0.0332377
0.0934989 0.0707502 -0.0121001
0.0629866 0.0579271 -0.0446391
0.0547243 0.066801 -0.0440067
0.05638 0.0571422 -0.0345667
0.0505282 0.0734323 -0.0411112
0.0584328 0.0649751 -0.0392175
0.0728457 0.0682518 -0.0309823
0.0314504 0.0488758 -0.0255385
0.0361678 0.0424439 -0.0199236
0.0346699 0.0405513 -0.00772762
0.0344983 0.040494 -0.0143964
0.0455983 0.0433402 -0.0225118
0.0369295 0.0486739 -0.006457
0.0510155 0.037558 -0.00466083
0.0304077 0.0416499 -0.00251845
0.0366634 0.0402199 -0.0181548
0.0385917 0.0437157 -0.0228533
0.0439005 0.0307306 -0.0219214
0.0369938 0.040352 -0.0148508
0.0345668 0.0497831 -0.0380346
0.0652763 0.0225027 -0.0237327
0.0561169 0.0306171 -0.0280619
0.0616904 0.0334361 -0.0295049
0.0598768 0.0348214 -0.0330329
0.067604 0.0256748 -0.0244515
0.0605168 0.0351498 -0.0320387
0.034237 0.0466438 -0.00779515
0.0604072 0.0364133 -0.0292813
0.0430254 0.0538148 -0.0170215
0.0633899 0.0346715 -0.0225464
0.0652658 0.0402047 -0.0287739
0.0748949 0.0260622 -0.0127017
0.0416075 0.0475535 -0.0211509
0.0438792 0.0595461 -0.0229993
0.0585268 0.0377424 -0.0224058
0.0640452 0.0376671 -0.0320738
0.0614924 0.0410234 -0.0328426
0.04863 0.0551897 -0.0250181
0.0509211 0.0686931 -0.0147886
0.0400846 0.0701701 -0.0217464
0.0687124 0.0472718 -0.0345885
0.0687739 0.0512163 -0.0256375
0.0507705 0.0677445 -0.0132501
0.0545512 0.0616391 -0.0181617
0.0538137 0.0611259 -0.0166749
0.0514014 0.0711073 -0.0139777
0.0776717 0.0682101 -0.0408882
0.0733327 0.0501344 -0.0434963
0.0660243 0.0646414 -0.0380687
0.0595787 0.0679683 -0.0410075
0.0644635 0.0611837 -0.0350611
0.056991 0.0625929 -0.0527356
0.0661654 0.069366 -0.0214804
0.0660805 0.0558695 -0.0382507
0.0558648 0.0831057 -0.0160992
0.0685845 0.0640593 -0.0314274
0.0382724 0.0513449 -0.0169329
0.0379771 0.0485232 -0.0121548
0.0514111 0.0421769 -0.0266459
0.0630305 0.0463281 -0.0281662
0.058302 0.0537102 -0.0280449
0.0524487 0.0457082 -0.0280412
0.0770523 0.0227416 -0.023696
0.0495164 0.0721028 -0.0142625
0.0756914 0.0563514 -0.00783245
0.0564516 0.073459 -0.0157137
0.0651347 0.0626563 -0.0344858
0.0335856 0.0410733 -0.0354509
0.050022 0.0426001 -0.00669207
0.0595395 0.0388728 -0.023338
0.0609559 0.0278856 -0.0312206
0.042529 0.0501401 -0.0183797
0.064077 0.0360237 -0.0227195
0.056827 0.0487391 -0.0256762
0.0618924 0.0733372 -0.030747
0.0567003 0.0756006 -0.0165169
0.0605954 0.0667001 -0.0382974
0.0400598 0.0418217 -0.0287938
0.0316936 0.0472905 -0.021735
0.0610676 0.0465178 -0.031583
0.0282002 0.0461888 -0.0222324
0.055195 0.0431368 -0.0338908
0.0590838 0.0328367 -0.0183932
0.0370191 0.0489052 -0.0122458
0.031355 0.0373254 -0.033365
0.06056 0.0514757 -0.0493878
0.0363051 0.0506476 -0.0190393
0.0383378 0.0506968 -0.0152692
0.0500955 0.0660216 -0.0524735
0.0417065 0.0405074 -0.0125902
0.0374377 0.0312822 -0.00159026
0.0619231 0.0542981 -0.0336547
0.0495784 0.0377936 -0.0362136
0.0488784 0.042403 -0.0237446
0.0368256 0.0459212 -0.0197759
0.0265856 0.0414113 -0.0126434
0.0481725 0.0277435 0.00390423
0.0526524 0.0452837 -0.00631256
0.0631101 0.0371154 -0.00987704
0.0424348 0.0346709 -0.00898407
0.0313916 0.0467793 -0.0148332
0.0591861 0.0276116 -0.0263038
0.0361573 0.0516869 -0.0230357
0.0321217 0.0555827 -0.0256074
0.0446839 0.0181748 -0.0216738
0.0407753 0.0548895 -0.0114983
0.0568557 0.0274011 -0.0316719
0.0398151 0.0413481 -0.0213713
0.057476 0.0186269 -0.0243609
0.0562027 0.0390562 -0.0178756
0.063006 0.0257662 -0.0292125
0.0601841 0.034157 -0.0293395
0.0425708 0.0581209 -0.0140192
0.0584503 0.0425654 -0.0283056
0.066481 0.0320312 -0.0305316
0.0594638 0.0364779 -0.0290066
0.062322 0.0447225 -0.0318489
0.0586918 0.02379 -0.0160009
0.0590358 0.029598 -0.0238455
0.0382268 0.0501536 -0.00897378
0.061763 0.0411452 -0.0348304
0.0517577 0.0417517 -0.0242392
0.0666027 0.0360967 0.00665159
0.0552334 0.0420594 -0.0328441
0.0660645 0.0370608 -0.0306544
0.0681707 0.0445041 -0.031585
0.0715156 0.0364996 -0.036038
0.0760903 0.0447829 -0.0191346
0.0747346 0.0476357 -0.0299705
0.0667164 0.0288232 -0.0257193
0.05967 0.0490066 -0.0291186
0.040214 0.0669526 -0.0165211
0.0566494 0.0658012 -0.020764
0.0580457 0.0613155 -0.0135483
0.070317 0.0579954 -0.0327465
0.0532437 0.070962 -0.0191289
0.0793207 0.0462971 -0.0145303
0.0683435 0.054836 -0.03617
0.0661512 0.0542423 -0.0239093
0.0499464 0.0791956 -0.0146669
0.0532981 0.070907 -0.0316653
0.0796143 0.0630575 -0.0272576
0.0556264 0.0721231 -0.0170835
0.0601003 0.0584415 -0.0157227
0.0599725 0.0680377 -0.0207818
0.0752844 0.0668687 -0.0287904
0.0646015 0.0557169 -0.0408634
0.0545537 0.0709379 -0.0268182
0.0613061 0.0692927 -0.030974
0.059445 0.0774652 -0.022053
0.0481453 0.0732169 -0.0545538
0.0441679 0.070498 -0.0342092
0.0615222 0.057462 -0.0407486
0.0761479 0.0700096 -0.038539
0.0769029 0.0539195 -0.0394341
0.0580415 0.0722838 -0.0187342
0.0577611 0.0790695 -0.0138336
0.0684196 0.0546683 -0.0395536
0.0657397 0.0552633 -0.0391498
0.0719111 0.0593787 -0.0460447
0.0529117 0.0383253 -0.00447713
0.0509032 0.0299829 -0.019641
0.0296846 0.0496773 -0.0202678
0.0515382 0.0290045 -0.0258762
0.0638777 0.0233628 -0.0315136
0.051933 0.032144 -0.0247666
0.0501418 0.0378998 -0.0156635
0.0589108 0.0497542 -0.022433
0.0597507 0.0305452 -0.0350932
0.0532046 0.0374267 -0.035555
0.0523897 0.0379998 -0.0277369
0.0538631 0.0412363 -0.0088777
0.0611949 0.0426651 -0.0332517
0.0504828 0.0600319 -0.0173678
0.0399317 0.0513568 -0.0186202
0.0454183 0.0535672 -0.0243154
0.0428456 0.0546707 -0.016236
0.0592686 0.0741494 -0.0284688
0.0617019 0.0488033 -0.015555
0.0630918 0.0439676 -0.0300817
0.0642869 0.0257102 -0.0328849
0.0418667 0.0699819 -0.0326866
0.0694161 0.0324572 -0.0383553
0.0559279 0.0614843 -0.0177601
0.0548275 0.0762785 -0.0249664
0.0533604 0.0634077 -0.0141336
0.0727861 0.050926 -0.0311414
0.04873 0.0676033 -0.0235499
0.0467196 0.0704155 -0.00896049
0.0969548 0.0205706 0.0120019
0.0717475 0.0520417 -0.0205622
0.0776526 0.0501645 -0.0032339
0.0713499 0.0399635 -0.0174912
0.0677683 0.0512125 -0.0390402
0.0990725 0.0580921 0.0109184
0.0671421 0.0544977 -0.020419
0.0697077 0.0596449 -0.0295911
0.0659495 0.0703147 -0.0244762
0.060104 0.0706285 -0.0342029
0.0650062 0.0650293 -0.0382249
0.0601792 0.0601461 -0.0416499
0.0499523 0.0743667 -0.0544876
0.0610544 0.0652928 -0.0354154
0.0672084 0.0685691 -0.0263731
0.0680767 0.0566263 -0.0353047
0.0626719 0.0565215 -0.0405704
0.0574306 0.0725222 -0.0222993
0.061032 0.072357 -0.0174013
0.0717785 0.051453 -0.0309108
0.0737079 0.0777733 -0.0164607
0.0545853 0.0736231 -0.0244536
0.0680516 0.0673705 -0.0511851
0.0636425 0.0709756 -0.0212162
0.0620972 0.0724971 -0.0189802
0.0623982 0.0703619 -0.0291771
0.0453332 0.0415113 -0.0208042
0.0582486 0.038898 -0.027268
0.0307964 0.0523043 -0.0465393
0.0447632 0.0409592 -0.017467
0.0548387 0.0434935 -0.024895
0.0432992 0.0425718 -0.0156006
0.0524435 0.0661261 -0.018145
0.0579681 0.0524821 -0.0283471
0.0672377 0.0521482 -0.042681
0.0454695 0.0512595 -0.0148971
0.0372887 0.0418761 -0.0153502
0.0380028 0.0495051 -0.0217024
0.0574121 0.0765358 -0.0146967
0.0561764 0.0463156 -0.0243283
0.0605108 0.0708682 -0.024324
0.0450062 0.0434883 -0.0272983
0.0427204 0.0468142 -0.018406
0.0612473 0.0512324 -0.00580742
0.0464291 0.0395903 -0.0109179
0.0578105 0.0441407 -0.00740881
0.0504937 0.0359804 -0.000440591
0.0543354 0.0254873 0.0027071
0.0431748 0.0382798 -0.00155025
0.0493798 0.0430267 -0.0287362
0.046621 0.0376115 -0.000773697
0.0408911 0.0385522 -0.014814
0.0566593 0.0340062 -0.0214251
0.051005 0.04187 -0.0246763
0.0529449 0.0374544 -0.0214273
0.0625038 0.0320678 -0.0231691
0.0469526 0.0635354 -0.0117553
0.0586351 0.0468976 -0.0328733
0.0604124 0.0628104 -0.0074404
0.0450037 0.0838002 0.00538124
0.059273 0.0373372 -0.0260164
0.0657734 0.0524746 -0.0294608
0.0623454 0.0530157 -0.0313114
0.0615999 0.051556 -0.0292734
0.067091 0.0412729 -0.0446504
0.0666703 0.0448293 -0.0474225
0.0717966 0.0553314 -0.0388511
0.0629139 0.0591986 -0.0399694
0.0707543 0.0616665 -0.0157638
0.0631228 0.0702025 -0.0335979
0.0638932 0.0613668 -0.0435098
0.0556948 0.0847726 -0.022262
0.0656377 0.0106619 0.00454756
0.0321321 0.0531888 -0.0153855
0.0412635 0.0671317 -0.0148989
0.0634254 0.0614272 -0.0408144
0.0705919 0.0380826 -0.0288801
0.0418978 0.060134 -0.066544
0.072265 0.061187 -0.01448
0.0762901 0.0974439 -0.00816619
0.0673722 0.0699652 -0.0345331
0.0599036 0.0735987 -0.0362535
0.0688867 0.0663442 -0.034556
0.0618971 0.0812099 -0.0138047
0.0739795 0.0658632 -0.0348641
0.036695 0.0513891 -0.0172766
0.0441138 0.0411175 -0.0227888
0.0746998 0.0330949 -0.0247135
0.0471293 0.0330337 0.00277571
0.059428 0.0667473 -0.0341059
0.0674122 0.0229116 -0.0254835
0.0404616 0.06755 0.00577788
0.0725414 0.0656716 -0.0403579
0.0426706 0.0787014 -0.0350829
0.059511 0.0609696 -0.0416689
0.0618484 0.0200668 -0.0222409
0.0347362 0.0405209 -0.0101168
0.0699719 0.0518798 -0.0367079
0.0608225 0.0414481 -0.0475309
0.0865065 0.0621907 -0.0140899
0.0584093 0.0335265 -0.0264585
0.0544369 0.0442263 -0.0256306
0.0773234 0.0257455 -0.0221192
0.0543499 0.0265869 -0.0334428
0.0652506 0.032021 -0.03663
0.0601232 0.0388501 -0.024481
0.0857121 0.014853 0.00017755
0.0517242 0.053608 -0.00684379
0.0644557 0.0254731 -0.0306841
0.0544884 0.0430354 -0.0260424
0.063788 0.034957 -0.0231959
0.059876 0.0495028 -0.0288702
0.0696754 0.0245526 -0.0179405
0.0605103 0.0403626 -0.025104
0.0580313 0.0665577 -0.0145093
0.0515529 0.0681062 -0.0192864
0.0729233 0.0489896 -0.0401027
0.0882878 0.0409954 0.00122654
0.081312 0.0538466 -0.00212452
0.0693734 0.054775 -0.0264163
0.0650994 0.0668352 -0.031478
0.0431922 0.0743505 -0.0405254
0.0656842 0.0420226 -0.0399126
0.0585057 0.076986 -0.0204704
0.0683025 0.0747933 -0.0289538
0.0743213 0.0614196 -0.0406404
0.06637 0.073711 -0.0242766
0.0787224 0.0685999 -0.0169331
0.0670982 0.0157488 -0.0177507
0.05626 0.0346028 -0.02755
0.0587803 0.0285619 -0.0275711
0.0619669 0.0261793 -0.0334648
0.0693076 0.0330842 -0.0241402
0.0523387 0.0614184 -0.0191818
0.0654821 0.0462136 -0.0467821
0.0784835 0.0578507 -0.0361016
0.0432551 0.081252 -0.025068
0.0509245 0.0690609 -0.0165003
0.0668383 0.0515042 -0.0392966
0.0961135 0.0638136 -0.00518372
0.0643677 0.063166 -0.0446186
0.0646701 0.0510156 -0.0404052
0.066041 0.0784419 -0.0279109
0.0631498 0.0880762 -0.00622685
0.0697067 0.084076 -0.0158817
0.0811835 0.0675992 -0.0155104
0.0926745 0.0515103 -0.0135571
0.0580484 0.0296773 -0.0258432
0.0647514 0.0506224 -0.0386863
0.0627391 0.0629881 -0.0383697
0.0723966 0.0657218 -0.0322628
0.0569051 0.065554 -0.0407173
0.0632627 0.0430851 -0.0308994
0.052646 0.0422727 -0.0229547
0.0743338 0.0447064 -0.0303385
0.0630149 0.0212879 -0.0252962
0.0655318 0.057255 -0.0486284
0.0530501 0.0553127 -0.0220274
0.09591 0.0552499 -0.0175339
0.0676556 0.0683769 -0.0282641
0.0593625 0.0382458 -0.0233709
0.0509521 0.0527251 -0.0300392
0.0520997 0.0561426 -0.019641
0.0500619 0.0415167 -0.026178
0.0382543 0.0419263 -0.0131136
0.0592226 0.0247873 -0.0229969
0.0570197 0.0276924 -0.0323025
0.0333489 0.0571336 -0.0136194
0.0619626 0.0239533 -0.00508109
0.0552593 0.0457701 -0.0261347
0.0692925 0.0228466 -0.0164845
0.0518828 0.0430352 -0.0362453
0.0537864 0.055925 -0.0226806
0.0609804 0.0356536 -0.0243271
0.0487657 0.0523123 -0.000467586
0.0644138 0.0246385 -0.0307483
0.0714129 0.0429488 -0.0179267
0.0642215 0.0424532 -0.0257781
0.0720803 0.041356 -0.0361856
0.0550071 0.0664471 -0.0191988
0.0426264 0.0807 0.00844158
0.0618708 0.0393503 -0.035819
0.0501049 0.0555936 -0.0194108
0.0681111 0.0592522 -0.0348426
0.0574442 0.0643874 -0.0124427
0.0574082 0.0660244 -0.0229816
0.0717135 0.0470408 -0.0372437
0.0472179 0.069915 -0.0188163
0.0740059 0.049293 -0.0208664
0.0648113 0.0504264 -0.0418403
0.0675475 0.062805 -0.0150518
0.0755331 0.064455 -0.0311004
0.0646101 0.0730012 -0.0209472
0.0587481 0.0714916 -0.0348616
0.0464363 0.0778891 -0.0460936
0.0662609 0.0634798 -0.0398734
0.0741037 0.0675338 -0.0366432
0.0665481 0.0638466 -0.0338841
0.0576337 0.0250195 -0.0222985
0.0602821 0.0111134 -0.0227987
0.0678248 0.0351268 -0.0265697
0.0548713 0.0616788 -0.0188005
0.0620316 0.0541575 -0.0319704
0.0558872 0.0651239 -0.014008
0.0638913 0.0498531 -0.0434386
0.0633075 0.0622783 -0.0381273
0.0620726 0.0562348 -0.025298
0.0650833 0.0537216 -0.0229198
0.0598925 0.0696733 -0.0334901
0.0654442 0.0611384 -0.037694
0.0558297 0.0721149 -0.0175541
0.072945 0.0658568 -0.0420418
0.0640909 0.0771595 -0.0182909
0.0688214 0.070241 -0.0265007
0.0677068 0.0642333 -0.0281038
0.0581069 0.0638468 -0.0222485
0.0592227 0.0526922 -0.0274244
0.0617691 0.0572999 -0.0306872
0.0582669 0.0297337 -0.026642
0.0347941 0.0558839 -0.0118577
0.0544411 0.0608747 -0.0203163
0.0587635 0.052827 -0.0269161
0.058836 0.0616774 -0.0160813
0.0712613 0.0761563 -0.028923
0.040576 0.0492645 -0.0187045
0.0595307 0.0176807 -0.0242861
0.0571948 0.0293079 -0.0246784
0.0420155 0.0578808 -0.00544885
0.0474827 0.054548 -0.0249838
0.0509854 0.044143 -0.0289408
0.0605807 0.0382262 -0.0283118
0.068691 0.0476515 -0.0425274
0.0681973 0.0648754 -0.0269256
0.0638479 0.0340763 -0.0287615
0.0517686 0.0613145 -0.0193956
0.0674103 0.0661428 -0.0407791
0.0506215 0.0216733 -0.0304234
0.0571339 0.0615198 -0.0167503
0.0587009 0.0683947 -0.0493027
0.0643054 0.0628344 -0.0364816
0.031924 0.0377229 -0.000596884
0.0584905 0.0340642 -0.0295048
0.0519568 0.041925 -0.0195415
0.0461902 0.0517034 -0.0204743
0.0583473 0.0383893 -0.0271486
0.044452 0.0451254 -0.0244671
0.0586809 0.0399241 -0.0247787
0.066222 0.033084 -0.0311058
0.0682192 0.0317603 -0.0149132
0.0680398 0.0355951 -0.0233823
0.0553211 0.0610101 -0.0195112
0.0626407 0.0380485 -0.036663
0.0538725 0.0599777 -0.0192539
0.055264 0.0612146 -0.0209568
0.0688727 0.0334767 -0.0225972
0.0744951 0.0301698 -0.0133407
0.0539409 0.0573955 -0.0169113
0.0535645 0.0620051 -0.0172192
0.0584379 0.0652506 -0.0213185
0.0638924 0.0625226 -0.044845
0.0602521 0.0652153 -0.0190395
0.0508694 0.067893 -0.0140811
0.0599515 0.0651224 -0.0155685
0.0677456 0.0689217 -0.0205125
0.0631082 0.0732298 -0.0397812
0.0640244 0.0742659 -0.0311859
0.0390407 0.0779061 -0.0441572
0.0646303 0.0735448 -0.0258664
0.0629545 0.0772431 -0.0467599
0.0745738 0.0827144 -0.0365928
0.0506754 0.0623494 -0.0183961
0.0451086 0.0592756 -0.013884
0.0607576 0.0467628 -0.030903
0.066519 0.0315224 -0.0195208
0.0536964 0.0668054 -0.0103292
0.054455 0.0593146 -0.0292153
0.0489302 0.0722884 -0.0167067
0.0663087 0.0685951 -0.0328168
0.0694846 0.0526577 -0.0231199
0.0723222 0.0484656 -0.0169879
0.0798357 0.0587826 -0.0181281
0.0675318 0.0605436 -0.0330896
0.0656403 0.0536547 -0.0360058
0.0719618 0.0580337 -0.0377836
0.0672139 0.0475518 -0.040241
0.0579701 0.0779004 -0.0187275
0.0318784 0.049367 -0.016546
0.0597128 0.0578764 -0.0278677
0.0605446 0.0598518 -0.029537
0.0657255 0.0602749 -0.0418172
0.0701198 0.0685071 -0.031539
0.0609767 0.0320478 -0.0196698
0.0573549 0.0296809 -0.0243611
0.0663305 0.0306877 -0.0189941
0.0428074 0.050364 -0.0180015
0.0625554 0.037935 -0.0264519
0.0564881 0.0508495 -0.0281837
0.0621788 0.0780088 -0.0271567
0.0318144 0.0438287 -0.0155854
0.0601138 0.0466356 -0.0332007
0.06242 0.0262567 -0.0307473
0.060405 0.083404 -0.0104354
0.0691659 0.0337855 -0.0306742
0.0521068 0.056406 -0.0209071
0.0579473 0.0717568 -0.0544356
0.0526456 0.0426989 -0.0192477
0.0704748 0.0348007 -0.00716599
0.059108 0.0512519 -0.0242693
0.0572985 0.0298102 -0.0250249
0.0837794 0.0596279 -0.019339
0.0773755 0.081051 -0.0366768
0.0576833 0.0112295 -0.01785
0.061073 0.0170244 -0.0249563
0.0357062 0.0464353 -0.0146896
0.0562721 0.0364748 -0.0303344
0.0594804 0.0239353 -0.0292012
0.0567145 0.0294803 -0.026939
0.0484809 0.0612299 -0.0137214
0.0718727 0.0389853 -0.0145879
0.0506244 0.0567009 -0.0212303
0.0677323 0.0335363 -0.0313675
0.067113 0.0405816 -0.0180029
0.0498966 0.0563841 -0.0144866
0.0516612 0.0637511 -0.0157041
0.0561869 0.0671384 -0.0192879
0.0768027 0.0453805 -0.0174569
0.0645635 0.0467803 -0.0425017
0.0543556 0.0632072 -0.00672393
0.0822646 0.0494135 -0.0101267
0.0780427 0.0415456 -0.0192241
0.0773353 0.0591984 -0.0160401
0.0559432 0.0662511 -0.0215316
0.0709806 0.0549596 -0.0215261
0.0693689 0.0793504 -0.0246037
0.0573893 0.0722759 -0.0228126
0.0643884 0.07644 -0.0220161
0.0437461 0.0713593 -0.0418848
0.0664797 0.0648839 -0.0418342
0.0500163 0.0818246 -0.00846594
0.0709561 0.0805647 -0.0218298
0.0556457 0.0273285 -0.033184
0.0320261 0.0531759 -0.0132977
0.0618837 0.0224966 -0.0151523
0.0611072 0.0287988 -0.0115473
0.047137 0.0495945 -0.0244265
0.0531974 0.0607583 -0.0258004
0.0585751 0.054256 -0.0279705
0.0595678 0.0536258 -0.0262921
0.0615958 0.0544708 -0.0293121
0.0697869 0.0597326 -0.00939191
0.0513638 0.0822365 -0.0114667
0.0651182 0.0876111 -0.0110812
0.0472021 0.0525857 -0.0225929
0.0727394 0.0357732 -0.0201318
0.0529768 0.0728939 -0.016249
0.0697393 0.0753937 -0.0347151
0.0641565 0.0265327 -0.014828
0.0615409 0.056493 -0.026594
0.0635198 0.0594387 -0.0402269
0.0619419 0.0712732 -0.0305112
0.0407505 0.0529758 -0.020452
0.0791331 0.0359265 -0.0164267
0.0504709 0.0732482 -0.0139059
0.0495246 0.0610648 -0.0167877
0.0505742 0.0420502 -0.0272972
0.0461738 0.0277502 0.013296
0.062317 0.044097 -0.050434
0.0689502 0.0321201 -0.0247602
0.055341 0.0601917 -0.0189273
0.0552592 0.0602668 -0.0179935
0.0605755 0.0717924 -0.0507525
0.073535 0.0564197 -0.0407849
0.0556002 0.0645244 -0.0180955
0.0466634 0.0398511 -0.017295
0.0567654 0.0713714 -0.0219479
0.0393537 0.0369168 -0.0253112
0.0348456 0.0376179 -0.0284342
0.0543946 0.0275581 -0.00451234
0.0281827 0.0529885 -0.00552552
0.0317912 0.0461642 -0.015025
0.0428233 0.035509 -0.0220464
0.039147 0.028022 -0.0314922
0.0574981 0.0238331 -0.0309738
0.0444628 0.0358613 -0.0244489
0.0481111 0.041676 -0.0170526
0.0422828 0.0269627 -0.0168969
0.0531106 0.0223469 -0.0163362
0.0366571 0.0437 -0.0183081
0.0389022 0.0385656 -0.0202257
0.0428968 0.030892 -0.0174426
0.0497795 0.0291264 -0.018809
0.0451873 0.0263799 -0.0210333
0.03698 0.0346025 -0.0220034
0.0516346 0.0127795 -0.0218554
0.0288429 0.0574395 -0.00636773
0.0571287 0.0323244 -0.0254341
0.0505447 0.0348847 -0.0134791
0.0593251 0.0103898 -0.0180355
0.0385474 0.0483346 -0.0166474
0.0605843 0.00833599 -0.00692782
0.0468006 0.0382532 -0.0150994
0.0408812 0.0484901 -0.0188548
0.0388178 0.0357355 -0.0246501
0.0353451 0.0279981 -0.0317024
0.0308827 0.0474315 -0.022407
0.0325784 0.054326 -0.0163728
0.0364461 0.0497579 -0.018696
0.0352328 0.0449245 -0.0178183
0.0408352 0.0326153 -0.00759224
0.0539541 0.0329751 -0.0237728
0.028312 0.0616252 -0.0148281
0.0499704 0.0249013 -0.0145912
0.0414549 0.0310183 -0.0182069
0.0323137 0.028382 -0.039092
0.045762 0.0330639 -0.017614
0.0488197 0.0261039 -0.0292912
0.040101 0.0344686 -0.0131115
0.0279182 0.0486194 -0.0163533
0.0414142 0.0238644 -0.0231434
0.0401048 0.0369636 -0.0257546
0.0434548 0.0342987 -0.0171
0.051449 0.0362457 -0.0225614
0.0549663 0.0169309 -0.0171467
0.0280979 0.0548648 -0.0135342
0.0382762 0.0409082 -0.0147887
0.0537883 0.0231558 -0.0255106
0.0318129 0.0549821 -0.0208235
0.0451963 0.0430333 -0.0192653
0.0385293 0.0423511 -0.0245705
0.0496637 0.0253066 -0.0167139
0.0368585 0.0410022 -0.0189163
0.0419497 0.0432593 -0.0147221
0.0313574 0.0428997 -0.0141134
0.036691 0.0418384 -0.0149278
0.041045 0.0316285 -0.0153561
0.0448232 0.0463544 -0.014201
0.0450305 0.0306379 -0.0124035
0.0378761 0.0268015 -0.0248088
0.0562326 0.0190908 -0.0214296
0.0323988 0.0495295 -0.0174248
0.0593717 0.0269362 -0.0299268
0.0549385 0.029008 -0.0365789
0.0428849 0.0432313 -0.0154692
0.0448869 0.0420214 -0.0243423
0.0334951 0.048844 -0.0190172
0.0357352 0.0472536 -0.0144359
0.066042 0.0261042 -0.0329061
0.0429979 0.0238679 -0.0200992
0.0424063 0.0404379 -0.0105795
0.0282812 0.0520036 -0.0172047
0.0402065 0.060962 -0.0122539
0.0437921 0.0398547 -0.00774919
0.0296565 0.0622606 -0.0237156
0.0384223 0.0484705 -0.0130987
0.0547462 0.0293974 -0.0216856
0.0569538 0.0317998 -0.0278059
0.0337122 0.0573344 -0.0268766
0.0356366 0.0433331 -0.0218999
0.0343163 0.0603687 -0.0129185
0.0291956 0.0520214 -0.00897305
0.0362122 0.0541369 -0.0124435
0.0377391 0.0429929 -0.0220637
0.0514256 0.0257524 -0.0173844
0.049115 0.0310344 -0.0205676
0.0449967 0.0530591 -0.0178672
0.0552228 0.0280234 -0.0107067
0.0653766 0.0281158 -0.0180141
0.0432952 0.0500856 -0.0163012
0.046471 0.0539628 -0.0180153
0.0341826 0.0586188 -0.011163
0.0419627 0.0334946 -0.0117512
0.0437737 0.0297261 -0.0179276
0.0389159 0.0554884 -0.0146029
0.0438229 0.0306723 -0.0235622
0.0336159 0.0576606 -0.0121224
0.040287 0.0604812 -0.00581541
0.0582443 0.0315587 -0.0230365
0.0576332 0.035867 -0.0313592
0.043604 0.0535643 -0.011757
0.0417953 0.0548723 -0.0171656
0.0451134 0.0489685 -0.0194637
0.0507827 0.0468554 -0.0243909
0.0472032 0.0404685 -0.00620978
0.0500308 0.0388444 -0.0248849
0.0509884 0.0421926 -0.0255698
0.0366978 0.0604527 -0.0113117
0.0430425 0.039613 -0.00211447
0.037803 0.0408553 -0.00831551
0.059184 0.0395596 -0.00213523
0.0375817 0.0440143 -0.0193169
0.0526986 0.0437622 -0.0264044
0.0580983 0.0283507 -0.0214979
0.0598954 0.0237517 -0.0258267
0.0334172 0.0396928 -0.012111
0.0369321 0.0524146 -0.0141146
0.0651397 0.0319407 -0.0187511
0.0519505 0.0491174 -0.00490664
0.0417608 0.0498245 -0.0159236
0.0377368 0.0474054 -0.0161278
0.0541671 0.0350647 -0.0288299
0.0334456 0.0520773 -0.0155131
0.0486284 0.0422338 -0.040366
0.0618191 0.021539 -0.0141808
0.0448987 0.0499192 -0.0203289
0.0460265 0.0396526 -0.0165019
0.071555 0.0246579 -0.00120919
0.0454773 0.0570112 -0.019041
0.0510761 0.0647183 -0.00471392
0.0330569 0.0538889 -0.00958664
0.0375272 0.0505766 -0.0151489
0.050683 0.0408732 -0.0311676
0.0542119 0.0339434 -0.0218956
0.0500992 0.0387752 -0.0127009
0.058001 0.025871 -0.00984182
0.0567439 0.0306286 -0.0280619
0.0390066 0.0606552 -0.0115795
0.0424758 0.0654678 -0.0127987
0.0437195 0.04138 -0.018692
0.0404832 0.0409874 -0.0136545
0.05303 0.0428781 -0.021347
0.052264 0.037752 -0.0289236
0.0420383 0.0504115 -0.0175919
0.0443973 0.0511081 -0.0194546
0.0530892 0.0426865 -0.0254328
0.0488991 0.0643677 -0.0147971
0.0547738 0.0397463 -0.00704294
0.0346127 0.0576053 -0.010126
0.0523147 0.0352429 -0.00499962
0.0445392 0.0588253 -0.00931303
0.0406442 0.0407143 -0.0103169
0.0533018 0.0408208 -0.0132637
0.057131 0.0415415 -0.0125155
0.0511566 0.0369772 -0.0254942
0.0382749 0.062165 -0.0146541
0.0388157 0.0610582 -0.0100955
0.0434062 0.0408941 -0.0122181
0.0361128 0.0642117 -0.0114027
0.0555389 0.0484443 -0.00290275
0.0446516 0.0572908 -0.0197114
0.0509665 0.0423068 -0.0308065
0.0383392 0.0525573 -0.0141514
0.0484418 0.0439427 -0.015043
0.0419864 0.0444853 -0.0160857
0.0396498 0.0652657 -0.0137537
0.0460428 0.0589211 -0.00917593
0.0537236 0.0396069 -0.0124002
0.0527501 0.0429434 -0.024796
0.0535893 0.0448263 -0.0265871
0.0501818 0.0410565 -0.0110859
0.050147 0.0420561 -0.0319686
0.0605849 0.0334675 -0.0131244
0.0499926 0.0420527 -0.0312894
0.0408188 0.0600263 -0.0134095
0.0610733 0.0313667 -0.0291397
0.0454224 0.0405389 -0.0140348
0.0507563 0.0413588 -0.0232589
0.054192 0.0404065 -0.00925311
0.0521276 0.0572231 -0.0118537
0.062934 0.0351148 -0.0294177
0.0374469 0.0535597 -0.0224505
0.0405528 0.0665437 -0.0133917
0.0412081 0.0587132 -0.0105843
0.0486796 0.0564047 -0.0181685
0.0482297 0.0512408 -0.0158437
0.0541173 0.0470783 -0.0281915
0.0523799 0.0464793 -0.00732399
0.0599611 0.0342641 -0.0306995
0.0384067 0.0670608 -0.0133085
0.06213 0.0372366 -0.0308632
0.0559303 0.0491573 -0.00495928
0.041102 0.0613003 -0.00633148
0.0446133 0.0618322 -0.013021
0.0611138 0.0559891 -0.0142702
0.0418219 0.0617807 -0.0145762
0.0545401 0.0459354 -0.0105054
0.0566637 0.0409832 -0.02781
0.0541 0.0475143 -0.02188
0.0404728 0.0603178 -0.00928891
0.0437127 0.0559325 -0.0189161
0.0413625 0.0592396 -0.010475
0.0602389 0.0330866 -0.0303369
0.038896 0.0558777 -0.0194208
0.0398443 0.0573943 -0.0150737
0.0366962 0.0629201 -0.012377
0.0434739 0.0619195 -0.0126303
0.0629335 0.0405755 -0.0346456
0.0387649 0.0701821 -0.0164608
0.037629 0.0597001 -0.0110281
0.0504765 0.0513667 -0.015294
0.0556894 0.0366159 -0.027558
0.0588722 0.043345 -0.0295329
0.0632694 0.0373538 -0.029495
0.0594459 0.0381766 -0.0257729
0.0554195 0.0451716 -0.0272718
0.0359343 0.0652024 -0.0161849
0.0391758 0.0631521 -0.0120336
0.0617326 0.0343575 -0.0353829
0.0458339 0.0522058 -0.0185914
0.0453629 0.0594055 -0.0180633
0.0578327 0.0484396 -0.0228282
0.0440136 0.0561852 -0.025543
0.065049 0.0397277 -0.0272411
0.0562958 0.0684469 -0.0106174
0.0545005 0.04577 -0.0203624
0.0607775 0.0457035 -0.0291784
0.0607185 0.050802 -0.0296188
0.0497703 0.0627046 -0.0166971
0.0612939 0.0383906 -0.0208673
0.046159 0.0726855 -0.017059
0.0500762 0.0654827 -0.0122833
0.0448202 0.0409388 -0.0116515
0.046165 0.0522768 -0.014972
0.0601484 0.044549 -0.0310108
0.048963 0.0529145 -0.0134147
0.0449648 0.0571912 -0.0205374
0.0575297 0.0459474 -0.0293375
0.0528523 0.0581048 -0.0197716
0.0561311 0.0478361 -0.0252834
0.0537583 0.0656229 -0.0170647
0.0548359 0.0594691 -0.0202183
0.0493146 0.054679 0.00126491
0.0654981 0.040575 -0.00156309
0.0509079 0.0607076 -0.0219587
0.0583237 0.0533176 -0.0170463
0.0416118 0.0649233 -0.0128798
0.0551286 0.0455307 -0.0177143
0.06194 0.0395951 -0.0250569
0.0445994 0.0633888 -0.0165051
0.0743616 0.0244397 -0.00611155
0.0485116 0.0725324 -0.0141417
0.0482565 0.0525694 -0.0206459
0.0569456 0.0446435 -0.0200618
0.0480489 0.0599912 -0.0204045
0.0428851 0.0644372 -0.0150978
0.0426513 0.0540592 -0.0173983
0.057668 0.0436721 -0.0300612
0.0628954 0.056061 -0.0223155
0.0495555 0.0578385 -0.0190056
0.0679162 0.0478817 -0.0424684
0.0538408 0.0445812 -0.0252137
0.0568076 0.0627662 -0.021639
0.0733888 0.0370148 -0.028681
0.0653447 0.0255521 -0.0321227
0.041223 0.0585917 -0.0141442
0.061755 0.0587361 -0.0259663
0.0537756 0.0639849 -0.0189495
0.0461911 0.0582088 -0.0197912
0.0462563 0.0632756 -0.0163952
0.0513342 0.067659 -0.0134124
0.0680531 0.047029 -0.0422076
0.0583823 0.0524922 -0.0271592
0.0540791 0.0596274 -0.0198219
0.0530028 0.0496245 -0.0259762
0.0569617 0.0488487 -0.0281481
0.0475507 0.0608043 -0.0174165
0.0588652 0.050951 -0.0254034
0.0746675 0.0410133 -0.0390324
0.0606087 0.0513423 -0.027978
0.0629012 0.0367568 -0.00787611
0.0613447 0.0496035 -0.028691
0.0426685 0.057326 -0.00958914
0.0515725 0.0659581 -0.0171412
0.0524875 0.061382 -0.0234086
0.0372053 0.0745298 -0.0202546
0.0570564 0.0614179 -0.0235858
0.056316 0.0470296 -0.0241432
0.0587218 0.063116 -0.00322758
0.0474697 0.0606172 -0.0161731
0.0574161 0.0532483 -0.0154007
0.0512466 0.0713282 -0.0156453
0.062253 0.058053 -0.0254976
0.0642826 0.0518353 -0.0307309
0.0450343 0.0624601 -0.0148485
0.0612501 0.0670907 -0.0252623
0.0633225 0.0559124 -0.051359
0.0501048 0.0702901 -0.0159595
0.0530574 0.0661974 -0.0217162
0.0463894 0.0686927 -0.0150174
0.0715126 0.0622177 -0.0526341
0.0695686 0.056427 -0.0436681
0.0529145 0.0786842 -0.0100216
0.065124 0.0534701 -0.0273069
0.0528385 0.0607365 -0.024572
0.0620849 0.0558458 -0.0233904
0.0593624 0.0516357 -0.0275525
0.0527272 0.0638137 -0.0172572
0.0384877 0.0694489 -0.0179548
0.0592934 0.0589284 -0.024815
0.0635183 0.0529815 -0.0301402
0.0651433 0.0569774 -0.0253583
0.0555315 0.0663426 -0.0148224
0.0540798 0.0659377 -0.0203376
0.0576513 0.0655272 -0.0203094
0.053733 0.0640934 -0.0181602
0.0646449 0.0542658 -0.028358
0.0556844 0.0658108 -0.0206116
0.061364 0.0667697 -0.0177882
0.0607842 0.0526068 -0.0299579
0.0657512 0.0537648 -0.0280144
0.0443488 0.0709321 -0.0319733
0.0614812 0.0527093 -0.0204174
0.0612235 0.053581 -0.0298752
0.0568936 0.052531 -0.0347106
0.0643696 0.057561 -0.0210408
0.070613 0.046838 -0.0425169
0.0609124 0.0617668 -0.0216495
0.0401237 0.0699251 -0.0297292
0.0519479 0.0632519 -0.0222116
0.0696409 0.0364315 -0.037776
0.0576422 0.063059 -0.0211972
0.0634771 0.0544675 -0.0267258
0.0600062 0.0559775 -0.0160101
0.0722375 0.0460494 -0.040852
0.0559446 0.0607338 -0.0160947
0.0652741 0.0611518 -0.015385
0.0635718 0.0575005 -0.0292516
0.0657024 0.0625328 -0.0143067
0.0673699 0.060879 -0.0368914
0.0566556 0.06427 -0.0173772
0.0541284 0.0752846 -0.0150686
0.0645556 0.0690233 -0.0331787
0.0614164 0.0557882 -0.0249104
0.0428014 0.0731149 -0.0305786
0.059506 0.0629226 -0.0259104
0.0598973 0.0632224 -0.0240273
0.0677646 0.0475007 -0.0370804
0.0417655 0.0725081 -0.029434
0.0581269 0.0641714 -0.0173554
0.0579816 0.0621947 -0.0220407
0.0668449 0.059085 -0.041577
0.0649617 0.0463702 -0.0407558
0.0560064 0.0604695 -0.0212738
0.0593108 0.0602309 -0.0250806
0.0657856 0.0582683 -0.0185706
0.0599648 0.0583243 -0.0259941
0.0733363 0.055219 -0.0144841
0.0738072 0.0615379 -0.0500448
0.0566227 0.0734684 -0.0198428
0.0623706 0.0599345 -0.0283771
0.0502726 0.0635767 -0.00964651
0.0615365 0.0665513 -0.00698202
0.0697145 0.0605499 -0.0404863
0.068721 0.0549258 -0.00681164
0.0509545 0.0700437 -0.0161452
0.0562683 0.0605066 -0.0195097
0.0634864 0.0643566 -0.029063
0.05429 0.0682366 -0.0189756
0.0657672 0.0611524 -0.0157434
0.0632694 0.0664759 -0.0431872
0.0673899 0.0597535 -0.041491
0.0631511 0.0759276 -0.0214351
0.0517528 0.0713845 -0.0260872
0.0558828 0.0694544 -0.0286995
0.062976 0.0633362 -0.0223092
0.066441 0.0631863 -0.0207264
0.0615341 0.0719304 -0.0287232
0.0608929 0.0619422 -0.0464116
0.0748843 0.0655453 -0.0301829
0.058819 0.0731981 -0.0155039
0.0673905 0.0490634 -0.0362933
0.0616879 0.0819474 -0.0249676
0.057656 0.0796278 -0.0180624
0.0623874 0.0716043 -0.0215275
0.0743403 0.0621743 -0.0231946
0.072108 0.0640095 -0.0340228
0.067027 0.066441 -0.0494417
0.0589808 0.0706847 -0.0282686
0.0519914 0.0719654 -0.019632
0.0748204 0.0590638 -0.024937
0.0534944 0.0732681 -0.0180941
0.0525926 0.0713787 -0.0201581
0.0769091 0.0502747 -0.0425271
0.0644508 0.0566474 -0.0443448
0.0671466 0.0709393 -0.0305316
0.0474179 0.0730487 -0.0160792
0.0736296 0.0700869 -0.026344
0.0682425 0.0673587 -0.0325094
0.0594338 0.0650181 -0.046589
0.064051 0.0532067 -0.0413999
0.0651269 0.049409 -0.0403714
0.0607118 0.0830639 -0.0199586
0.0580589 0.0740857 -0.0245341
0.0670732 0.0604038 -0.0317935
0.0656183 0.07293 -0.0250582
0.0560337 0.072906 -0.0306238
0.0740199 0.0687156 -0.0466874
0.0620765 0.0709813 -0.0320711
0.0687768 0.0640972 -0.0383313
0.0703778 0.0707255 -0.0211439
0.070498 0.0664793 -0.0318214
0.0598255 0.0641078 -0.0394345
0.0657938 0.0659457 -0.0321513
0.0603518 0.0704777 -0.0320888
0.0633676 0.0527406 -0.0425534
0.0774419 0.0567747 -0.0403985
0.062361 0.0765318 -0.0371017
0.054959 0.0820569 -0.0245175
0.052561 0.081643 -0.0203274
0.0603074 0.0736624 -0.033611
0.0665519 0.0840305 -0.0254137
0.0663938 0.078455 -0.0248366
0.0678114 0.0705579 -0.026721
0.0698274 0.0603391 -0.0389735
0.0624369 0.0794785 -0.0187406
0.0675764 0.0763527 -0.0233125
0.0710122 0.0585854 -0.0448197
0.0650688 0.075296 -0.015342
0.0639715 0.067357 -0.0326792
0.0661038 0.0771433 -0.0310292
0.0695639 0.0701649 -0.0358135
0.0660865 0.0665995 -0.0358441
0.0640922 0.0826201 -0.0135066
0.0625509 0.0680155 -0.0384207
0.0758333 0.0820046 -0.034185
0.0629223 0.0720336 -0.0312521
0.0596887 0.00341293 -0.00637789
0.042997 0.0405882 -0.00919407
0.037381 0.0406752 -0.00840053
0.0532362 0.0428049 -0.0189091
0.0676625 0.0259035 -0.0191439
0.0591089 0.0294489 -0.0342315
0.0575216 0.0363295 -0.0264372
0.0628448 0.0320868 -0.0270848
0.0614136 0.0201816 -0.0220151
0.0568015 0.0264815 -0.0311348
0.0647913 0.0261428 -0.031086
0.0377236 0.0554257 0.00545473
0.0592332 0.040181 -0.0309618
0.0563942 0.0376986 -0.0294715
0.0599216 0.0352772 -0.0283386
0.0523522 0.0421334 -0.0238534
0.0685972 0.0269177 -0.00969391
0.0513692 0.0528014 -0.0287733
0.048005 0.054796 -0.0201693
0.058691 0.0422534 -0.0296992
0.0512812 0.0566911 -0.0145732
0.0648583 0.0240211 -0.030678
0.0543165 0.061162 -0.0204909
0.0538912 0.0616952 -0.0237313
0.0815858 0.0317056 -0.01861
0.0701075 0.0333905 -0.0332184
0.0651501 0.0477595 -0.0431868
0.0561625 0.0618719 -0.0173494
0.072082 0.0451054 -0.024502
0.0782202 0.0432586 -0.0229669
0.0610576 0.0603032 -0.0135682
0.053943 0.0613259 -0.0226368
0.0834072 0.0265357 -0.0233066
0.0559504 0.0650248 -0.0183854
0.0555854 0.0676244 -0.0133345
0.0670362 0.033675 -0.0427157
0.0546319 0.0641037 -0.0188501
0.0559245 0.0666947 -0.0201183
0.0763575 0.0597546 -0.00908611
0.0800072 0.0527084 -0.0208925
0.0715268 0.0634732 -0.0125951
0.0708675 0.0839104 -0.0151419
0.0676033 0.0614359 -0.0342327
0.0531569 0.0794005 -0.0123072
0.0578425 0.0670728 -0.0353494
0.0598288 0.0648312 -0.039233
0.0591 0.0738844 -0.0169867
0.0704802 0.071323 -0.0236068
0.062872 0.0615224 -0.0441737
0.0599209 0.0790809 -0.0135533
0.0680332 0.0782825 -0.0374141
0.0618599 0.0636214 -0.0364332
0.0668258 0.072048 -0.0290227
0.0597257 0.0799763 -0.0227773
0.0646116 0.0782368 -0.0323507
0.0292761 0.0464859 -0.0211193
0.0586874 0.00294715 -0.0168856
0.0322855 0.0555243 -0.0168368
0.0522229 0.0202856 -0.0135023
0.0582642 0.0179108 -0.0303253
0.0481345 0.034251 -0.0514189
0.0680297 0.00798643 -0.0126585
0.0574355 0.0258541 -0.0365802
0.0558518 0.0305551 -0.0281355
0.049492 0.0419898 -0.0363231
0.0591669 0.0490414 -0.024456
0.0440837 0.0560021 -0.015694
0.0465472 0.0605431 -0.0323282
0.038755 0.0506965 -0.0175896
0.0614314 0.0264918 -0.0336788
0.0470779 0.0691255 -0.0190707
0.0609733 0.0347626 -0.0352382
0.0569852 0.0592029 -0.0194233
0.0783619 0.0438408 -0.0178745
0.0717256 0.0420422 -0.0366718
0.079766 0.0166037 -0.0187029
0.065999 0.0542846 -0.027904
0.0512647 0.073127 -0.0148234
0.0616226 0.0596168 -0.0391523
0.062133 0.0665132 -0.0358693
0.0622692 0.0863406 -0.00841302
0.0736249 0.0790427 -0.0120131
0.0369154 0.0509512 -0.0196622
0.0533689 0.0440071 -0.0242787
0.0530145 0.0559396 -0.0209046
0.0648001 0.0321933 -0.0217338
0.0654219 0.0204629 0.0127893
0.0368839 0.0497553 -0.0133644
0.0544122 0.0348419 -0.0275017
0.059178 0.0539622 -0.0107152
0.0640707 0.0580009 -0.0212159
0.0700571 0.0355372 -0.0377955
0.06416 0.0602415 -0.0397567
0.0638822 0.064237 -0.0337376
0.0445802 0.0422739 -0.0197607
0.0584867 0.0272306 -0.0309238
0.0606266 0.0661872 -0.0455343
0.0666701 0.0206233 -0.0262299
0.0318374 0.0444374 -0.026065
0.0602425 0.0183079 -0.0250492
0.0773492 0.0301091 -0.0244564
0.0569798 0.0733497 -0.0413027
0.0581122 0.0709498 -0.0231364
0.0526255 0.0420162 -0.0183876
0.0607063 0.05936 -0.0408451
0.0661169 0.0440953 -0.0496254
0.0656504 0.0713714 -0.0490088
0.0756644 0.0788793 -0.036664
0.0590838 0.02174 -0.0263437
0.0551725 0.0629851 -0.0323579
0.0585703 0.0717001 -0.0199645
0.0484248 0.0217137 0.0107328
0.0491671 0.0258052 -0.0189988
0.0368331 0.0519712 -0.0265007
0.0302392 0.0523788 -0.0197622
0.0289364 0.0457791 -0.0265043
0.0556223 0.0614935 -0.0200229
0.0463566 0.0525109 -0.0158341
0.0542199 0.060764 -0.0199056
0.0833512 0.0757145 -0.00799712
