ply
format ascii 1.0
comment Created by Open3D
element vertex 1157
property double x
property double y
property double z
property uchar red
property uchar green
property uchar blue
end_header
0.0369895 0.0664362 -0.0282792 85 51 47
0.0345859 0.0451544 -0.0752699 255 255 255
0.0271251 0.049824 -0.0787469 253 117 109
0.0562515 0.0461024 -0.0131197 255 244 226
0.0302988 0.0621234 -0.0863901 201 54 47
0.0405245 0.0591556 -0.0187273 221 242 254
0.0323483 0.0464964 -0.0814238 254 255 255
0.0368249 0.0585115 -0.0240453 255 255 255
0.0270325 0.0499911 -0.0230308 255 231 221
0.0510139 0.0195256 -0.0373731 114 80 77
0.0629491 0.0368139 0.0075801 221 247 231
0.0333642 0.037722 -0.0792025 224 134 133
0.0239348 0.0428578 0.0142232 255 255 255
0.0353139 0.0545814 -0.0609083 161 90 85
0.0496583 0.0453378 -0.0205487 150 107 103
0.036114 0.0345469 -0.0817718 245 175 167
0.0341786 0.0414135 -0.0260463 255 255 253
0.0319685 0.052406 -0.0743746 153 57 51
0.0290506 0.0429753 -0.0784008 231 255 255
0.0293115 0.0375705 -0.0750702 209 115 103
0.0260398 0.0634714 -0.0563006 189 84 78
0.0332519 0.0739704 -0.0519925 210 144 137
0.0315885 0.0425435 -0.0863941 255 183 176
0.039473 0.0259621 -0.0591369 217 139 139
0.039052 0.0214247 -0.0666176 152 81 75
0.0298073 0.0455648 -0.0708566 255 255 255
0.0402152 0.045093 -0.0232489 71 30 26
0.0362983 0.0311892 -0.0791901 226 154 153
0.0397006 0.0197156 -0.0636343 182 123 122
0.0456231 0.0174613 -0.0378017 104 59 57
0.0344201 0.0476078 -0.0853387 255 174 166
0.0328838 0.0610529 -0.0536955 153 86 82
0.0348628 0.0591204 -0.021191 121 86 80
0.0369644 0.0475574 -0.0351177 97 0 0
0.0566843 0.0348866 -0.00899931 255 255 255
0.0263261 0.0609461 -0.0763096 202 121 119
0.0273928 0.0589644 -0.0570486 197 108 103
0.0341285 0.0567209 -0.0580732 249 160 153
0.0371788 0.0625723 -0.035046 176 255 255
0.031467 0.0484147 -0.0790605 195 255 255
0.0325724 0.0437736 -0.072606 240 218 210
0.033408 0.0387715 -0.0728347 225 145 134
0.0373778 0.0388876 -0.0879886 178 171 166
0.0304326 0.0441057 -0.0724472 255 141 131
0.0336046 0.0403099 -0.0764607 251 174 160
0.0315845 0.047122 -0.0704023 238 183 178
0.0313281 0.0253502 -0.0772635 211 132 120
0.0651197 0.0452704 -0.0266073 119 55 50
0.0395912 0.0181304 -0.065249 57 0 0
0.0563505 0.0404282 -0.0287372 71 30 26
0.0510076 0.0193786 -0.0500412 106 60 57
0.0580196 0.0413237 -0.0274708 125 78 77
0.0266248 0.0508439 -0.0753769 251 154 148
0.0352477 0.079215 -0.0544633 199 127 120
0.0363384 0.0295092 -0.0591285 184 84 78
0.0380229 0.0230686 -0.0627407 138 80 80
0.0293588 0.0470924 -0.0877464 240 255 255
0.0392714 0.0435126 -0.0193165 255 255 255
0.0423772 0.0427052 -0.00844164 230 185 177
0.0563705 0.050175 -0.0102538 34 6 0
0.0301202 0.0485756 -0.0122659 255 245 233
0.0299465 0.044443 -0.0731614 255 255 255
0.0366733 0.039523 -0.0887441 187 127 117
0.0337232 0.0394024 -0.0720467 238 149 145
0.0318644 0.0427408 -0.0751586 235 136 128
0.0371763 0.0351784 -0.0195282 103 56 53
0.0456413 0.0220107 -0.059608 206 117 111
0.0342531 0.0462992 -0.0759593 238 210 201
0.034124 0.0542238 -0.0575421 164 90 83
0.0342071 0.0450856 -0.0846048 243 245 236
0.0307789 0.0524349 -0.0821129 255 165 169
0.0462629 0.0499769 -0.0193725 188 113 113
0.0353938 0.0350337 -0.0857704 245 190 193
0.0347899 0.0390816 -0.0125174 255 255 255
0.047641 0.0161568 -0.0357182 138 89 86
0.0432417 0.0218991 -0.0602797 255 194 194
0.037874 0.0326494 -0.0176844 169 125 119
0.0335026 0.039481 -0.0728339 227 162 156
0.029902 0.055264 -0.0609381 213 127 121
0.0359393 0.0442908 -0.0136712 106 56 53
0.0317244 0.0478648 -0.073056 253 150 142
0.0338454 0.0458957 -0.0841868 250 214 205
0.0362986 0.0378671 -0.0805182 232 157 148
0.0392141 0.0514393 -0.0394544 73 32 28
0.0336952 0.0380954 -0.072534 255 174 168
0.0322945 0.0546949 -0.0122115 238 255 255
0.0318961 0.0522296 -0.0229218 255 255 255
0.0385186 0.0453353 -0.02378 33 0 0
0.0345223 0.0378412 -0.0804736 255 255 255
0.0465969 0.0504051 -0.03593 83 44 42
0.0223458 0.0408272 0.0241079 255 255 255
0.0255977 0.0380202 -0.0701994 255 112 105
0.0276821 0.0416717 -0.0891827 251 255 243
0.0341105 0.0386757 -0.0727564 199 95 86
0.0428747 0.0522632 -0.0509284 83 43 39
0.0334189 0.0268942 -0.040344 179 91 86
0.0361318 0.0495577 -0.0301883 80 35 34
0.0294427 0.0411813 0.00725174 255 255 255
0.0451939 0.0476333 -0.0104008 209 158 150
0.0388008 0.0241708 -0.060824 255 176 173
0.0361168 0.0390615 -0.0792899 227 180 168
0.0335984 0.0458018 -0.085422 241 155 148
0.0327999 0.0387471 -0.0720907 247 191 177
0.0346762 0.0342034 -0.0846784 255 149 148
0.0307117 0.0373734 -0.0793143 233 163 157
0.0277011 0.0537561 -0.0831594 252 197 189
0.0199136 0.0693708 -0.0481667 105 21 2
0.030258 0.0412759 -0.0920223 245 248 241
0.0167875 0.0638796 -0.0657936 182 121 118
0.0326732 0.0511576 -0.0874313 255 131 124
0.0369371 0.0387736 -0.0787006 208 84 74
0.0366264 0.0394518 -0.0796648 235 187 177
0.0352161 0.0395943 -0.0839336 255 255 255
0.0363801 0.0384039 -0.0787505 226 136 129
0.0342077 0.037747 -0.0828697 255 204 198
0.0488047 0.070203 -0.0509833 65 36 31
0.0437331 0.046612 -0.0521133 78 37 32
0.0356626 0.0263223 -0.070794 156 100 100
0.0333834 0.0470711 -0.0216648 85 43 37
0.0371943 0.0236226 -0.0737265 206 117 112
0.0651732 0.0379819 -0.0257242 87 35 32
0.0483686 0.0228172 -0.0561166 81 42 40
0.0580729 0.0404925 -0.0308966 86 49 45
0.0559729 0.0351813 -0.0366838 86 45 42
0.0385843 0.0431937 -0.0273566 121 92 89
0.0412018 0.0461018 -0.0374835 94 47 43
0.033471 0.0442317 -0.0767976 255 255 255
0.0409801 0.0520787 -0.0476354 74 35 32
0.0340195 0.044467 -0.0760603 212 170 162
0.034281 0.0478184 -0.0747376 246 191 183
0.0415852 0.0121656 -0.067972 251 175 184
0.0320195 0.0462143 -0.0730288 255 255 255
0.0388096 0.0540805 -0.0417782 255 255 253
0.0426027 0.0577969 -0.0241525 250 255 255
0.0301099 0.0492966 -0.0299192 255 178 142
0.0279423 0.0270113 -0.0271015 196 116 110
0.0204818 0.0461892 -0.0745781 219 205 206
0.0343828 0.0390005 -0.0781467 250 255 255
0.0346144 0.0130373 -0.0750713 165 94 91
0.0334171 0.0622454 -0.021198 255 255 255
0.0367074 0.0230041 -0.0376845 124 70 64
0.0227608 0.038568 0.0301673 255 255 255
0.0335389 0.0444321 -0.086609 254 255 255
0.0322738 0.0474541 -0.0716512 255 190 186
0.0329482 0.0377735 -0.0870222 255 189 182
0.0356581 0.0635587 -0.0342663 101 59 54
0.0365888 0.0534921 -0.0327266 148 129 122
0.0370858 0.0358087 -0.0829061 227 114 110
0.0382537 0.0455587 -0.0197103 80 38 41
0.0397117 0.0311293 -0.0303058 81 42 41
0.0449239 0.047039 -0.0126014 147 111 109
0.0613772 0.0411839 -0.0340279 98 48 46
0.0539156 0.0370283 -0.0204783 61 21 19
0.0654286 0.0439423 -0.0595087 105 55 53
0.0388302 0.0449058 -0.026947 51 0 0
0.0524178 0.0179722 -0.0343724 120 92 90
0.0519213 0.0423406 0.00740307 255 255 255
0.0377199 0.0516484 -0.03944 255 255 255
0.0381375 0.0645228 -0.0316512 160 162 176
0.0327241 0.0444876 -0.0734504 228 175 166
0.0231371 0.038594 0.02376 255 255 255
0.0367237 0.0285389 -0.0205994 241 208 207
0.0319789 0.0440003 -0.0766061 255 187 166
0.0335058 0.0406456 -0.0794844 255 224 218
0.0326674 0.0548164 -0.0553424 236 167 165
0.0210254 0.0546631 0.0172549 255 255 255
0.0337559 0.0484632 -0.0334657 97 55 51
0.0364153 0.0393898 -0.0823457 239 154 143
0.0567306 0.0340459 -0.0139212 255 255 255
0.0290473 0.0490588 -0.0895115 255 215 208
0.0320505 0.046532 -0.0727626 255 255 255
0.0306609 0.0425898 -0.0782278 131 79 77
0.0374016 0.0584929 -0.0248178 255 255 255
0.0490461 0.0218833 -0.054165 86 43 41
0.0333893 0.0458116 -0.0732253 255 191 185
0.0567813 0.0336531 -0.0125246 255 255 255
0.0218094 0.0754698 -0.0605185 110 47 42
0.0281652 0.0535119 -0.0823823 255 134 128
0.0371672 0.035128 -0.0819806 177 110 103
0.0474689 0.0530838 -0.0641507 82 33 30
0.034544 0.0357538 -0.0562864 46 0 0
0.0409971 0.0278826 -0.0631339 230 141 134
0.0401501 0.0234375 -0.0594404 255 200 197
0.0453181 0.00888622 -0.0636225 157 94 92
0.0502596 0.0209724 -0.0540948 57 19 18
0.041065 0.023782 -0.0578848 255 207 195
0.065075 0.045627 -0.0743286 25 4 0
0.0283103 0.0586592 -0.059179 208 113 107
0.038056 0.0438535 -0.0360257 36 0 0
0.0517969 0.0429737 0.00458888 255 255 255
0.0414773 0.0525189 -0.0505295 74 38 36
0.0325691 0.0461058 -0.073316 229 125 124
0.0418408 0.0567699 -0.0242208 255 255 255
0.0229232 0.0402463 0.00540534 255 255 255
0.037196 0.0637854 -0.0326807 255 255 255
0.0468465 0.0554498 -0.0458666 80 40 38
0.0251545 0.0676169 0.00106335 255 255 255
0.0469703 0.0495717 -0.0659809 83 48 45
0.0348187 0.0428614 -0.0292837 255 255 255
0.0335789 0.0431669 -0.0793732 174 59 45
0.0356091 0.0427375 -0.0299383 255 255 255
0.0350283 0.0411043 -0.074272 239 128 123
0.0411499 0.0520651 -0.0467937 79 39 37
0.0325652 0.0465606 -0.0928048 236 169 165
0.0414453 0.0437299 -0.0375154 91 49 44
0.0376379 0.0437286 -0.089606 214 155 153
0.0297254 0.0456228 -0.068966 255 255 255
0.0404038 0.049092 -0.0349923 89 45 44
0.0326688 0.0472838 -0.0721064 255 197 192
0.0410473 0.0412542 -0.0356172 78 37 35
0.0422059 0.0164379 -0.0690472 161 98 99
0.0311879 0.0521559 -0.0800504 255 168 163
0.0346026 0.0500075 -0.0835794 241 162 160
0.035609 0.0491175 -0.0662515 207 94 83
0.03229 0.0471305 -0.0182516 70 32 32
0.0503867 0.0403102 -0.0137646 74 31 28
0.0463445 0.0190376 -0.0363951 27 0 0
0.0616791 0.0420782 -0.0403346 71 31 28
0.0497927 0.00783172 -0.0605535 123 60 60
0.030781 0.058252 -0.0530224 254 145 153
0.0425702 0.0655653 -0.0357709 79 36 34
0.0458504 0.0481494 -0.0607742 79 39 36
0.0367328 0.0369519 -0.082935 243 155 145
0.0264424 0.0402074 -0.00303221 255 255 255
0.048647 0.0156203 -0.0509595 179 133 124
0.0564178 0.0343425 -0.0189631 255 255 255
0.0643184 0.0368174 0.0120519 255 255 255
0.0370551 0.0404424 -0.0836056 227 195 184
0.0396894 0.0474619 -0.0430674 66 20 18
0.0424555 0.0321024 -0.0876427 239 136 130
0.0316268 0.0648386 -0.0166798 255 255 255
0.0449492 0.0533683 -0.0607018 73 34 30
0.038967 0.0604492 -0.0289488 61 24 22
0.0219664 0.0686645 0.0166968 255 255 255
0.0527963 0.0184365 -0.0509125 53 0 0
0.0664999 0.0427482 -0.0248275 68 29 25
0.0537741 0.047248 -0.0310125 78 35 32
0.0630681 0.0370488 0.0136755 255 255 255
0.0301549 0.0412923 -0.0122996 255 255 255
0.0344767 0.0488796 -0.0329953 65 26 23
0.0359904 0.065381 -0.027156 255 255 255
0.0366598 0.0376657 -0.0796349 255 230 221
0.0460343 0.0164623 -0.0490864 25 0 0
0.0636286 0.0385697 -0.00517091 255 255 255
0.0503829 0.042971 0.0208355 255 255 255
0.0329473 0.0455282 -0.0755891 255 255 255
0.0360047 0.0492956 -0.0295108 75 34 32
0.0303147 0.0612925 -0.0527314 255 137 125
0.0305734 0.0426906 -0.0912613 255 255 247
0.0578678 0.0195222 -0.0259516 32 0 0
0.0635702 0.0350403 0.00446725 255 255 255
0.0327797 0.0566085 -0.0560246 232 134 126
0.0306184 0.0453676 -0.0722598 255 255 255
0.0395406 0.0453208 -0.0923579 255 163 161
0.019701 0.0451665 0.0270083 255 255 255
0.0347845 0.0401884 -0.00663745 48 0 0
0.0383869 0.0472305 -0.0412642 71 28 25
0.0320498 0.0444271 -0.0747384 255 255 255
0.0414967 0.0707989 -0.0857548 229 107 97
0.0638352 0.040591 0.00793779 255 255 255
0.0279681 0.0463614 -0.0809531 237 255 255
0.044883 0.0519805 -0.0538035 82 36 33
0.0379689 0.0525244 -0.039416 255 255 251
0.0396908 0.0451955 -0.0321116 93 48 45
0.0305179 0.0684237 -0.00632389 255 255 255
0.0169291 0.0539385 -0.0657464 255 140 139
0.0377049 0.0293275 -0.0647364 198 122 116
0.0312221 0.0494974 -0.0223778 255 255 255
0.0386769 0.0551674 -0.0144713 255 255 255
0.0342767 0.0412571 -0.0254537 255 220 161
0.0260599 0.0347388 -0.0915139 236 208 203
0.0297864 0.0412132 -0.0733121 255 255 255
0.0301278 0.0429044 -0.071931 255 255 255
0.0352066 0.0405883 -0.0789083 255 247 235
0.0331122 0.0633 -0.0227329 255 255 255
0.0563545 0.0329986 -0.0132415 255 255 255
0.0272187 0.0425382 -0.0697877 247 255 255
0.0332821 0.0653775 -0.0196837 255 255 255
0.0645234 0.0369356 0.00418042 255 255 255
0.0513544 0.0441678 0.0120663 255 255 255
0.0568618 0.0334297 -0.0038341 255 255 255
0.0533628 0.0459311 -0.00240504 255 255 255
0.0392127 0.0627979 -0.0921888 255 214 207
0.0467051 0.0485098 -0.0232769 84 41 38
0.0242687 0.0421798 -0.0669082 255 0 0
0.0289189 0.0445209 -0.0794814 251 255 255
0.0204306 0.0711647 -0.0497288 143 81 80
0.0292544 0.0391202 0.0114889 255 255 255
0.0311948 0.0403983 -0.0125301 255 255 255
0.0168558 0.0560569 0.0233406 255 255 255
0.0181049 0.0384188 0.0219913 255 255 255
0.0298508 0.0457655 -0.0705844 255 255 255
0.0254148 0.0698011 0.00345346 255 255 255
0.0570367 0.0352116 -0.0127853 255 255 255
0.0373056 0.0276178 -0.0797523 197 123 123
0.028372 0.0446384 -0.077742 133 255 255
0.0562749 0.0338187 -0.0138311 255 255 255
0.0639008 0.0433999 -0.0749699 62 24 22
0.0356684 0.0417507 -0.0297193 255 255 255
0.0326441 0.0461941 -0.0777415 215 158 153
0.0282917 0.0675252 -0.00158133 255 255 255
0.0420309 0.0519641 -0.0511657 83 44 43
0.0194659 0.0742825 -0.0361354 255 188 190
0.0251422 0.0459473 -0.00499817 255 255 255
0.0582283 0.0381128 -0.0129575 255 255 255
0.00616068 0.0374894 0.0434136 255 255 255
0.0332083 0.0732987 -0.0478467 78 41 39
0.0293797 0.0748265 -0.0710461 170 79 76
0.0629445 0.0375047 0.0045147 255 255 255
0.0474714 0.0308335 -0.0915993 255 164 159
0.030205 0.0476464 -0.0192028 255 255 255
0.0308847 0.0333667 -0.0925275 255 255 255
0.0298608 0.0423007 -0.00119893 255 255 255
0.0274409 0.0610555 -0.0810316 255 155 153
0.0257251 0.0640238 -0.0549952 151 65 59
0.0354441 0.0384018 -0.0851611 230 188 178
0.0319834 0.0448198 -0.0917215 242 168 165
0.0392962 0.0628751 -0.0918863 255 214 208
0.0570736 0.0348318 0.000165792 255 255 255
0.0409353 0.0411217 -0.0921096 255 191 181
0.0101556 0.0372157 0.0355464 255 255 255
0.0499583 0.0467872 -0.102835 255 153 148
0.0421617 0.0337995 -0.0982016 255 212 202
0.0511535 0.0400993 -0.102226 255 116 112
0.0200945 0.0702308 -0.0532594 149 68 63
0.0326123 0.0798086 -0.0596177 140 80 77
0.0516829 0.0533911 -0.102344 255 143 137
0.0473747 0.0347945 -0.0893854 255 138 123
0.0337056 0.0367971 -0.0927514 255 255 255
0.0236801 0.0776762 -0.0600461 125 72 70
0.00677741 0.083334 -0.0478954 202 79 75
0.0309307 0.0749811 -0.0563401 94 40 36
0.0498553 0.0479557 -0.102886 255 148 144
0.0305383 0.0346541 -0.0919068 255 255 255
0.0244605 0.0646199 -0.0499329 202 91 85
0.0257948 0.0590811 -0.055612 194 96 88
0.0246047 0.0491241 -0.0635848 224 154 154
0.0282539 0.0445885 -0.0839501 255 221 213
0.0373709 0.0736124 -0.0477327 91 41 36
0.0282268 0.0476192 -0.0715431 255 172 177
0.0338087 0.0715169 -0.0501253 31 1 0
0.0336953 0.0459541 -0.081344 227 255 255
0.0357306 0.0652956 -0.0514362 75 31 28
0.0272101 0.0513586 -0.0782874 255 176 169
0.034608 0.0448452 -0.0827288 235 136 129
0.0325678 0.0559187 -0.0551092 242 146 137
0.0325537 0.0584623 -0.0573532 209 92 83
0.0337217 0.0579487 -0.0561963 193 122 118
0.0309372 0.05398 -0.0541778 239 165 157
0.0399305 0.0586406 -0.0304231 72 42 40
0.0301284 0.0489209 -0.0555983 228 157 158
0.0349714 0.0499488 -0.0624126 192 71 64
0.0319898 0.0465215 -0.0590209 255 128 116
0.0314696 0.041377 -0.0683414 202 117 118
0.0330631 0.0315152 -0.083979 219 179 177
0.0355248 0.0456627 -0.0625139 181 77 70
0.0315999 0.0393267 -0.0647672 207 116 115
0.0337397 0.0426424 -0.0605858 231 135 133
0.0336961 0.0350381 -0.0724989 183 72 57
0.030833 0.0407244 -0.0589694 205 117 111
0.0381933 0.0444959 -0.0347413 48 0 0
0.0461934 0.0568138 -0.0438086 74 20 21
0.0359035 0.0350576 -0.0724349 220 130 123
0.0439151 0.0557164 -0.032139 77 45 43
0.0300319 0.0246437 -0.0819047 159 80 76
0.0327878 0.0230274 -0.057333 219 137 132
0.0361133 0.0270549 -0.0743123 177 114 111
0.0427124 0.0389476 -0.0299096 97 62 60
0.0373477 0.0259162 -0.0614981 191 107 101
0.0347989 0.0256512 -0.0410162 138 63 59
0.0321474 0.0229774 -0.0553933 247 141 136
0.0408219 0.0368377 -0.0220181 156 112 105
0.0405246 0.0291297 -0.0605537 131 63 57
0.0347343 0.0199007 -0.0775545 177 100 97
0.039539 0.0249785 -0.0632977 165 90 84
0.0410647 0.0194046 -0.0681286 138 79 74
0.0329822 0.022677 -0.0368118 61 0 0
0.0397992 0.0226508 -0.0610583 151 73 68
0.041838 0.0140005 -0.0672441 184 124 130
0.0573837 0.0482822 -0.0026364 25 0 0
0.0411511 0.0202059 -0.0550444 172 107 107
0.0588989 0.0347703 -0.0347437 47 19 13
0.0541271 0.0176333 -0.0381089 117 70 67
0.0519457 0.0167329 -0.0388911 97 54 50
0.0559697 0.0493032 -0.0140884 92 49 45
0.0471885 0.00924929 -0.0511408 219 225 207
0.0317105 0.0688304 -0.070106 171 91 85
0.029027 0.0499247 -0.0775163 255 198 194
0.0271408 0.0578953 -0.0594795 211 124 114
0.035606 0.0462619 -0.0869906 255 209 200
0.0292015 0.0494262 -0.0694397 250 150 144
0.032865 0.0485724 -0.0737452 237 135 135
0.0338242 0.0659769 -0.0570657 165 95 97
0.0314875 0.045478 -0.0728705 255 255 255
0.0311637 0.0507124 -0.0660603 189 100 95
0.0277482 0.0459962 -0.068535 255 208 206
0.0441962 0.0665398 -0.0445026 108 56 51
0.0330969 0.0489329 -0.0603882 235 133 128
0.0286043 0.034502 -0.0724708 240 148 146
0.0335944 0.0394717 -0.0772786 255 169 152
0.0361629 0.0457317 -0.0620861 169 105 98
0.0297532 0.042587 -0.0471503 177 77 79
0.0343076 0.0391702 -0.0728186 214 124 115
0.0425457 0.0694893 -0.0419439 94 59 55
0.0358004 0.0391734 -0.071822 180 100 94
0.0299382 0.0294451 -0.0752865 218 152 157
0.0390363 0.0637397 -0.0258034 86 38 35
0.0373098 0.0284724 -0.0796951 155 76 72
0.0410084 0.0582196 -0.0250914 126 89 89
0.0355498 0.0413999 -0.0658052 177 62 53
0.0362706 0.0425979 -0.0324209 255 255 255
0.0335486 0.0304785 -0.0580701 193 90 87
0.041387 0.059234 -0.0241594 74 30 29
0.0392275 0.0352726 -0.0278446 92 50 47
0.0405862 0.0313126 -0.0808468 245 121 115
0.0383522 0.0223505 -0.0581888 174 96 91
0.0386936 0.024843 -0.0624661 172 98 91
0.0357477 0.0181819 -0.0734749 209 136 136
0.042158 0.0200288 -0.0563129 184 125 124
0.0451124 0.0191055 -0.0550755 190 103 95
0.0524189 0.0188605 -0.0386873 120 84 81
0.0456904 0.0185485 -0.0544124 192 130 123
0.0472041 0.00999018 -0.0528661 220 192 183
0.0534776 0.0222339 -0.0643136 209 103 99
0.061407 0.013186 -0.038078 111 68 64
0.0351067 0.0750638 -0.0536462 142 84 81
0.0270279 0.0430161 -0.0722175 217 201 194
0.0298428 0.0451858 -0.0716238 255 103 77
0.0271129 0.0310888 -0.0711556 255 173 163
0.0338735 0.0381603 -0.0808492 233 102 91
0.0316875 0.0359919 -0.0765579 172 229 223
0.0430456 0.0595569 -0.0279188 81 41 38
0.0341311 0.0338106 -0.0726177 191 127 118
0.0406263 0.0480599 -0.0466438 91 64 62
0.0397313 0.0439788 -0.0421351 72 31 26
0.0389579 0.0321379 -0.0302892 105 71 68
0.040319 0.0300113 -0.0623754 172 94 89
0.0339185 0.0456646 -0.0853823 255 228 216
0.0476237 0.0682864 -0.0497261 94 49 47
0.0122442 0.0398243 0.036714 255 255 255
0.0318118 0.0440383 -0.0107302 69 0 17
0.0379425 0.0219672 -0.0699849 157 96 94
0.0426248 0.0184963 -0.0528911 127 62 61
0.0130941 0.0731374 -0.0395087 240 140 141
0.0309387 0.0431953 -0.0782977 207 132 119
0.0301607 0.0425306 -0.0731276 255 255 255
0.0385955 0.0434366 -0.0670973 195 93 88
0.0369879 0.0487028 -0.0736704 117 54 51
0.035712 0.0538696 -0.0310861 255 255 255
0.0380289 0.0220835 -0.0744208 212 123 121
0.0435117 0.0208744 -0.038043 100 62 59
0.0310943 0.0515254 -0.0741552 231 153 149
0.0338006 0.0448287 -0.0820655 229 137 131
0.0293954 0.048312 -0.066478 255 144 136
0.0361982 0.0545443 -0.0603891 171 101 97
0.041974 0.0606295 -0.047255 70 27 25
0.033118 0.0234972 -0.079825 170 90 86
0.0388507 0.0406039 -0.0220237 78 37 35
0.043741 0.0373166 -0.075586 217 109 102
0.0526513 0.0450176 -0.0157031 0 42 69
0.055216 0.030616 -0.0143198 255 255 255
0.0541879 0.0288429 -0.0814325 190 114 110
0.0257349 0.0622732 -0.0579379 214 111 104
0.0329826 0.0432482 -0.0729198 255 182 175
0.0428036 0.020984 -0.0826656 220 138 136
0.0523758 0.0435589 -0.00306334 255 255 255
0.0452283 0.02878 -0.0946747 255 162 158
0.0334334 0.0490713 -0.0717272 253 162 158
0.0293925 0.0381744 -0.0878059 255 214 211
0.0281495 0.0419203 0.00328696 255 255 255
0.0309128 0.0457494 -0.0738132 255 255 255
0.0449143 0.0701785 -0.0361483 79 53 50
0.0342899 0.0408608 -0.0653943 189 88 79
0.036383 0.041004 -0.0259518 255 235 228
0.0582035 0.0493431 -0.0264762 63 30 27
0.0438148 0.0154325 -0.0620339 149 92 89
0.0266351 0.0695536 -0.0538069 185 109 103
0.028033 0.047493 -0.0617723 200 114 110
0.0344404 0.0389863 -0.0790874 246 77 68
0.0320677 0.0408825 -0.0171692 255 255 255
0.0337945 0.047641 -0.0947045 255 147 149
0.0352848 0.06304 -0.0299892 79 30 25
0.0289833 0.035754 -0.0839217 255 162 149
0.0346069 0.0371655 -0.0605263 247 145 140
0.0298083 0.042952 -0.0774133 169 0 0
0.0462966 0.0231379 -0.0615511 239 161 153
0.0390954 0.0689466 -0.026689 82 39 34
0.0321407 0.0432463 -0.0753194 255 255 255
0.0299354 0.0428963 -0.071979 255 255 255
0.0410052 0.0568734 -0.0195589 255 251 226
0.0363291 0.0582843 -0.0252954 255 255 255
0.050075 0.0185043 -0.0355479 110 83 80
0.0638911 0.0363903 0.00310305 255 247 244
0.0356682 0.0358804 -0.0813023 237 149 139
0.0262333 0.0458111 0.00578947 255 252 243
0.0384444 0.0569487 -0.0651199 178 89 84
0.0340664 0.043953 -0.0751013 255 225 215
0.0369501 0.0301612 -0.0251891 226 189 185
0.0348736 0.0423723 -0.0248412 255 255 255
0.0287746 0.0410531 -0.0856428 238 148 145
0.0324201 0.034383 -0.0838339 254 117 108
0.0387247 0.0597162 -0.0264931 98 55 54
0.0401729 0.0344091 -0.0261044 255 226 218
0.0373748 0.0251133 -0.0578388 221 126 122
0.0361734 0.0209366 -0.0653777 203 102 109
0.0361984 0.039779 -0.0786902 246 151 139
0.0313557 0.0424262 -0.0862697 250 198 197
0.0312148 0.0285736 -0.0819813 167 118 110
0.0378271 0.0152001 -0.0643489 157 76 69
0.0649524 0.0270636 -0.0526918 107 60 58
0.0461821 0.0188072 -0.0380637 109 64 61
0.0343374 0.0488642 -0.0813589 255 190 182
0.0404435 0.0578047 -0.0218478 255 255 255
0.0236835 0.0607257 -0.0747634 182 108 106
0.0279882 0.0619359 -0.0746627 200 123 121
0.0313437 0.0514751 -0.0777584 252 213 211
0.0288189 0.0459849 -0.0805348 243 176 175
0.0316571 0.0393133 -0.0749338 255 153 142
0.0480513 0.0578035 -0.0574218 92 48 45
0.0331169 0.0390594 -0.0866207 221 146 135
0.0333223 0.0411503 -0.0733263 255 181 177
0.0278205 0.0497724 -0.0710843 166 47 42
0.0348142 0.0406937 -0.0784638 255 226 213
0.0658366 0.0453787 -0.0271633 53 13 14
0.0567401 0.0403707 -0.0284646 57 24 33
0.0321057 0.0374091 -0.0716949 191 79 79
0.0360819 0.041978 -0.0526838 122 66 62
0.0358795 0.042236 0.0216499 255 213 201
0.042994 0.0167718 -0.0560565 44 0 0
0.0614196 0.047294 -0.00289792 255 255 255
0.0273183 0.0506681 -0.0704325 168 104 103
0.0252535 0.05103 -0.0736385 255 86 69
0.0312734 0.077748 -0.0534266 195 125 120
0.0385754 0.0298517 -0.0595739 167 93 89
0.039395 0.0230603 -0.0670983 175 91 90
0.0333723 0.0179436 -0.0491923 255 246 246
0.0387119 0.057723 -0.0274518 255 255 255
0.0575338 0.0496528 -0.0101044 73 38 36
0.0321225 0.0457075 -0.0716888 248 136 132
0.0318709 0.0460472 -0.0726122 255 255 255
0.0344057 0.0384166 -0.0725731 232 146 143
0.0308515 0.0360858 -0.0694727 197 188 171
0.041922 0.0355596 -0.0378673 62 13 11
0.0368888 0.0185236 -0.0551963 35 0 0
0.0285038 0.051482 -0.0743569 188 91 85
0.0339854 0.0444614 -0.0865561 241 226 220
0.0333563 0.0465245 -0.0741769 255 255 255
0.0482208 0.0166631 -0.0348681 146 112 111
0.041808 0.0213139 -0.0573693 255 255 255
0.0383994 0.0331057 -0.0176924 173 119 120
0.0287397 0.037028 -0.0811401 255 154 150
0.02773 0.0568069 -0.0600187 208 107 105
0.034601 0.0449235 0.000727031 60 18 12
0.0247295 0.0532379 -0.0803412 228 105 125
0.0362426 0.0380985 -0.0826418 237 140 137
0.0315276 0.0394201 -0.0704779 226 122 118
0.0317354 0.0562844 -0.00946566 255 255 255
0.032746 0.0526648 -0.0210303 255 255 255
0.034635 0.0402461 -0.0798331 255 255 255
0.0287479 0.055717 -0.0712095 154 80 73
0.022723 0.0411414 0.0210317 255 255 255
0.044303 0.052269 -0.0535997 79 40 38
0.0344916 0.0259793 -0.0400755 188 64 59
0.0330111 0.0448512 -0.0728707 255 186 176
0.0364502 0.0494405 -0.0283154 85 39 38
0.0456772 0.0476743 -0.0148085 232 181 179
0.0359857 0.0397335 -0.0799389 219 162 152
0.033554 0.0440701 -0.075578 255 255 255
0.0400974 0.0570961 -0.0197408 255 255 255
0.034614 0.0405024 -0.0834843 255 138 131
0.0356854 0.030644 -0.0853543 208 111 109
0.0285867 0.0543101 -0.00493543 255 255 255
0.0186454 0.0744947 -0.0553474 117 60 58
0.0248284 0.0741477 -0.0521169 139 78 76
0.0331401 0.0442423 -0.0864465 254 255 255
0.0264428 0.0590442 -0.0852642 255 79 76
0.0393511 0.0611483 -0.0309456 71 31 29
0.0321703 0.0379507 -0.0791782 255 98 104
0.0406708 0.0611177 -0.0163208 86 53 49
0.0393341 0.0606745 -0.03654 73 34 31
0.041468 0.0465323 -0.0502467 76 38 35
0.0380123 0.0248184 -0.0663608 141 77 76
0.0341805 0.0236142 -0.0727162 207 104 107
0.0634545 0.039439 -0.0202133 78 38 38
0.0502151 0.0394317 -0.024661 85 47 40
0.0388342 0.0434303 -0.027274 78 44 41
0.0236593 0.0499913 -0.0797925 255 161 157
0.0526855 0.0175466 -0.0319375 123 85 81
0.0317288 0.0433513 -0.0727028 245 204 194
0.0335218 0.0462326 -0.0735707 255 181 173
0.031514 0.0372268 -0.0751929 227 160 169
0.0413145 0.0159392 -0.0623743 197 144 138
0.0325602 0.045688 -0.0740289 255 255 255
0.0410398 0.0569319 -0.0216937 255 255 255
0.0285164 0.0228297 -0.0254395 166 74 61
0.03449 0.0404319 -0.0794854 255 229 227
0.0353819 0.0135576 -0.0723855 169 102 100
0.0311778 0.0496906 -0.0792618 254 183 176
0.0327171 0.0640352 -0.0203221 255 255 255
0.036278 0.0185706 -0.0379484 115 99 98
0.0192228 0.0364407 0.0313653 255 255 255
0.0362069 0.0392289 -0.0878862 245 255 255
0.0309236 0.0451874 -0.0805497 238 198 189
0.0330541 0.0455885 -0.0715576 255 148 148
0.0326782 0.0374798 -0.0845464 239 169 162
0.0359449 0.0636538 -0.0379755 70 21 18
0.0467678 0.0531084 -0.0529102 80 34 34
0.0398133 0.0436916 -0.0419512 81 43 40
0.0370286 0.0465553 -0.0187348 114 66 59
0.0408154 0.0300697 -0.0279722 89 45 41
0.0446006 0.0477564 -0.0235934 77 34 32
0.062333 0.0396817 -0.0371732 78 36 35
0.0637169 0.0483903 -0.0682608 74 36 34
0.0383133 0.0437203 -0.026236 23 0 0
0.0544705 0.0159577 -0.0329762 128 68 63
0.0320639 0.0421196 -0.0207478 255 255 255
0.0524587 0.0433451 -0.000807286 231 255 255
0.0338414 0.0444309 -0.0735119 255 182 175
0.0345426 0.0387269 -0.0806835 255 197 191
0.0307045 0.041812 -0.0739189 255 244 245
0.0174443 0.0555651 0.0207724 255 255 255
0.0325223 0.0409689 -0.0779696 251 199 198
0.0390138 0.0527454 -0.0262446 89 46 42
0.0245739 0.0570392 -0.0757102 169 101 97
0.0300309 0.0457399 -0.0699453 255 255 255
0.0460958 0.0187629 -0.0518089 70 0 0
0.0332336 0.0669353 -0.0729312 143 69 67
0.025439 0.0690522 -0.0560032 130 52 46
0.0379737 0.0441246 -0.0930403 253 188 183
0.0366401 0.0276242 -0.0857204 241 163 162
0.035952 0.0331407 -0.084177 189 139 137
0.0512519 0.0530186 -0.0593861 78 34 32
0.0352075 0.0370752 -0.054791 111 55 51
0.0350085 0.0266878 -0.0683515 193 118 117
0.040714 0.0235808 -0.0584977 255 208 192
0.0486233 0.0176738 -0.0480101 21 1 2
0.0473249 0.0246584 -0.0618244 168 96 93
0.0650702 0.044586 -0.073263 23 8 7
0.0280512 0.0609244 -0.0600255 202 112 105
0.0190544 0.03907 0.0192154 255 255 255
0.0318708 0.0295926 -0.0928995 211 182 179
0.0467217 0.0552945 -0.0523378 71 31 28
0.0342535 0.0417529 -0.0267831 255 255 255
0.0345622 0.0379055 -0.0737473 228 134 130
0.037181 0.0584164 -0.0254279 255 255 255
0.0303044 0.0461503 -0.093739 237 176 173
0.0322438 0.0461522 -0.0835071 248 181 176
0.0291418 0.0431244 -0.0702669 255 255 255
0.0410644 0.0417088 -0.0358643 93 54 47
0.0391345 0.0114261 -0.0715531 179 118 118
0.0288855 0.0521419 -0.0771459 255 209 205
0.0172612 0.0593795 -0.0660942 184 123 124
0.0388066 0.0513374 -0.08029 238 244 240
0.0291376 0.0488074 -0.071815 192 91 94
0.0363383 0.0554427 -0.0598784 39 0 0
0.0321375 0.0293815 -0.0794861 54 87 104
0.0412963 0.0499036 -0.0444236 110 61 58
0.0379005 0.0326696 -0.0270354 94 47 42
0.0407612 0.0463709 -0.0345825 84 46 38
0.0556356 0.0460822 -0.0226969 70 31 28
0.0553414 0.0471722 -0.020336 71 29 26
0.0469748 0.0175803 -0.0309094 35 0 0
0.0591413 0.0406233 -0.0416758 70 32 27
0.0472279 0.01806 -0.0619795 115 63 62
0.0334241 0.0548233 -0.0563017 255 202 202
0.0279389 0.0444418 -0.0258834 255 255 255
0.0434974 0.067256 -0.0324542 71 32 29
0.036402 0.0253704 -0.0781709 170 132 138
0.0369805 0.0363676 -0.0827037 244 145 138
0.0356888 0.0400181 -0.0790951 241 201 189
0.0589287 0.0436943 -0.0307258 75 34 32
0.0457929 0.0529231 -0.0592175 81 39 37
0.0347124 0.0413205 -0.0813727 216 112 106
0.0330083 0.0684693 -0.0148554 255 255 255
0.0472137 0.0588371 -0.067989 108 56 55
0.0367415 0.0599601 -0.0218479 85 42 40
0.0543256 0.0178774 -0.0499841 37 0 0
0.0272927 0.0473096 -0.0806609 255 231 224
0.0348742 0.065466 -0.0847228 255 134 126
0.049966 0.043238 -0.0144026 91 47 44
0.0467434 0.0293483 -0.0704968 204 108 99
0.0630075 0.0351968 0.013074 255 255 255
0.0398529 0.0615805 -0.0247538 52 11 12
0.0370342 0.0643097 -0.030555 255 255 255
0.0325735 0.043807 -0.0765041 209 169 167
0.0480518 0.0179192 -0.0483116 70 29 26
0.0619455 0.0433707 0.00396758 255 255 255
0.0515283 0.0458713 -0.0187412 82 39 36
0.0507144 0.0435126 0.0152374 255 255 255
0.0337958 0.0464856 -0.0731296 255 255 255
0.0351761 0.0489133 -0.0279585 61 15 14
0.031717 0.0431331 -0.0890836 255 255 253
0.0374885 0.0642211 -0.0268253 62 0 0
0.058896 0.0169338 -0.026532 53 0 0
0.0640643 0.035654 0.00463232 255 255 255
0.046841 0.0136018 -0.0648345 84 44 45
0.0298225 0.0559673 -0.0537491 255 126 113
0.0331964 0.0438776 -0.0753527 255 255 255
0.0162779 0.0461554 0.0376566 255 255 255
0.0385641 0.0503838 -0.0435293 67 18 16
0.0315783 0.0435914 -0.07315 255 255 255
0.0423135 0.0666885 -0.0846222 235 112 102
0.0623179 0.0366668 0.00751367 255 255 255
0.04183 0.0458433 -0.0467016 82 42 39
0.0125284 0.0564075 -0.0723688 255 169 163
0.051634 0.0212613 -0.0628221 180 112 110
0.0291496 0.0324184 -0.0833577 255 185 173
0.037833 0.056125 -0.0106823 255 255 255
0.0406421 0.0522827 -0.0458275 255 255 255
0.0318922 0.0433022 -0.073235 227 141 131
0.0173507 0.0545738 0.0212759 255 255 255
0.0320947 0.0427707 -0.0757377 255 255 255
0.0293442 0.063967 -0.012073 255 255 255
0.0638865 0.0377972 -0.000792281 255 255 255
0.0564243 0.0320836 0.0026535 255 255 255
0.0399398 0.0601847 -0.0925441 255 213 207
0.0444118 0.0309217 -0.0915562 255 252 254
0.0557068 0.0285988 -0.0888355 222 120 116
0.0259564 0.0645242 -0.0715365 150 71 67
0.042676 0.0648943 -0.0903996 255 166 155
0.0422403 0.0523346 -0.0496916 71 34 30
0.0463429 0.0486835 -0.0231838 100 59 58
0.0353728 0.0400498 -0.0201546 255 255 254
0.0300805 0.0432572 -0.0739719 240 255 255
0.0369486 0.042956 -0.0223998 255 255 255
0.0246595 0.0660051 -0.0746688 195 123 124
0.0275682 0.0740151 -0.0389062 113 81 78
0.0319083 0.0468232 -0.0114516 255 255 255
0.0287157 0.0404982 0.00795975 255 255 255
0.0651249 0.0398769 0.00238822 255 255 255
0.0290442 0.0458076 -0.0698598 255 255 255
0.0375741 0.0553741 -0.00909902 255 255 249
0.0258384 0.0687012 -0.00211206 237 249 254
0.0575382 0.0360236 -0.017875 255 255 255
0.0362231 0.025187 -0.0754952 206 126 117
0.0578734 0.0370165 -0.00749107 255 255 255
0.0327869 0.0441083 -0.0750502 255 255 255
0.0636276 0.0481606 -0.0773687 44 17 13
0.0355307 0.0432818 -0.0312679 255 255 255
0.0369767 0.039882 -0.0882331 228 204 203
0.0269106 0.0663725 -0.00221806 255 255 255
0.0585794 0.0398963 -0.0153427 255 255 255
0.0290108 0.0476878 -0.0160732 255 255 255
0.0423131 0.011848 -0.0702712 155 93 92
0.03642 0.0391188 -0.0845421 219 186 181
0.0324831 0.0477354 -0.0722057 255 159 157
0.0163833 0.039843 0.0255078 255 255 255
0.0380554 0.0518372 -0.0394483 255 255 255
0.0570496 0.0353208 -0.00586158 255 255 255
0.0101511 0.0780735 -0.0300344 255 165 154
0.0565529 0.0335028 -0.00176819 255 255 255
0.0511386 0.0461902 -0.100498 255 159 153
0.0513243 0.0406516 -0.100713 255 121 117
0.0337799 0.0739452 -0.0443363 92 53 51
0.0286745 0.0707017 -0.0718742 172 75 72
0.0346726 0.0313363 -0.0902811 255 161 155
0.0631123 0.03923 0.000236707 255 255 255
0.0374183 0.081835 -0.0526317 139 78 74
0.0187112 0.07028 -0.0432499 255 161 163
0.0302988 0.0621234 -0.0863901 201 54 47
0.0325652 0.0465606 -0.0928048 236 169 165
0.0372316 0.050044 -0.0784995 243 185 178
0.0414967 0.0707989 -0.0857548 229 107 97
0.0260599 0.0347388 -0.0915139 236 208 203
0.0333783 0.0681179 -0.0154321 255 255 255
0.0392127 0.0627979 -0.0921888 255 214 207
0.023598 0.0656002 -0.0524556 201 108 102
0.056431 0.0341814 -0.0143778 255 255 255
0.058182 0.0380594 -0.00978021 255 255 255
0.0499587 0.0467875 -0.102834 255 153 148
0.0511535 0.0400993 -0.102226 255 116 112
0.0125033 0.0751076 -0.0353273 227 115 105
0.0337056 0.0367971 -0.0927514 255 255 255
0.0236801 0.0776762 -0.0600461 125 72 70
0.0498557 0.047956 -0.102886 255 148 144
0.0305383 0.0346541 -0.0919068 255 255 255
0.0396754 0.0651123 -0.0775804 239 105 95
0.0432004 0.0279732 -0.0926068 255 151 144
0.0567899 0.000222876 -0.0678187 175 98 97
0.042365 0.0578557 -0.0942047 252 255 251
0.0479837 0.0203468 -0.0769174 255 161 159
0.030479 0.0701671 -0.0713355 182 93 88
0.0352514 0.0380901 -0.094508 255 255 255
0.0550096 0.0633273 -0.0932794 255 151 138
0.0239957 0.0708615 -0.0547069 128 54 48
0.0366319 0.0513117 -0.0629731 152 90 82
0.0370605 0.0602079 -0.0931371 253 255 250
0.0432595 0.0395108 -0.0889577 255 219 209
0.0296041 0.0709942 -0.0696974 177 88 83
0.0341333 0.0367207 -0.0915734 255 255 255
0.0326797 0.0478971 -0.0813197 252 137 130
0.0239386 0.0593387 -0.0638872 127 61 54
0.0264366 0.064274 -0.0628355 129 50 46
0.026642 0.0580439 -0.0662653 110 39 33
0.0284619 0.0726856 -0.0569139 121 62 60
0.0288175 0.0664192 -0.0586828 139 57 52
0.0279244 0.0703705 -0.0566852 129 52 46
0.0275738 0.0540241 -0.06566 123 48 41
0.0317725 0.0550519 -0.0726206 143 61 52
0.0310983 0.0526464 -0.0723953 144 70 69
0.0270005 0.0726506 -0.0561954 122 58 54
0.0344841 0.0464403 -0.0821 228 164 166
0.0274496 0.0656772 -0.0582559 144 61 56
0.0362079 0.0481586 -0.0806692 116 72 58
0.0259619 0.0573255 -0.0618386 124 38 29
0.0348119 0.0405407 -0.0775128 193 139 136
0.0351454 0.0453808 -0.0786668 206 150 140
0.0323582 0.0711412 -0.0511524 138 71 69
0.0320737 0.0493745 -0.0747476 210 84 78
0.0294107 0.0673569 -0.049084 150 69 64
0.0328918 0.0537436 -0.0665388 164 71 64
0.0350403 0.0508072 -0.072253 152 70 65
0.0349397 0.062039 -0.0556531 38 0 0
0.0272078 0.0745573 -0.0368839 49 11 8
0.0310764 0.0575022 -0.0571865 131 38 25
0.0295483 0.0532741 -0.0625481 148 56 49
0.034799 0.0405944 -0.0735132 192 81 82
0.0334783 0.0605019 -0.0533032 44 3 0
0.0359815 0.0443992 -0.0829079 196 125 122
0.0268082 0.0614818 -0.0491223 53 0 0
0.0272384 0.0701386 -0.0342104 57 12 8
0.0415609 0.0652482 -0.048089 42 25 26
0.0362006 0.0597678 -0.0467973 92 39 33
0.0345035 0.0692347 -0.0351432 73 22 17
0.0293236 0.0550953 -0.0470606 53 2 0
0.0419776 0.0593914 -0.0448136 86 46 43
0.0358862 0.0626218 -0.0323396 71 28 24
0.0355572 0.0509741 -0.059038 43 25 17
0.0316793 0.0408198 -0.0671868 195 114 107
0.0294342 0.0457773 -0.0510481 0 0 0
0.046202 0.0645167 -0.055356 86 42 39
0.0372094 0.0469341 -0.062508 44 0 0
0.0369063 0.0320797 -0.0809067 208 131 129
0.0192974 0.0421707 -0.0426191 98 0 0
0.035138 0.0418966 -0.0612961 157 57 48
0.0481225 0.0517093 -0.0670512 71 31 28
0.0313796 0.0324458 -0.0618962 135 38 30
0.0345594 0.036226 -0.0692309 143 62 55
0.029904 0.0316547 -0.0632104 126 59 58
0.0364896 0.029815 -0.078007 130 55 50
0.0346013 0.0370975 -0.0640849 152 74 69
0.0364489 0.0662697 -0.029746 78 36 34
0.0321949 0.0522393 -0.027104 82 46 45
0.034444 0.0399226 -0.0565013 47 0 0
0.0490005 0.0583378 -0.0554478 102 42 40
0.0375922 0.0590502 -0.026842 76 41 40
0.0322289 0.0452142 -0.0482496 127 78 75
0.0476784 0.0534945 -0.0581929 79 36 34
0.0354845 0.0592776 -0.0147036 83 45 43
0.0318015 0.0313728 -0.072868 179 97 91
0.0368354 0.0445092 -0.0592311 86 31 30
0.035159 0.0372828 -0.0696761 156 75 70
0.0389386 0.0513408 -0.0358359 45 0 0
0.033284 0.0311921 -0.0624362 98 34 29
0.03274 0.0445256 -0.0404273 99 51 51
0.0323844 0.0419186 -0.0440763 141 73 75
0.0281295 0.0372359 -0.0457462 109 47 38
0.0356592 0.0304553 -0.0771229 175 108 103
0.0253202 0.0404418 -0.0338249 105 51 50
0.039642 0.0472097 -0.0407973 71 30 25
0.0282712 0.0339001 -0.0426049 128 72 69
0.0470186 0.0546896 -0.0448333 83 45 42
0.0369059 0.0517606 -0.0291058 83 43 37
0.051008 0.0617802 -0.0409188 73 35 32
0.0460191 0.0600225 -0.0214538 58 22 20
0.0354375 0.0343996 -0.0562561 110 67 64
0.0438775 0.0437965 -0.0490243 71 30 27
0.0414636 0.0434375 -0.0427525 62 19 18
0.0299423 0.0272881 -0.0474707 151 91 83
0.0347061 0.0394148 -0.0498657 120 67 63
0.0405417 0.0313112 -0.0604735 58 21 17
0.0419245 0.0453886 -0.0466751 84 37 37
0.02916 0.0383007 -0.0304804 115 74 69
0.0398138 0.0472078 -0.0273229 87 41 39
0.0454192 0.0551079 -0.0273122 50 16 13
0.0285759 0.0321375 -0.0412467 118 57 55
0.0427642 0.0417605 -0.0454999 64 28 28
0.0491208 0.0523609 -0.034411 65 27 24
0.0277186 0.0307613 -0.0398927 131 75 66
0.0430627 0.0316663 -0.0664922 169 86 80
0.0404507 0.0257591 -0.0730613 129 78 75
0.0408121 0.0447454 -0.0365319 79 41 38
0.0323122 0.0299128 -0.0445645 92 53 46
0.0378375 0.022763 -0.0705661 151 87 83
0.0416037 0.0293232 -0.0787051 186 96 95
0.0432957 0.0427102 -0.0465701 83 44 41
0.0388374 0.0352455 -0.050067 122 73 69
0.0417208 0.0273926 -0.0767012 141 61 51
0.0377595 0.0227214 -0.0712512 157 85 84
0.036383 0.0306172 -0.0418492 109 66 66
0.0488734 0.0552809 -0.0241627 65 29 26
0.0359255 0.0218409 -0.0361252 110 70 68
0.050317 0.0567731 -0.0263979 92 51 51
0.0427361 0.0524569 -0.0100192 55 14 14
0.039441 0.032005 -0.0492879 131 75 71
0.0481048 0.0520389 -0.0108924 79 41 40
0.0507133 0.0590239 -0.011284 62 25 23
0.0483653 0.0500086 -0.0168736 33 10 7
0.0540967 0.0605752 -0.0185301 80 44 42
0.0528894 0.0495709 -0.016214 74 33 32
0.0543038 0.0526781 -0.0247717 71 33 31
0.0558818 0.0462286 -0.041563 81 37 34
0.0509783 0.0467943 -0.0399515 86 41 38
0.05518 0.0567856 -0.0148383 89 42 40
0.0565223 0.0553043 -0.0103462 90 48 45
0.0503978 0.0463611 -0.0269368 82 38 36
0.056344 0.0539165 -0.0280569 72 35 31
0.0521997 0.0474535 -0.000176183 91 52 48
0.0530033 0.0456945 -0.0209581 119 48 41
0.0569887 0.0532397 -0.0417645 52 13 12
0.0549168 0.051518 -0.0245888 71 30 27
0.0452949 0.0298573 -0.0432584 65 30 28
0.0555038 0.0449126 -0.0416147 75 30 26
0.0429431 0.0235507 -0.0380809 82 56 54
0.0519035 0.0458838 -0.0290027 87 44 42
0.0471235 0.0219049 -0.072477 148 98 95
0.0565358 0.0505114 -0.02885 60 26 21
0.0586763 0.048953 -0.0328599 57 19 18
0.0470407 0.0253715 -0.0696557 119 66 63
0.0553262 0.0500978 -0.0349077 61 19 17
0.0551047 0.0539751 -0.0387476 76 33 30
0.0542319 0.042175 -0.0410852 85 48 46
0.0516916 0.0221902 -0.0677684 89 41 36
0.0447724 0.0219724 -0.0650811 104 26 21
0.0590914 0.0493678 -0.0193804 58 27 22
0.0426486 0.018995 -0.0604791 69 0 0
0.0582756 0.0442043 -0.0499178 80 39 36
0.0447366 0.0229764 -0.0389778 34 4 0
0.0395138 0.0198167 -0.0283721 57 27 23
0.0431544 0.0188216 -0.0282456 61 29 27
0.0565226 0.0459946 -0.0396633 79 36 33
0.044629 0.017977 -0.070015 120 57 50
0.0601688 0.0510812 -0.0490403 72 35 33
0.0597777 0.0461541 -0.0435073 77 33 30
0.0589684 0.0422084 -0.0238673 69 32 29
0.0506601 0.022867 -0.0664867 155 77 70
0.0597002 0.0492501 -0.0412498 71 30 28
0.0583322 0.0452925 -0.0290112 75 31 29
0.0558248 0.0387405 -0.0239826 72 33 30
0.0575125 0.0427755 -0.0410786 83 41 38
0.0544098 0.035231 -0.051947 75 36 33
0.0494357 0.0189559 -0.0644607 110 63 65
0.0552317 0.041043 -0.0315144 61 22 19
0.0560581 0.0365978 -0.0322078 69 30 28
0.0593744 0.0407609 -0.0500487 100 50 43
0.0452866 0.0165024 -0.0435099 78 37 35
0.0506449 0.0264977 -0.0703537 139 71 69
0.0624147 0.0434914 -0.0400968 80 40 35
0.0459058 0.0167803 -0.0580961 106 33 30
0.0577895 0.0370013 -0.0350229 72 31 31
0.0618164 0.048751 -0.0613591 66 27 25
0.0614971 0.0392497 -0.0290443 60 16 16
0.0613468 0.0450036 -0.0520774 85 39 37
0.0483975 0.0245696 -0.0736143 101 44 40
0.0594326 0.0405518 -0.0488109 68 30 29
0.0525558 0.0345714 -0.0554807 66 29 27
0.0510336 0.0221197 -0.0753971 98 42 41
0.0473815 0.0211163 -0.0681 121 66 64
0.0616201 0.0483294 -0.050459 76 34 32
0.0633308 0.0464443 -0.0469211 80 39 35
0.0502582 0.0232383 -0.0736052 108 56 54
0.0647947 0.0396916 -0.0285921 55 10 8
0.060494 0.0433135 -0.0284611 72 30 28
0.0492257 0.0254487 -0.0293892 67 28 27
0.0499379 0.0195814 -0.029772 81 44 42
0.0507657 0.0183359 -0.0349999 30 0 0
0.0503126 0.0238186 -0.0753858 120 60 57
0.0527435 0.0239826 -0.0734185 128 76 74
0.0635565 0.043284 -0.0346717 82 39 36
0.0598022 0.034898 -0.0358356 83 39 36
0.0465678 0.0261656 -0.0183598 60 24 22
0.0462196 0.0166559 -0.0646202 119 66 64
0.0647759 0.0473993 -0.0653249 57 28 26
0.0444588 0.0247803 -0.0685336 128 86 82
0.0629951 0.0440536 -0.0524308 77 35 33
0.0570512 0.0300685 -0.0155211 81 41 38
0.0488453 0.0171991 -0.0667784 105 54 50
0.0589779 0.0388194 -0.0350793 90 46 44
0.0513178 0.0210865 -0.0540223 72 34 32
0.0473079 0.0106534 -0.0651657 181 92 95
0.0572095 0.0357667 -0.0353707 46 10 0
0.0447832 0.014265 -0.0687098 210 93 96
0.0601963 0.036882 -0.0388623 75 37 35
0.0660605 0.0313657 -0.025021 71 33 29
0.0659594 0.0463621 -0.0319286 24 0 0
0.059257 0.0419493 -0.0381177 73 33 30
0.0557326 0.0333454 -0.0315206 77 38 35
0.0502899 0.02282 -0.0633287 160 83 78
0.0555693 0.0246651 -0.0378442 66 35 32
0.0508859 0.0242328 -0.0736849 106 47 46
0.0491873 0.0155469 -0.0663086 93 50 51
0.0554478 0.0309513 -0.016456 26 0 0
0.0519868 0.0207453 -0.0331718 64 28 26
0.0456873 0.0189374 -0.062073 109 50 48
0.0619222 0.0411674 -0.0573908 74 33 31
0.0596954 0.0319452 -0.0181278 68 25 21
0.058004 0.0302907 -0.0174171 56 21 18
0.0481565 0.0203413 -0.0578101 141 66 62
0.0491993 0.0243342 -0.0634129 176 98 92
0.0494186 0.0175215 -0.0680004 109 56 54
0.0534823 0.0250425 -0.0723213 129 72 68
0.0561915 0.0214378 -0.0321293 38 23 19
0.0655744 0.045971 -0.0389249 50 18 17
0.0583746 0.0321965 -0.0400041 86 50 50
0.0516892 0.0226048 -0.0704842 130 75 70
0.0534176 0.0195016 -0.0646899 153 88 84
0.0609723 0.0436835 -0.0451382 74 34 32
0.0511937 0.0180643 -0.066083 129 62 56
0.0502882 0.0145752 -0.070105 156 88 88
0.0512488 0.017031 -0.0624771 120 61 58
0.0530209 0.0263343 -0.0719246 149 73 67
0.0635587 0.0437041 -0.0470532 64 30 30
0.0642467 0.0430229 -0.04968 65 29 26
0.0653769 0.0399454 -0.034693 67 33 32
0.0628974 0.0405532 -0.0576083 69 31 30
0.0646743 0.0385499 -0.0446722 63 24 22
0.0603678 0.0337708 -0.0435402 70 26 26
0.0621249 0.0392853 -0.0439458 81 40 38
0.0605688 0.0308127 -0.0261288 56 18 14
0.054731 0.0213583 -0.0610196 154 69 64
0.0628126 0.0388588 -0.0320651 66 22 16
0.0521029 0.0226787 -0.0700403 165 84 81
0.0670992 0.0429172 -0.0318547 29 12 10
0.0596692 0.0267544 -0.014113 86 49 46
0.0539565 0.0239583 -0.0675192 162 90 84
0.0621532 0.0478785 -0.0640896 67 37 34
0.0501663 0.0255912 -0.0770615 135 73 71
0.0522996 0.024375 -0.067072 160 86 82
0.0509809 0.0178044 -0.0624559 133 76 71
0.0623108 0.0290457 -0.0312952 90 38 44
0.0541968 0.0247676 -0.080892 142 70 66
0.0599693 0.0207127 -0.0221027 69 37 37
0.0456067 0.0218797 -0.0243063 77 41 38
0.0666792 0.0482216 -0.0538493 65 27 23
0.065836 0.0456071 -0.060156 38 27 21
0.018695 0.0751198 -0.0482772 193 88 84
0.0216497 0.0627101 -0.0576915 172 104 106
0.0306465 0.071016 -0.0558661 128 67 65
0.0247624 0.061792 -0.0547369 181 120 102
0.0180773 0.052796 -0.0670473 255 138 137
0.0366481 0.0749094 -0.0504623 85 54 54
0.0323607 0.0474435 -0.0710962 255 174 167
0.0288277 0.0442576 -0.0723853 255 156 151
0.0285317 0.0479374 -0.0735468 240 147 145
0.0337978 0.0513775 -0.0716323 72 22 20
0.0337082 0.0437663 -0.0803084 255 115 104
0.0269795 0.0440509 -0.0706432 255 255 247
0.0308611 0.0543404 -0.0571381 245 129 119
0.0327366 0.0599406 -0.056764 176 95 92
0.0324778 0.0557483 -0.0576411 229 131 119
0.0317818 0.055001 -0.0540307 255 239 237
0.0301932 0.0463679 -0.0737852 242 161 168
0.038662 0.0655561 -0.0273666 193 139 139
0.0334394 0.0523335 -0.0565143 255 196 186
0.0291821 0.0538607 -0.055479 236 129 118
0.033677 0.0524668 -0.0586243 166 79 75
0.0328556 0.0502534 -0.0600365 225 118 114
0.0317262 0.0405094 -0.0680518 211 115 118
0.0358428 0.0629924 -0.022173 255 181 199
0.0384677 0.0614659 -0.0348295 54 0 0
0.0303368 0.0366101 -0.0576098 195 121 118
0.0278811 0.0362211 -0.0506514 230 132 134
0.0341058 0.0399487 -0.0606424 168 45 38
0.0330497 0.0428516 -0.0639236 203 110 106
0.0423157 0.0540071 -0.0306181 102 49 44
0.0458403 0.0583144 -0.0407246 118 60 55
0.0262567 0.0290075 -0.0501288 167 101 102
0.0383295 0.0581549 -0.0234978 3 0 0
0.0340915 0.032679 -0.0641524 191 100 98
0.0371813 0.0291031 -0.0628926 175 76 71
0.0353067 0.0321861 -0.0603643 188 93 82
0.0328206 0.0304666 -0.0557484 253 148 141
0.0464727 0.0480038 -0.0189757 236 186 190
0.036933 0.0249016 -0.0603688 215 127 120
0.0357066 0.0281739 -0.0571794 252 150 148
0.04821 0.0486211 -0.0231 87 46 44
0.0349019 0.0254345 -0.0428857 109 72 68
0.0352441 0.0267355 -0.0605613 153 73 66
0.0412448 0.0376307 -0.0246863 145 125 128
0.0398676 0.0260972 -0.0574946 154 89 86
0.0355995 0.0210955 -0.0751944 170 117 120
0.0408576 0.0239465 -0.0595006 234 159 150
0.0370302 0.0224591 -0.0346184 42 7 0
0.0416594 0.0230713 -0.058164 180 100 95
0.0417706 0.0232095 -0.0599032 163 70 65
0.0469294 0.0176632 -0.0376618 97 52 50
0.0564597 0.0382511 -0.0401932 82 45 40
0.0436098 0.0191999 -0.0658547 141 104 103
0.0552732 0.0472014 -0.0148222 71 23 21
0.044062 0.0210321 -0.0551162 160 82 80
0.042916 0.0191668 -0.0578118 166 73 63
0.0547518 0.0137992 -0.0279822 126 82 79
0.050163 0.013921 -0.0319237 120 87 91
0.0543582 0.0464801 -0.0124436 83 29 30
0.0680638 0.0425784 -0.0241923 183 84 77
0.0294609 0.0587184 -0.064836 202 131 131
0.0242972 0.0585054 -0.0623487 176 90 81
0.0331315 0.0759365 -0.0488233 149 93 90
0.0274446 0.0510918 -0.0729262 255 112 103
0.0326742 0.0459479 -0.0857195 253 209 203
0.0308446 0.0484949 -0.0702037 240 140 126
0.0329977 0.0657089 -0.0548362 146 83 78
0.0319416 0.0608243 -0.0559425 182 92 87
0.0316314 0.0464137 -0.0794247 255 147 133
0.0327122 0.0632319 -0.0550168 133 59 51
0.0320503 0.0507167 -0.0572158 239 143 125
0.0267401 0.0352419 -0.0680477 189 125 123
0.0344392 0.0481972 -0.0614415 151 59 55
0.0231935 0.0385632 -0.0498643 255 160 155
0.0345001 0.038399 -0.0718296 226 125 122
0.0325321 0.0449285 -0.0586195 252 151 145
0.0342847 0.0424762 -0.0619919 218 114 107
0.0400912 0.0684636 -0.0413799 95 50 49
0.0337898 0.0373179 -0.0698703 203 129 126
0.0296249 0.0361939 -0.0452416 154 84 79
0.0345519 0.0298402 -0.0837631 162 75 73
0.0399017 0.0578726 -0.0229298 134 86 85
0.0321906 0.0292399 -0.0547904 255 162 147
0.0418061 0.059575 -0.0268474 76 34 31
0.036858 0.0292848 -0.063431 182 76 70
0.0349454 0.030059 -0.0602126 146 46 39
0.0372815 0.024831 -0.0590468 219 101 91
0.0393756 0.0254669 -0.0759589 249 113 110
0.0401694 0.0169581 -0.0708704 187 128 129
0.0413408 0.0232622 -0.060389 156 71 70
0.0399422 0.0242938 -0.0565103 204 116 112
0.0392162 0.0203699 -0.0588161 178 117 110
0.0387842 0.0189321 -0.0726544 198 139 145
0.0389851 0.0156161 -0.0729546 167 105 103
0.0417561 0.0183908 -0.05646 186 124 115
0.043303 0.0151296 -0.0510878 240 167 165
0.0349613 0.0416938 -0.087398 198 134 127
0.0352657 0.0400771 -0.0787393 236 177 167
0.03354 0.0356997 -0.0724431 210 116 111
0.0403753 0.0482495 -0.044822 86 47 42
0.0342088 0.0316737 -0.0243508 143 102 96
0.0395653 0.0286936 -0.0624082 228 126 117
0.0312913 0.0493236 -0.0761147 223 149 142
0.0318646 0.0443998 -0.0809335 255 218 209
0.034952 0.0389509 -0.0718078 208 115 113
0.0333309 0.0365434 -0.0720935 228 146 140
0.0348844 0.0668443 -0.0328661 22 0 0
0.0435034 0.0697142 -0.0531622 103 53 54
0.00931302 0.0369391 0.0384735 255 255 255
0.0315867 0.0414531 -0.0131348 90 65 56
0.0434838 0.0184752 -0.0549674 150 62 57
0.0328198 0.0474649 -0.0764467 185 111 104
0.0357737 0.0541101 -0.0313774 255 255 255
0.0421466 0.0569986 -0.0221162 255 255 255
0.0337291 0.0302036 -0.0843511 215 107 108
0.0311067 0.0511925 -0.0771499 253 145 140
0.0334558 0.0403987 -0.0801772 163 26 21
0.0294837 0.0501279 -0.0684849 251 163 161
0.032606 0.0392216 -0.08046 233 167 164
0.0427532 0.0603198 -0.0489986 76 33 30
0.0315873 0.0257613 -0.0783436 255 186 156
0.0505798 0.0472382 -0.0181076 209 179 184
