ply
format ascii 1.0
comment Created by Open3D
element vertex 1559
property double x
property double y
property double z
end_header
0.0558463 0.0453187 -0.0179713
0.0482077 0.0489929 -0.0178408
0.0495621 0.0352928 -0.0217985
0.0531735 0.0532421 -0.0149512
0.0508665 0.0360208 -0.0192493
0.0492907 0.0370857 -0.0168068
0.0599803 0.041836 -0.0385293
0.0531196 0.0377893 -0.0190475
0.0438111 0.0399398 -0.0201187
0.0428164 0.0376257 -0.0198187
0.0440755 0.0384464 -0.0225034
0.0590209 0.034904 -0.0321921
0.051597 0.0492854 -0.0315327
0.0473802 0.0363627 -0.0225974
0.0456194 0.0394542 -0.0196664
0.0520936 0.0378481 -0.0178453
0.0458342 0.0386318 -0.0347362
0.0543133 0.0388701 -0.0376128
0.0545915 0.0408793 -0.0380997
0.0541582 0.0383614 -0.0386356
0.0579503 0.0431305 -0.037433
0.0407525 0.0393304 -0.0340085
0.0578085 0.0428297 -0.0348987
0.0562664 0.0390065 -0.0384044
0.0364671 0.0327999 -0.0236887
0.0551836 0.0400236 -0.0373613
0.0460936 0.0398434 -0.0381989
0.0546857 0.0398258 -0.0374448
0.0548788 0.0420485 -0.0384052
0.0523227 0.0627322 -0.0243907
0.0395775 0.0319953 -0.0412149
0.0400916 0.0423544 -0.0245377
0.0566616 0.0444862 -0.037015
0.0407473 0.0430794 -0.0237325
0.0552083 0.0409204 -0.0382792
0.0554828 0.0431403 -0.0377597
0.0403908 0.0394034 -0.032927
0.0483105 0.0398938 -0.0389303
0.0528984 0.0422932 -0.0430582
0.0424625 0.0394526 -0.0340647
0.0437774 0.0391978 -0.0341237
0.0420939 0.0405964 -0.0223556
0.0561176 0.0409024 -0.0403692
0.0560818 0.0453342 -0.0379935
0.0468636 0.0405845 -0.0398655
0.0521787 0.0310658 -0.0329961
0.0426047 0.0415992 -0.0226498
0.0508763 0.0395911 -0.040082
0.0451478 0.0407494 -0.0394312
0.0326033 0.052558 -0.0223929
0.0543691 0.0424113 -0.0402945
0.0402793 0.0398091 -0.0336502
0.0483686 0.0391765 -0.0398468
0.053978 0.0329486 -0.0302926
0.038293 0.0461619 -0.0227369
0.04312 0.0594347 -0.0291645
0.0549263 0.0484701 -0.0444368
0.0400705 0.0424027 -0.049228
0.0486763 0.0588969 -0.0154668
0.0566873 0.0688704 -0.0322448
0.0537719 0.0859303 -0.036944
0.0358008 0.0549542 -0.0387446
0.0575363 0.0509825 -0.0422195
0.0342956 0.0478615 -0.0149788
0.0397439 0.0486644 -0.0206577
0.0488634 0.0614727 -0.0155758
0.0320582 0.0494593 -0.0238604
0.0386304 0.048411 -0.0218445
0.0581516 0.0333077 -0.0329054
0.0321604 0.0352923 -0.0223173
0.0589355 0.054642 -0.0436253
0.0421461 0.0492596 -0.0194
0.031092 0.0403873 -0.0429947
0.0351816 0.0437279 -0.0374083
0.0446823 0.0710621 -0.0366943
0.0367956 0.0540088 -0.0350387
0.0727437 0.0556533 -0.0402422
0.0410819 0.0533282 -0.0088244
0.0401542 0.0605077 -0.0124557
0.0598386 0.117047 -0.0266414
0.0612286 0.0577784 -0.00895184
0.039523 0.0469145 -0.0216672
0.0489198 0.0555912 -0.0172836
0.0809928 0.0559864 -0.0229395
0.0575188 0.077167 -0.0413042
0.0506757 0.0557998 -0.00781138
0.0325281 0.0482009 -0.0313011
0.0483003 0.0463646 -0.0172075
0.0448758 0.0642313 -0.0102223
0.0444401 0.0599874 -0.0296423
0.0528121 0.0693658 -0.0254599
0.0452487 0.0783765 -0.0378652
0.0544546 0.065883 -0.0380168
0.0746654 0.0714608 -0.033282
0.0479466 0.0642059 -0.0425382
0.0474023 0.065577 -0.0409658
0.0397305 0.0493949 -0.0292255
0.0743995 0.0600829 -0.0422325
0.0442022 0.0431367 -0.0221782
0.0433404 0.0723516 -0.00728472
0.0494886 0.0409247 -0.0180778
0.0482143 0.0819785 -0.030043
0.0473552 0.0565718 -0.038266
0.0729653 0.0532311 -0.0424982
0.0482228 0.103246 -0.0230843
0.0509755 0.0765397 -0.0282903
0.0470317 0.0911944 -0.0275399
0.0566197 0.0386912 -0.0530542
0.0470289 0.0572971 -0.0132921
0.0517135 0.0796044 -0.036539
0.0721416 0.0902397 -0.0303965
0.0471633 0.0614295 -0.0136245
0.0750306 0.0560125 -0.0381738
0.0680881 0.0539465 -0.0114164
0.05215 0.0472218 -0.0187438
0.0695545 0.0824001 -0.0281887
0.0534222 0.0435167 -0.0176166
0.0477116 0.0437553 -0.0200668
0.0454533 0.0442662 -0.0166719
0.0529177 0.0599547 -0.0444514
0.053077 0.042399 -0.0197096
0.0488553 0.0727145 -0.0485954
0.0476195 0.0447109 -0.0182862
0.0463033 0.042806 -0.0182943
0.0666812 0.0845552 -0.0292199
0.0608668 0.0486792 -0.00544298
0.046431 0.0428534 -0.0182688
0.0544305 0.0420505 -0.0193622
0.0544993 0.0418289 -0.0193037
0.056535 0.0560497 -0.0141439
0.0526053 0.0593948 -0.0239973
0.0637574 0.067455 -0.0566867
0.0503761 0.0599194 -0.0162933
0.0708932 0.104044 -0.026613
0.0436136 0.0873806 -0.0354352
0.0449603 0.0418378 -0.0174019
0.0619765 0.0526245 -0.0447061
0.0580889 0.129183 -0.0282767
0.040167 0.0506268 -0.0123972
0.0455005 0.0489295 -0.0180523
0.0754956 0.0498839 -0.0238033
0.0541143 0.0677875 -0.0518291
0.0554972 0.0434553 -0.0381673
0.0490831 0.0275586 -0.0401771
0.0550322 0.0370812 -0.0395545
0.0514944 0.0370407 -0.0337714
0.0409802 0.031632 -0.0364161
0.0475623 0.0392835 -0.0380173
0.0430948 0.0390881 -0.0227572
0.0564811 0.0404989 -0.0382658
0.0562361 0.0407458 -0.0370648
0.0553527 0.0347989 -0.0392546
0.0549577 0.0397425 -0.0370378
0.0429388 0.0393417 -0.0225415
0.0429101 0.0394694 -0.0225192
0.0439824 0.0397086 -0.035997
0.0560911 0.040916 -0.0384934
0.0419094 0.0413492 -0.0212837
0.0428716 0.041496 -0.0233611
0.0355762 0.0406831 -0.0101795
0.0552862 0.0430598 -0.0379122
0.0417503 0.0487461 -0.0197724
0.0472812 0.0526289 -0.031042
0.0345063 0.059328 -0.00586463
0.0507584 0.0686348 -0.0336873
0.0339515 0.0409872 -0.0244535
0.0428127 0.0475081 -0.0201725
0.0574183 0.0612714 -0.00875583
0.0366306 0.039991 -0.0442934
0.0443973 0.0431307 -0.018788
0.061341 0.0674163 -0.0459156
0.0437253 0.0444834 -0.0190483
0.0459573 0.0433042 -0.0199259
0.0544324 0.0570481 -0.00838406
0.0436853 0.043489 -0.0169375
0.0455775 0.0432113 -0.0187092
0.0446691 0.0434011 -0.0186401
0.0449887 0.0446212 -0.018202
0.0287648 0.043718 -0.0194698
0.0446129 0.0422563 -0.0197505
0.047582 0.0713352 -0.0220339
0.0442316 0.0754492 -0.0285191
0.0666054 0.0826245 -0.0351889
0.0491712 0.0692428 -0.0266861
0.0367372 0.0430772 -0.0540728
0.0449342 0.0434735 -0.0185158
0.0431613 0.0436459 -0.0186978
0.0468967 0.0870166 -0.027073
0.0542994 0.0562439 -0.0121148
0.0812246 0.0552143 -0.0246344
0.0470381 0.0815237 -0.0365081
0.0364644 0.0622494 -0.0423301
0.0751904 0.0469097 -0.0210661
0.0623805 0.0826093 -0.0314546
0.0712938 0.0488576 -0.037551
0.0464148 0.0655515 -0.0276649
0.0562262 0.0535808 -0.0470325
0.036838 0.0547323 -0.0470978
0.0592668 0.0487486 -0.0438425
0.0560316 0.0480331 -0.0186352
0.0457944 0.043604 -0.0182196
0.0583134 0.0689264 -0.00344661
0.045759 0.0426309 -0.0180048
0.0459581 0.0433043 -0.018098
0.0588961 0.0787204 -0.0323984
0.0540593 0.0444674 -0.0174517
0.0528685 0.090702 -0.019015
0.0702942 0.0559829 -0.0111805
0.0442049 0.0432007 -0.0192206
0.073362 0.0493896 -0.0183395
0.0685279 0.0622072 -0.0477831
0.0553015 0.0683948 -0.0204782
0.0564748 0.0617169 -0.00968864
0.0567291 0.0503464 -0.0084563
0.0504413 0.0738895 -0.0298772
0.0763533 0.0478358 -0.0178211
0.0540755 0.0417307 -0.0189233
0.0839418 0.0775429 -0.0235353
0.0542504 0.0424234 -0.0190501
0.0463171 0.0430499 -0.0179175
0.0514916 0.0765069 -0.0293834
0.0780933 0.0469131 -0.0428578
0.0630482 0.0677494 -0.0053606
0.0590064 0.061812 -0.010898
0.0774744 0.0455457 -0.0101603
0.0481365 0.0868736 -0.0184581
0.0375211 0.0377387 -0.0532833
0.0543468 0.0423388 -0.0189769
0.0342318 0.0595262 -0.0400983
0.0486337 0.0727229 -0.0271501
0.0497065 0.0352918 -0.0340244
0.0430336 0.0387882 -0.0232853
0.0466752 0.0395356 -0.0396205
0.0483337 0.0343088 -0.0341618
0.0398948 0.0384058 -0.0254335
0.0497424 0.0366585 -0.0328682
0.0441818 0.0407852 -0.0236412
0.0416737 0.0383346 -0.0320199
0.0430798 0.0401501 -0.0244973
0.0528741 0.0353963 -0.0379298
0.0504069 0.0345249 -0.034939
0.0478138 0.0348879 -0.0355733
0.0579037 0.0395598 -0.0359637
0.0548974 0.0388581 -0.0366287
0.0427831 0.0455485 -0.0217429
0.0442091 0.0390553 -0.038329
0.0513945 0.0382799 -0.0381979
0.0448434 0.037518 -0.0316659
0.047925 0.0366882 -0.033231
0.0427809 0.0394185 -0.0231453
0.0428411 0.0392815 -0.0229173
0.0427528 0.0394618 -0.0230828
0.0426835 0.0395793 -0.022918
0.0426626 0.0396508 -0.022717
0.0425805 0.0398147 -0.0228092
0.041851 0.0392743 -0.0264204
0.0426821 0.0397092 -0.022247
0.0464882 0.0379303 -0.0329391
0.0420284 0.0451162 -0.0210241
0.0396479 0.0415059 -0.0232363
0.0551244 0.0413482 -0.0376306
0.0457904 0.0395885 -0.0362546
0.0409423 0.0403757 -0.0365211
0.0564305 0.0408932 -0.0385876
0.0551567 0.0417294 -0.0376971
0.0323915 0.046275 -0.026348
0.0381004 0.0404796 -0.0246453
0.0553538 0.0433843 -0.0387755
0.04351 0.0702065 -0.0269256
0.0440252 0.0463411 -0.0180789
0.0512893 0.0417465 -0.0189525
0.0444095 0.0427555 -0.0187273
0.04463 0.0430679 -0.0186536
0.0552817 0.0567004 -0.0459832
0.0448738 0.0425914 -0.0184785
0.0635804 0.066776 -0.0288134
0.0454144 0.0429854 -0.0183049
0.0450707 0.0668304 -0.0292861
0.0489248 0.0447133 -0.0178675
0.0507712 0.0578816 -0.0109931
0.0457247 0.0423105 -0.0181467
0.0735152 0.0726237 -0.0350776
0.0513831 0.0459519 -0.0498022
0.0459102 0.0423404 -0.0180704
0.0459724 0.0423154 -0.0180422
0.04605 0.0431548 -0.018187
0.0493422 0.0679122 -0.0298481
0.049399 0.0417638 -0.0177933
0.0501684 0.0408617 -0.0174291
0.054417 0.067346 -0.00434534
0.0498707 0.0470294 -0.0174897
0.0461248 0.0428034 -0.0180614
0.039815 0.0392267 -0.0231016
0.0475089 0.0413606 -0.017213
0.0509037 0.0732422 -0.00356601
0.0462606 0.0423215 -0.017931
0.0465381 0.042686 -0.0186294
0.0453776 0.0416047 -0.0210999
0.0538535 0.0453378 -0.0195101
0.0464016 0.0426221 -0.017942
0.055106 0.0497931 -0.0193398
0.0452277 0.0436264 -0.0202845
0.0493032 0.0458669 -0.0522799
0.0562979 0.0513984 -0.0161946
0.0444059 0.0423569 -0.0194157
0.0683985 0.0583245 -0.0478865
0.046685 0.0425801 -0.0178059
0.0494305 0.043118 -0.0165551
0.0504364 0.0420772 -0.0196531
0.0483331 0.041716 -0.0205207
0.0494741 0.0365542 -0.0182754
0.0706065 0.0421925 -0.0371756
0.0697385 0.0499287 -0.0424757
0.0645505 0.0699029 -0.0386923
0.0744573 0.0706056 -0.0359993
0.0540999 0.0325711 -0.0274707
0.0609421 0.0369307 -0.0187644
0.0531856 0.0551436 -0.0103931
0.0514637 0.0379196 -0.0175239
0.0675486 0.0466284 -0.0393393
0.0516716 0.0383091 -0.0176576
0.0646494 0.0449155 -0.019101
0.06834 0.0402197 -0.0217508
0.0560021 0.0280884 -0.037429
0.0656774 0.0383809 -0.0170291
0.0607588 0.0571353 -0.0476054
0.0631834 0.0438949 -0.0410741
0.0719981 0.0385494 -0.0331849
0.0680384 0.0380716 -0.0246151
0.0627306 0.0504628 -0.0437541
0.0669396 0.0479685 -0.0156827
0.0691215 0.0530533 -0.0373873
0.0651824 0.0490622 -0.0413552
0.059608 0.0399045 -0.0188754
0.0668687 0.0381426 -0.018737
0.0764546 0.0494367 -0.0202749
0.0665155 0.0367449 -0.0337885
0.060126 0.0373126 -0.0179342
0.0543826 0.0491354 -0.0168525
0.0467347 0.0396277 -0.0124777
0.0674485 0.0405568 -0.0380847
0.0755571 0.117494 -0.0318225
0.0564325 0.0405435 -0.038683
0.0469762 0.0401619 -0.0180966
0.0712481 0.0379202 -0.0223821
0.0687015 0.051251 -0.015578
0.0374303 0.0412781 -0.0236421
0.0439267 0.0456313 -0.0136777
0.0424952 0.0355726 -0.0123611
0.0737967 0.0489183 -0.0158777
0.0565451 0.0335067 -0.0318283
0.0287826 0.0396332 -0.0213235
0.0481482 0.0844821 -0.0341647
0.0505209 0.0403261 -0.0325809
0.0619432 0.0528816 -0.0142851
0.057953 0.0317339 -0.0261347
0.0517732 0.039661 -0.0172684
0.0395562 0.0415146 -0.0270291
0.0564863 0.0430273 -0.0171513
0.0538315 0.0523489 -0.0159313
0.0563645 0.0324308 -0.0326279
0.0463102 0.039901 -0.019139
0.0562463 0.0761368 -0.0381359
0.0405433 0.0427029 -0.0353785
0.0654713 0.0443778 -0.0220313
0.0657617 0.0467219 -0.0395818
0.0545133 0.0965968 -0.0133195
0.0714772 0.0584607 -0.0284161
0.0558529 0.0409106 -0.0396435
0.0515449 0.0758363 -0.0517985
0.0610456 0.0504377 -0.0171955
0.0674941 0.0473392 -0.0200865
0.0596107 0.0452052 -0.0398389
0.0518626 0.0794598 -0.0357604
0.0683222 0.0456373 -0.0220075
0.0641664 0.0463668 -0.0195288
0.0590495 0.0461726 -0.0155696
0.0412353 0.0369211 -0.0338379
0.0450257 0.0344863 -0.021683
0.0374255 0.0499489 -0.0364379
0.0604926 0.0466381 -0.0187254
0.0656462 0.0489663 -0.0402621
0.0343578 0.0591647 -0.0192989
0.0583291 0.0454905 -0.0398544
0.071032 0.0506906 -0.0182021
0.0379354 0.0352122 -0.010937
0.056335 0.0446065 -0.0382755
0.0381868 0.0353706 -0.0366524
0.0480484 0.0618263 -0.0370482
0.0715307 0.084375 -0.0534501
0.0537301 0.0482841 -0.0186264
0.0432539 0.0493884 -0.016856
0.0546234 0.0433003 -0.0146303
0.0461899 0.0364901 -0.0225099
0.0464941 0.0387188 -0.035253
0.0455364 0.0359755 -0.0314635
0.0438671 0.0383334 -0.0325032
0.0505577 0.0374562 -0.0351325
0.0498446 0.0363493 -0.0338542
0.0433301 0.0380233 -0.0235574
0.0550308 0.038171 -0.0376463
0.0453224 0.0343132 -0.0318366
0.0452155 0.0391573 -0.0350781
0.0525448 0.0378939 -0.0362578
0.0504665 0.0377205 -0.0358127
0.0431703 0.0389724 -0.0334497
0.0394084 0.0418454 -0.0197981
0.0495312 0.0361829 -0.0336736
0.0532044 0.0291666 -0.0386934
0.0450675 0.039227 -0.0350667
0.0496441 0.0357347 -0.032798
0.046254 0.0382942 -0.0338572
0.0431132 0.0386462 -0.0331934
0.0432215 0.0391313 -0.0341126
0.044564 0.0387529 -0.0353435
0.0499213 0.0376637 -0.0344344
0.042305 0.0376855 -0.0309596
0.0447559 0.0389666 -0.0345447
0.0428103 0.0389167 -0.0337955
0.0430634 0.0362637 -0.0327629
0.045199 0.0389684 -0.0346726
0.0408913 0.0384435 -0.0338246
0.0455256 0.0376687 -0.0235335
0.0444553 0.0404155 -0.0234404
0.049814 0.035219 -0.036032
0.0422264 0.0390181 -0.0328305
0.0442137 0.0376863 -0.0320415
0.0438648 0.0387288 -0.0341904
0.049572 0.0367691 -0.0327287
0.0469582 0.0388843 -0.035402
0.0462897 0.0389241 -0.0356959
0.0477212 0.0296559 -0.0423493
0.0422251 0.0390557 -0.0334818
0.0534659 0.0363214 -0.0350641
0.0505084 0.0357388 -0.0332425
0.0479722 0.0374234 -0.0336097
0.0493754 0.0364913 -0.0333961
0.0444695 0.0384292 -0.0328761
0.0515234 0.0344324 -0.0338355
0.0548327 0.0380209 -0.0364404
0.0528507 0.0372329 -0.0382908
0.0489467 0.0355521 -0.0357856
0.0538816 0.0349561 -0.0391111
0.0472266 0.0385953 -0.0352801
0.042237 0.0387509 -0.0246179
0.0452274 0.0367462 -0.0329416
0.0421265 0.0378921 -0.0310023
0.0493555 0.0391483 -0.0374266
0.0548951 0.0380529 -0.0365313
0.0533406 0.0372415 -0.0368844
0.0461399 0.0376814 -0.032434
0.0407477 0.0394131 -0.0329245
0.0429742 0.0421285 -0.0235721
0.045053 0.0346909 -0.0340277
0.056153 0.0388843 -0.0358805
0.0438915 0.0385574 -0.0256049
0.0410987 0.0393241 -0.0339698
0.0494707 0.037293 -0.0339454
0.0426082 0.0433982 -0.0218915
0.0464221 0.0379907 -0.0355133
0.0444904 0.0388472 -0.0336675
0.0503623 0.0370561 -0.0345478
0.0532624 0.0356391 -0.0349126
0.0418085 0.0380409 -0.0324649
0.0551237 0.0387548 -0.0368066
0.0399134 0.0389772 -0.0324048
0.055707 0.0441947 -0.0379137
0.0324697 0.0359446 -0.014351
0.0412589 0.0385926 -0.0317248
0.0429742 0.0388105 -0.0230869
0.0546654 0.039406 -0.0379945
0.0414857 0.0351739 -0.0323365
0.0429217 0.037933 -0.0314465
0.0395359 0.0387546 -0.0329921
0.0492841 0.0402474 -0.0394998
0.0480602 0.0384803 -0.0361159
0.049014 0.0381972 -0.0357396
0.0484968 0.0380405 -0.0371082
0.0428364 0.0392277 -0.0232181
0.0449092 0.037295 -0.0368078
0.0528753 0.0383902 -0.037824
0.0430109 0.0387795 -0.0226709
0.0457977 0.0391411 -0.036243
0.0468038 0.0375653 -0.0347159
0.0509904 0.0376222 -0.0368301
0.0505102 0.0383607 -0.0401342
0.0545967 0.0395644 -0.0377083
0.0596383 0.0599238 -0.0107647
0.0427373 0.037715 -0.0311893
0.0587214 0.0318951 -0.0296973
0.0463326 0.0405223 -0.0388423
0.0427845 0.0394918 -0.022833
0.0540121 0.0396751 -0.0385164
0.0396707 0.0446787 -0.0233513
0.0380674 0.0416098 -0.0251552
0.0424838 0.040161 -0.0227988
0.0457777 0.0395034 -0.0362834
0.0415336 0.0383113 -0.0318749
0.0472462 0.0383337 -0.0366473
0.0552136 0.0416211 -0.0379024
0.0426511 0.042002 -0.0212333
0.0552915 0.0417417 -0.0379439
0.0418525 0.0521259 -0.0395045
0.0416287 0.0400056 -0.0215797
0.0416251 0.0444294 -0.0217879
0.0471017 0.0399304 -0.0393558
0.0416367 0.0367747 -0.0301328
0.0472218 0.0386799 -0.0368535
0.0390504 0.0380844 -0.0245459
0.0431266 0.037959 -0.0316526
0.0407385 0.0378762 -0.0324523
0.040554 0.044829 -0.0204094
0.0540277 0.0413265 -0.0406739
0.0351061 0.0517636 -0.0314471
0.0365912 0.037951 -0.0133716
0.0432425 0.0397903 -0.023663
0.055737 0.0425043 -0.0381209
0.040272 0.047586 -0.0216847
0.0434423 0.0419171 -0.0233875
0.0428636 0.0414213 -0.0221715
0.0462481 0.0433968 -0.0209593
0.0559451 0.0429311 -0.0381353
0.0452041 0.0664451 -0.0280685
0.0557811 0.0332792 -0.0315315
0.0433558 0.0411845 -0.0216539
0.0450208 0.0463268 -0.0199953
0.0556488 0.0436708 -0.0378855
0.0323736 0.0331708 -0.0360783
0.0409299 0.0498342 -0.010163
0.0408577 0.0490283 -0.0196201
0.0428653 0.0408863 -0.0214158
0.0438697 0.0391501 -0.0214896
0.0425021 0.0375325 -0.0241218
0.044533 0.043391 -0.0215856
0.0428792 0.0411682 -0.0212314
0.0397212 0.0376486 -0.023278
0.0462792 0.0404738 -0.0202428
0.0383737 0.0406113 -0.0234929
0.0429956 0.0409709 -0.020994
0.0275431 0.0481176 -0.038981
0.0423225 0.0407445 -0.0245668
0.0257175 0.042371 -0.039008
0.043058 0.0409413 -0.0208417
0.0470238 0.0660857 -0.0417304
0.0694344 0.076168 -0.0315614
0.0418291 0.0407008 -0.0245259
0.034839 0.044709 -0.0247513
0.0352484 0.0422057 -0.0135588
0.0426043 0.0488527 -0.0195775
0.0507007 0.055277 -0.0287344
0.0356512 0.0364357 -0.0307894
0.0430363 0.0415623 -0.0206526
0.0520888 0.0585262 -0.0141397
0.0334029 0.0315011 -0.0410139
0.0429994 0.0418137 -0.0206673
0.0431394 0.041459 -0.0204856
0.0430193 0.0419866 -0.0205969
0.0608043 0.094306 -0.0208523
0.037584 0.0442971 -0.0225674
0.0415255 0.0370066 -0.0252398
0.0671329 0.0660625 -0.0135066
0.0373992 0.0427579 -0.0260322
0.0514794 0.0393817 -0.0210812
0.0511905 0.07585 -0.0393552
0.0301233 0.0427443 -0.0360205
0.0740202 0.0527134 -0.0355237
0.0455066 0.0641466 -0.0482047
0.0352008 0.0589138 -0.0275523
0.0376804 0.0458206 -0.0450041
0.0508385 0.0621497 -0.0347018
0.0413111 0.0385288 -0.0332525
0.0466529 0.0612316 -0.0357847
0.0656849 0.0792682 -0.0369798
0.0457284 0.0428326 -0.019272
0.0487595 0.0660786 -0.0271731
0.0420833 0.0491127 -0.0184732
0.0441458 0.068855 -0.0353619
0.0595978 0.0642474 -0.049873
0.0500622 0.053369 -0.0179572
0.0419036 0.0427883 -0.020022
0.0301718 0.0418681 -0.0327947
0.0375142 0.0441642 -0.0250512
0.0749124 0.0705016 -0.0330723
0.0561738 0.025563 -0.0414784
0.03691 0.057719 -0.015958
0.0509364 0.0691036 -0.0320074
0.0520302 0.0450853 -0.0187671
0.076548 0.0691363 -0.0148897
0.0268016 0.0532658 -0.032987
0.0756382 0.0675734 -0.0321091
0.0425238 0.0420114 -0.0176269
0.0485208 0.0909895 -0.0304547
0.0420716 0.0731352 -0.0367346
0.0578233 0.0684555 -0.0287803
0.0422311 0.0509454 -0.0184207
0.0336335 0.0428858 -0.0266649
0.0659602 0.0581305 -0.0444551
0.0505228 0.0581765 -0.012777
0.0706861 0.0488147 -0.0492867
0.0322133 0.0539822 -0.0128394
0.044332 0.0530439 -0.0131726
0.0595119 0.070465 -0.0176962
0.0700869 0.0613957 -0.0308304
0.0752618 0.0516796 -0.0385502
0.0431546 0.042885 -0.0179559
0.0319993 0.0469967 -0.0466919
0.043254 0.0467849 -0.0206347
0.0447462 0.0433839 -0.0184293
0.0664526 0.06834 -0.0161457
0.0637505 0.0478299 -0.0438054
0.0354935 0.0398565 -0.03699
0.0744351 0.0547161 -0.0173709
0.0326482 0.0531293 -0.0135975
0.0635578 0.0573152 -0.00647658
0.0538312 0.0569483 -0.0158098
0.0745581 0.0669222 -0.0241229
0.044001 0.063386 -0.0110213
0.0445143 0.0445431 -0.0188771
0.065741 0.060754 -0.0462277
0.0635325 0.0477136 -0.0104584
0.0538077 0.0654654 -0.0108246
0.0463881 0.0712398 -0.0108163
0.0553185 0.0847452 -0.0203237
0.0448409 0.043312 -0.0184699
0.0572212 0.0479521 -0.050774
0.0429634 0.0693395 -0.0384861
0.0424567 0.0365899 -0.0294661
0.0813925 0.0478012 -0.0217083
0.055219 0.0513093 -0.0502709
0.0828309 0.0600571 -0.020188
0.0442837 0.0683108 -0.0247789
0.0347173 0.0332889 -0.0339942
0.0493044 0.0435282 -0.0191288
0.0535137 0.0870261 -0.0285793
0.0349001 0.0678448 -0.0226494
0.0556093 0.0539642 -0.0493886
0.0647504 0.0503239 -0.0100001
0.0480238 0.083373 -0.0215619
0.0777588 0.0650986 -0.0238307
0.0465261 0.0495152 -0.0295565
0.0549683 0.0587014 -0.012552
0.0693489 0.0551919 -0.0142427
0.0473469 0.0676497 -0.0346143
0.0477064 0.0430163 -0.0201426
0.0695134 0.0490051 -0.0354956
0.0511847 0.0435787 -0.016741
0.066022 0.0572037 -0.0430747
0.0501867 0.0554799 -0.017171
0.0457465 0.0424319 -0.0168132
0.056118 0.0820657 -0.0316922
0.0614215 0.0758244 -0.0242287
0.0441203 0.0417406 -0.0173604
0.0332158 0.0527786 -0.021359
0.0439598 0.0425261 -0.0171719
0.0619488 0.0502518 -0.048272
0.0477831 0.0674709 -0.0314931
0.0461348 0.039893 -0.0218453
0.0781515 0.051475 -0.0162617
0.0362762 0.0406325 -0.0425741
0.0538927 0.0426875 -0.0168088
0.0718486 0.0531083 -0.0383699
0.054528 0.0424417 -0.0197163
0.0552554 0.0482299 -0.0181655
0.0224458 0.0501767 -0.0288776
0.0459726 0.0435667 -0.0209054
0.0559751 0.0483157 -0.0189959
0.0561032 0.0478851 -0.0184203
0.0372949 0.0368229 -0.0304014
0.0525693 0.0507743 -0.0199319
0.0477224 0.0412757 -0.0176609
0.0481434 0.0445944 -0.0195691
0.0504627 0.0408499 -0.0204408
0.0527324 0.0550881 -0.00865332
0.0446922 0.0447069 -0.020682
0.0559084 0.0428044 -0.0193652
0.0542943 0.040344 -0.0193599
0.0278373 0.0461038 -0.0328627
0.045523 0.0408149 -0.0194176
0.0551628 0.0482223 -0.0196729
0.0462671 0.0434725 -0.0163498
0.0425945 0.0535015 -0.0458112
0.046774 0.0421541 -0.0179801
0.0655816 0.0592551 -0.00807317
0.0712255 0.0566221 -0.0113791
0.0552574 0.0479785 -0.0196509
0.0500973 0.0956542 -0.0262206
0.0525553 0.0510532 -0.0190111
0.0520736 0.0584254 -0.00879136
0.0468678 0.0411802 -0.0182454
0.0543691 0.0614871 -0.0110945
0.0468653 0.0417505 -0.0181927
0.0495427 0.0487783 -0.0160538
0.054579 0.0413732 -0.0192059
0.054673 0.0400426 -0.0192544
0.0460615 0.0394117 -0.0209854
0.0507969 0.0783707 -0.0336227
0.0412209 0.0395718 -0.025366
0.0461266 0.0420312 -0.0192397
0.0483823 0.0729777 -0.0477653
0.0498689 0.0461614 -0.0171522
0.0518628 0.0850605 -0.0183523
0.0676171 0.0716519 -0.0372265
0.0606755 0.0640623 -0.0058771
0.0548642 0.04 -0.0191952
0.0679739 0.0701652 -0.0260349
0.0468028 0.0437057 -0.0209872
0.0580384 0.0460931 -0.0176317
0.0476962 0.0406996 -0.020538
0.050833 0.0368168 -0.0336572
0.0558417 0.0362111 -0.0354539
0.0549739 0.0357485 -0.0335269
0.0475988 0.0373385 -0.0345907
0.0445631 0.0379735 -0.0338541
0.0556691 0.0363696 -0.0355473
0.0527516 0.037257 -0.0353724
0.0427825 0.0369725 -0.0311048
0.0557648 0.0363817 -0.0355908
0.0441191 0.031491 -0.0361716
0.0504132 0.0367174 -0.033086
0.0504372 0.0357496 -0.0315381
0.0438492 0.0370077 -0.0231221
0.0427275 0.0372279 -0.0313317
0.0502398 0.0362485 -0.032039
0.0529466 0.037519 -0.0356137
0.0527318 0.0375529 -0.0355395
0.0563211 0.0364764 -0.0352853
0.0442762 0.0384603 -0.0339489
0.0431263 0.0382362 -0.0332002
0.0501845 0.0362368 -0.0318387
0.0484632 0.0345634 -0.0200961
0.0446349 0.0385921 -0.0343247
0.0494715 0.0346614 -0.0204482
0.0448495 0.0386743 -0.0344924
0.0583628 0.0396098 -0.0363484
0.0472661 0.0379599 -0.0348083
0.0451916 0.0386804 -0.0346638
0.0553884 0.0343427 -0.0380533
0.0489401 0.0367924 -0.0338509
0.0436983 0.03725 -0.0230152
0.044481 0.0389069 -0.0342532
0.0554979 0.036903 -0.0358092
0.0440149 0.0386987 -0.0338487
0.0433254 0.0384328 -0.0330281
0.0431845 0.0383782 -0.0328601
0.0439015 0.0381188 -0.0237741
0.0457766 0.0387205 -0.034906
0.0439309 0.0379417 -0.0254126
0.0474771 0.0380453 -0.0348816
0.0569404 0.0370018 -0.0388654
0.0489869 0.0383188 -0.0358743
0.048025 0.0334304 -0.0197467
0.0566174 0.0347146 -0.0340154
0.0425689 0.0372095 -0.0305308
0.0479356 0.0375391 -0.0361335
0.0426256 0.0369828 -0.0301934
0.0564147 0.0363509 -0.0344614
0.0543877 0.03751 -0.0362331
0.0552943 0.0370584 -0.0359924
0.0470576 0.0390563 -0.0358357
0.0452787 0.0357371 -0.0331165
0.04906 0.0379641 -0.036417
0.0423576 0.0382126 -0.0343504
0.0516486 0.0368348 -0.0352736
0.0509596 0.0363943 -0.0353827
0.0429776 0.0388552 -0.0224207
0.0394187 0.0391763 -0.033014
0.0508761 0.0371332 -0.0340503
0.0415808 0.0444787 -0.0221762
0.0478846 0.0359646 -0.037494
0.0548089 0.0378874 -0.0362617
0.0565378 0.0386277 -0.0344489
0.0556095 0.0374974 -0.036827
0.0474287 0.0365404 -0.0337404
0.0555574 0.0379209 -0.0363649
0.0477636 0.0386536 -0.0356451
0.0438878 0.0386656 -0.0330425
0.04515 0.0380015 -0.0247012
0.0387243 0.0347925 -0.0361464
0.0434207 0.0394455 -0.0355928
0.0475589 0.0354109 -0.0349575
0.0543149 0.0408673 -0.0389614
0.0436221 0.0374265 -0.0223306
0.0419447 0.039338 -0.0343961
0.0554068 0.0380188 -0.0363364
0.049184 0.0379197 -0.0367746
0.0435075 0.036289 -0.0263884
0.0559553 0.0376262 -0.0362155
0.0457437 0.0450064 -0.0198009
0.0435946 0.0384056 -0.0231295
0.0434241 0.0378461 -0.0226372
0.0438727 0.0384654 -0.0237825
0.0495761 0.0368624 -0.0345514
0.0435358 0.0398809 -0.0199113
0.0549574 0.0384573 -0.0365646
0.0421758 0.0375261 -0.0300007
0.0553366 0.0383749 -0.0366265
0.0399361 0.0388018 -0.0347596
0.0451412 0.0393896 -0.035577
0.0423488 0.0354064 -0.0314645
0.0503095 0.0379419 -0.035262
0.0423141 0.0405224 -0.0236546
0.0549402 0.0405143 -0.0372686
0.0565009 0.0431329 -0.0372228
0.0439261 0.0392736 -0.0219581
0.0467697 0.0372209 -0.034232
0.0473699 0.0386807 -0.0360461
0.0557729 0.0395182 -0.0370415
0.046737 0.0360887 -0.034906
0.0559997 0.0376045 -0.0382174
0.0502308 0.0378173 -0.0389951
0.0570656 0.0462107 -0.0379929
0.0455595 0.0366781 -0.0324594
0.0436975 0.0373064 -0.0216301
0.0434389 0.0375561 -0.0323819
0.0558549 0.0392413 -0.0369625
0.0470322 0.0396181 -0.037695
0.042253 0.0380111 -0.0312355
0.0442008 0.0367391 -0.0269542
0.0412936 0.039445 -0.0333084
0.0559878 0.0395189 -0.0370815
0.0552734 0.0391737 -0.0375777
0.0403019 0.0379476 -0.0305706
0.0427531 0.0433237 -0.0226486
0.0433667 0.0394987 -0.0354205
0.0423901 0.0408018 -0.0225573
0.0430925 0.0394222 -0.0224799
0.0416605 0.0395396 -0.0222265
0.0415515 0.0457273 -0.0198341
0.0399261 0.0431574 -0.0220379
0.0421485 0.0397019 -0.0223962
0.0462329 0.0383792 -0.0338181
0.0424389 0.0368029 -0.0268068
0.0613559 0.0360518 -0.0303517
0.0424371 0.045802 -0.0207028
0.0405719 0.0440982 -0.0230774
0.0520667 0.0391636 -0.0397186
0.0393461 0.039292 -0.0273942
0.0500552 0.03176 -0.0304509
0.0589058 0.0368634 -0.0324458
0.0443909 0.0420472 -0.0225471
0.0436157 0.038965 -0.0241628
0.0559289 0.0423474 -0.0382913
0.0427474 0.0405585 -0.0213213
0.0440543 0.0276338 -0.0357289
0.0442106 0.0431571 -0.0209423
0.0431146 0.0388283 -0.024445
0.0634938 0.0487367 -0.0519017
0.0571314 0.0515104 -0.0538599
0.0390892 0.0449815 -0.0213284
0.0618557 0.0853435 -0.0194061
0.0317237 0.0495212 -0.0295647
0.0444484 0.0427691 -0.0211335
0.0443226 0.0417771 -0.0199975
0.0433835 0.0413022 -0.0203444
0.044795 0.0709471 -0.042371
0.0436345 0.0421332 -0.0206691
0.0491055 0.0634528 -0.0341395
0.0277105 0.0525964 -0.0203225
0.0450514 0.042655 -0.0220495
0.043528 0.041257 -0.0210002
0.0503994 0.0851963 -0.032072
0.0624583 0.0702214 -0.011695
0.0513803 0.0544265 -0.0186071
0.0449205 0.0404812 -0.020582
0.0440835 0.0407845 -0.0195875
0.0545253 0.0701408 -0.0329653
0.0455965 0.044629 -0.0190673
0.0563911 0.0785277 -0.0352668
0.0430699 0.0274796 -0.0335266
0.0354702 0.0607114 -0.0148709
0.0472664 0.0414305 -0.0217891
0.0463169 0.042419 -0.0173453
0.0522538 0.0651863 -0.0420807
0.0738268 0.0508691 -0.0184874
0.0437046 0.0450732 -0.020428
0.0415704 0.036701 -0.0270366
0.0444631 0.0419076 -0.0191507
0.0432419 0.0470457 -0.0187582
0.0322829 0.0471262 -0.0226855
0.0513998 0.0810044 -0.0155784
0.0290618 0.0534814 -0.0235242
0.0449609 0.0411045 -0.0188838
0.0246509 0.0539196 -0.0253709
0.0447397 0.0419318 -0.0189708
0.0449198 0.0413682 -0.0188889
0.0774157 0.0783072 -0.0314816
0.0464226 0.0761852 -0.0357969
0.0382965 0.0475467 -0.0218332
0.0396206 0.0445894 -0.023594
0.0454505 0.043318 -0.0195327
0.0530157 0.0397937 -0.0196832
0.044185 0.0415539 -0.0178005
0.0451644 0.041932 -0.0187344
0.0454622 0.0412337 -0.0186362
0.0489067 0.0422896 -0.0176773
0.0457426 0.0406265 -0.0185695
0.0433844 0.0410276 -0.0226617
0.0557179 0.0458544 -0.0193991
0.0675692 0.0571193 -0.010056
0.0509237 0.0388456 -0.018868
0.0459174 0.0406906 -0.0185214
0.0500902 0.0436673 -0.0180104
0.0456197 0.0418529 -0.018526
0.0427889 0.0382107 -0.0219857
0.0456701 0.0417719 -0.0185102
0.0380507 0.0437947 -0.0429557
0.053714 0.0394517 -0.0194904
0.0457239 0.0417897 -0.0184926
0.0457742 0.0416045 -0.0184818
0.0457564 0.0417718 -0.018481
0.0591512 0.0577804 -0.00562119
0.0649814 0.0857922 -0.0264823
0.0391332 0.0436587 -0.0544706
0.0466076 0.0420393 -0.0188841
0.0612036 0.0461928 -0.0440025
0.0794234 0.0614168 -0.0153001
0.0465806 0.0404545 -0.0183448
0.0450726 0.0802564 -0.029971
0.0734285 0.0494783 -0.0140698
0.0480978 0.04181 -0.0186349
0.0539838 0.0435813 -0.019211
0.0334962 0.0431771 -0.0365058
0.0544927 0.0389563 -0.0193259
0.0414834 0.0476349 -0.0197124
0.0497458 0.0407473 -0.0195974
0.0471112 0.0399939 -0.0182502
0.0445425 0.0441164 -0.0138669
0.0457006 0.0418051 -0.0196965
0.0471972 0.0396785 -0.018244
0.053272 0.0690149 -0.00845412
0.0703997 0.0759477 -0.0379019
0.0547212 0.0422 -0.0203027
0.0691881 0.0778335 -0.0385406
0.0479259 0.0786714 -0.0342397
0.0469349 0.0414952 -0.0180907
0.0471672 0.0407663 -0.0181597
0.0474029 0.0397578 -0.0181922
0.0718857 0.0889084 -0.0264407
0.0545534 0.0423681 -0.0199825
0.0472854 0.0416245 -0.0173316
0.0500054 0.0406299 -0.0174115
0.0474093 0.0392943 -0.0218017
0.0435746 0.0663124 -0.0135815
0.0474608 0.0405457 -0.0180934
0.0456972 0.0378453 -0.0245732
0.0440716 0.0380717 -0.025926
0.047637 0.040021 -0.018115
0.0552056 0.0388582 -0.0191278
0.0362318 0.0595717 -0.00935418
0.0475685 0.0410743 -0.0176469
0.0368747 0.0513953 -0.0202714
0.0560996 0.0466425 -0.0194413
0.0458634 0.0393797 -0.0175574
0.0553199 0.0389262 -0.0190955
0.055334 0.039083 -0.0190976
0.0533573 0.0717373 -0.00757593
0.0560084 0.0474019 -0.0193522
0.0476831 0.0405528 -0.0180065
0.0569834 0.049745 -0.0472914
0.0498253 0.0378651 -0.0200043
0.0553496 0.0386487 -0.0190779
0.0477115 0.0633489 -0.0114632
0.0461492 0.0386126 -0.0193666
0.0472982 0.0596358 -0.012974
0.0478857 0.0403057 -0.0179699
0.0540881 0.0661366 -0.0259214
0.046708 0.039145 -0.0187327
0.0714664 0.0529691 -0.0163469
0.0569005 0.0462634 -0.0184578
0.0475068 0.0393489 -0.0201448
0.0756565 0.0483006 -0.0232308
0.0463991 0.0383874 -0.0211717
0.0461099 0.0398467 -0.0197489
0.0472388 0.0390144 -0.0188357
0.0525018 0.0346193 -0.023757
0.044105 0.0351217 -0.0300015
0.0552677 0.0350802 -0.0345596
0.0443949 0.0368077 -0.0329192
0.0438508 0.0367016 -0.0324109
0.0460203 0.0358622 -0.0312782
0.0525178 0.0345719 -0.0235763
0.0514581 0.0344708 -0.0311573
0.0460029 0.0368878 -0.0339365
0.0531746 0.036133 -0.0348871
0.0509887 0.0357959 -0.0329497
0.0446729 0.0367482 -0.024956
0.0514756 0.0345951 -0.0312491
0.0451956 0.0364338 -0.0293243
0.045089 0.0354575 -0.0224843
0.0450654 0.0355369 -0.0225655
0.0553043 0.0353022 -0.0346731
0.0477654 0.0349486 -0.0262967
0.0465847 0.0360077 -0.0335726
0.0540456 0.0360736 -0.0351218
0.0450402 0.0373121 -0.0337694
0.0511412 0.0362708 -0.0335958
0.0509771 0.0339771 -0.0310589
0.0524428 0.0347692 -0.0235269
0.0541036 0.0361908 -0.035196
0.0438584 0.0368624 -0.0310625
0.0466099 0.0370651 -0.034195
0.0462029 0.035818 -0.0318029
0.0549488 0.0358323 -0.0350873
0.0475782 0.0367117 -0.0341098
0.0433586 0.0363578 -0.0308773
0.0468194 0.0371953 -0.0343081
0.0445858 0.036369 -0.02315
0.0476586 0.0367305 -0.0341245
0.0541379 0.0350943 -0.0360846
0.0470293 0.0363864 -0.0306525
0.0444937 0.0361077 -0.0258081
0.0481552 0.0361755 -0.0333231
0.042676 0.0358846 -0.0323311
0.0509207 0.0353981 -0.0315588
0.0513486 0.0347264 -0.0307577
0.0527752 0.0367598 -0.0356187
0.0491294 0.0375156 -0.0339756
0.0487878 0.0326646 -0.0198549
0.0431005 0.03638 -0.0304116
0.0442251 0.0349675 -0.0301057
0.0424296 0.0360284 -0.0285323
0.0554956 0.0350582 -0.0369221
0.0449505 0.0359458 -0.0222877
0.0539709 0.0363004 -0.0363006
0.0474249 0.0371536 -0.0319505
0.0443709 0.0365669 -0.0227288
0.0510472 0.035258 -0.0310353
0.0430588 0.0375707 -0.0307961
0.0430846 0.0364682 -0.0302299
0.0442504 0.0373553 -0.0253718
0.0427967 0.0373596 -0.0302988
0.0443481 0.0409086 -0.0215852
0.0558986 0.0346954 -0.036566
0.0447263 0.0359787 -0.0303599
0.0412373 0.0360989 -0.0218475
0.0444682 0.0364756 -0.022472
0.0498228 0.0389853 -0.0387126
0.044075 0.036935 -0.0227266
0.056427 0.0362987 -0.0372366
0.0436754 0.0393626 -0.0344044
0.0440485 0.0451855 -0.0211971
0.045255 0.0386861 -0.035894
0.0416751 0.0363682 -0.0236926
0.046498 0.0366604 -0.0369791
0.0457888 0.0388984 -0.0355692
0.0429068 0.0389897 -0.0342965
0.041811 0.0384455 -0.0337536
0.0461744 0.0364358 -0.0304411
0.0441346 0.0368931 -0.0223686
0.0452294 0.0394173 -0.0369757
0.0519218 0.0380691 -0.0363489
0.036818 0.0324646 -0.0396326
0.0588115 0.0474815 -0.0367276
0.0439962 0.0371095 -0.0223428
0.0458906 0.0387575 -0.0368233
0.0437115 0.0377544 -0.0315151
0.0518955 0.0366172 -0.0363434
0.0484568 0.0367042 -0.0348492
0.0420144 0.0381818 -0.0233121
0.050249 0.0350884 -0.032112
0.043781 0.0377161 -0.036927
0.0445328 0.0397598 -0.0237116
0.0424192 0.0376152 -0.0321969
0.0480551 0.038701 -0.0360201
0.0439996 0.0367923 -0.0295866
0.0423441 0.0447045 -0.0220834
0.0425543 0.0357989 -0.0307688
0.042924 0.0377377 -0.0307487
0.053712 0.0303711 -0.0269356
0.0423475 0.040093 -0.0358462
0.0400269 0.0433398 -0.0234491
0.0559022 0.0387073 -0.0367213
0.055591 0.039187 -0.0365886
0.0441258 0.0438273 -0.0211209
0.0515229 0.0391926 -0.0385955
0.0511214 0.0370577 -0.0227084
0.0411605 0.0365874 -0.0223791
0.0509795 0.0391308 -0.0384577
0.0402459 0.0376996 -0.0282383
0.0564392 0.0438103 -0.0367231
0.0395006 0.0332621 -0.0286696
0.0449636 0.0440953 -0.0215277
0.056173 0.040711 -0.0375971
0.0378904 0.0470324 -0.0215406
0.0405789 0.0368332 -0.0322793
0.0429522 0.0398563 -0.0217815
0.0562431 0.0557107 -0.0104242
0.0431009 0.0398097 -0.0213195
0.0432348 0.0396458 -0.0211606
0.0561323 0.0415569 -0.039254
0.0435785 0.0456951 -0.0213542
0.0414224 0.0463422 -0.021982
0.0400702 0.0449826 -0.0176421
0.042099 0.0439078 -0.0222378
0.0246948 0.046008 -0.030706
0.0398879 0.0431397 -0.0199012
0.0565884 0.0741516 -0.0316846
0.0433315 0.0411122 -0.0205264
0.0371698 0.047035 -0.0504192
0.0298498 0.0398715 -0.0354009
0.0436514 0.0457203 -0.021189
0.051828 0.0458812 -0.0190939
0.0420031 0.0402336 -0.0230096
0.0502987 0.0812313 -0.031731
0.0438941 0.0412009 -0.0197692
0.0475068 0.0550947 -0.0131943
0.0537226 0.0324295 -0.0303719
0.0662219 0.0588044 -0.0448851
0.0409341 0.04266 -0.0177586
0.0595724 0.0568031 -0.049649
0.0453015 0.0448627 -0.0209761
0.0525992 0.0483058 -0.0194461
0.0433674 0.046556 -0.019602
0.0646977 0.0612423 -0.046924
0.0439708 0.0640322 -0.0235912
0.0423294 0.0459472 -0.0187485
0.0459379 0.0441341 -0.0205778
0.0496021 0.062037 -0.0117847
0.0441532 0.0426449 -0.0174801
0.0455929 0.0406705 -0.0187488
0.0451426 0.0450768 -0.0172644
0.044924 0.0465773 -0.0183774
0.0456307 0.0451655 -0.0175941
0.0501869 0.0432759 -0.0188965
0.0520448 0.060583 -0.0283876
0.0552634 0.0448222 -0.0524335
0.0460269 0.0575947 -0.0471555
0.0379503 0.0425878 -0.0194718
0.0451935 0.0454962 -0.0204095
0.0456588 0.0435031 -0.019087
0.0452987 0.0469739 -0.0510097
0.0378853 0.0546153 -0.0179824
0.0515172 0.0610945 -0.00738315
0.056671 0.0516469 -0.0412432
0.046477 0.0401437 -0.0185173
0.0530562 0.0473284 -0.0192503
0.0455841 0.0434746 -0.0176823
0.0460784 0.0401911 -0.0176304
0.0474716 0.0414065 -0.0199807
0.0543144 0.0486291 -0.0195254
0.0658613 0.0590018 -0.0548265
0.0484379 0.0451291 -0.0191199
0.037891 0.0539041 -0.0181039
0.0406806 0.0392217 -0.0505784
0.04517 0.0453628 -0.0195021
0.0692042 0.0874308 -0.0352495
0.0546942 0.0384398 -0.0194457
0.0472519 0.0394091 -0.0184222
0.0388638 0.0415685 -0.0478221
0.0359776 0.0421883 -0.0396464
0.0448609 0.0455117 -0.0205764
0.0446161 0.0418021 -0.0199799
0.0733614 0.0514912 -0.0347398
0.0369016 0.04475 -0.0249397
0.047394 0.0402522 -0.018199
0.0468197 0.0386359 -0.0196754
0.0476915 0.0388274 -0.0182891
0.0444333 0.0439531 -0.0211661
0.0470033 0.0377041 -0.0225827
0.0554666 0.0387769 -0.0191234
0.0557253 0.052025 -0.0141445
0.0466242 0.0444323 -0.0193362
0.0452113 0.0428633 -0.022103
0.0493491 0.0361399 -0.0317912
0.0471217 0.0382776 -0.0225265
0.0565519 0.0337708 -0.0342098
0.0564726 0.0344198 -0.0269366
0.0468638 0.0341053 -0.0238997
0.047744 0.0352078 -0.0309127
0.0524051 0.0342636 -0.0241955
0.052043 0.0342379 -0.0323345
0.0517604 0.034158 -0.0320276
0.0512641 0.034013 -0.0314606
0.0522241 0.0343101 -0.0325319
0.055468 0.0342588 -0.0343327
0.047311 0.0349772 -0.0282185
0.0524088 0.034328 -0.024171
0.0519775 0.03431 -0.0322766
0.0496622 0.0362055 -0.0311261
0.0567194 0.0340297 -0.0340287
0.0459489 0.035244 -0.0315398
0.0449342 0.0351752 -0.0230583
0.0522301 0.0342326 -0.0238005
0.0524156 0.0344054 -0.0241661
0.048688 0.03256 -0.0306366
0.0563877 0.0340437 -0.0342966
0.0558757 0.0348335 -0.0269409
0.0457879 0.0359832 -0.0332296
0.0524124 0.0344419 -0.0241211
0.0512347 0.034171 -0.031384
0.0488307 0.0340302 -0.0257702
0.0523466 0.0344206 -0.0240116
0.0512655 0.0341998 -0.0314158
0.0522035 0.0342975 -0.0237236
0.0477084 0.0326024 -0.0353762
0.0456331 0.0337007 -0.025318
0.0567766 0.0345648 -0.0269778
0.0521735 0.0349963 -0.0332233
0.052079 0.0348808 -0.0329423
0.0521888 0.0343335 -0.0237058
0.0523642 0.0344773 -0.0240112
0.0469495 0.0355693 -0.0318956
0.0451899 0.0362552 -0.0330563
0.0522255 0.0355185 -0.0329196
0.0479003 0.0355059 -0.0313203
0.0445211 0.0360955 -0.0322647
0.0518651 0.0347525 -0.0324223
0.0491419 0.0336616 -0.0340046
0.048665 0.0352113 -0.0333613
0.0555508 0.0345552 -0.0343608
0.0444398 0.0361175 -0.0322081
0.0524203 0.034576 -0.0240313
0.0523565 0.0345479 -0.0239471
0.0521743 0.0344433 -0.0236355
0.0521211 0.0343759 -0.023464
0.0441938 0.036072 -0.0318638
0.0471394 0.0348651 -0.023643
0.0464288 0.0364573 -0.0338423
0.0436273 0.0365015 -0.033145
0.0454263 0.0321712 -0.028972
0.0487362 0.0353221 -0.0334018
0.0569793 0.0347613 -0.0270014
0.0479666 0.0367696 -0.0317752
0.0521491 0.0345358 -0.0234927
0.0521249 0.0344857 -0.023402
0.0489874 0.035315 -0.0334154
0.0560942 0.0345531 -0.0343978
0.0455739 0.0354571 -0.0318357
0.0448147 0.0354305 -0.0225371
0.0521734 0.034578 -0.023471
0.0562546 0.0345707 -0.0344352
0.0524237 0.0347813 -0.0239002
0.0461948 0.0350342 -0.0303704
0.0521342 0.0345556 -0.023346
0.0443004 0.0376498 -0.0326871
0.0490406 0.0354013 -0.0334472
0.056174 0.0346624 -0.0344447
0.0560526 0.0346937 -0.0344129
0.0522661 0.0347069 -0.0235866
0.0557947 0.0348792 -0.0344843
0.0562294 0.0346849 -0.0344553
0.043675 0.036347 -0.0308308
0.0512372 0.0345468 -0.0310108
0.0461751 0.0374585 -0.0338062
0.0596348 0.036012 -0.0330785
0.0468111 0.0372036 -0.0348597
0.0508556 0.0351124 -0.0316152
0.0511328 0.0344463 -0.0306652
0.0510515 0.0339054 -0.031742
0.0560621 0.0349019 -0.0344794
0.0447259 0.0363926 -0.0231961
0.0522671 0.0348107 -0.0234667
0.0523039 0.0348912 -0.0235367
0.0521829 0.0346992 -0.0231878
0.0476464 0.0365571 -0.0356299
0.0522991 0.0349236 -0.0234432
0.0567374 0.0348258 -0.0345552
0.0479454 0.0354356 -0.0319121
0.0522348 0.0348037 -0.0231033
0.043215 0.0376165 -0.0309315
0.0522571 0.0348692 -0.023042
0.0428691 0.0376234 -0.0312191
0.0490762 0.0371899 -0.0353435
0.0462884 0.037878 -0.0226888
0.0342305 0.0345737 -0.0334028
0.0427583 0.037764 -0.0309419
0.0490609 0.0325372 -0.0395359
0.0568085 0.035265 -0.0346641
0.0551103 0.0360797 -0.0379993
0.0383776 0.0360876 -0.034441
0.0445584 0.0364488 -0.0221461
0.0448546 0.0388079 -0.0378065
0.0413394 0.0410849 -0.0378552
0.030208 0.0379425 -0.0341466
0.0396865 0.0386206 -0.0363415
0.0440269 0.0382415 -0.0229292
0.0576994 0.0438539 -0.0382304
0.0442397 0.0386633 -0.0337854
0.0437463 0.0377808 -0.0218662
0.0559072 0.0401737 -0.0398507
0.0438565 0.0376682 -0.0217083
0.04359 0.0381562 -0.0216888
0.0395076 0.0404041 -0.0264387
0.0421494 0.0402732 -0.0224403
0.0435344 0.0396082 -0.0206397
0.0409267 0.0461933 -0.0200229
0.0389514 0.0438237 -0.0240201
0.0407035 0.0451044 -0.0225168
0.040748 0.0467527 -0.020964
0.0376186 0.0423732 -0.023057
0.05804 0.0499834 -0.0408009
0.041122 0.0562643 -0.0154212
0.0556096 0.0627746 -0.0370775
0.0410889 0.0423862 -0.0231706
0.0544981 0.0381807 -0.0193005
0.0342919 0.0594871 -0.0377199
0.0535698 0.0373005 -0.020399
0.0440477 0.0419925 -0.0142056
0.0483579 0.0382688 -0.0179437
0.0557184 0.0387589 -0.0189066
0.0535594 0.0473084 -0.0191512
0.0470089 0.0345369 -0.0329487
0.0476401 0.0348169 -0.0254638
0.0532074 0.0338923 -0.0334823
0.0549633 0.0340709 -0.0264274
0.0532954 0.0339459 -0.033521
0.0472471 0.034608 -0.033003
0.0527277 0.0340198 -0.0332045
0.047631 0.0349966 -0.0254472
0.054735 0.0342997 -0.0334895
0.0473254 0.0351221 -0.0323136
0.0526413 0.0340766 -0.0330953
0.0454674 0.0347801 -0.0323647
0.0524126 0.0340505 -0.0328333
0.0520911 0.0357288 -0.0325455
0.0496788 0.0354232 -0.0312595
0.0487054 0.034363 -0.0328503
0.0508495 0.0347317 -0.0338473
0.0553714 0.0344423 -0.0265652
0.0557143 0.0344872 -0.0340562
0.0571694 0.0340309 -0.0336202
0.0529775 0.0326026 -0.0353415
0.0579555 0.0358922 -0.0336956
0.0572503 0.0340816 -0.0269253
0.0448543 0.0358005 -0.0308832
0.0563936 0.0347987 -0.0346059
0.0424693 0.0350473 -0.0313859
0.0566693 0.0341651 -0.0343756
0.0543284 0.0346262 -0.0329339
0.0569997 0.0341984 -0.0344551
0.0569277 0.0342245 -0.0344373
0.0489067 0.0353248 -0.0333344
0.0429048 0.0365614 -0.0358596
0.0570888 0.0342697 -0.0344972
0.0591613 0.0362725 -0.0324515
0.0472741 0.0347918 -0.030651
0.0424757 0.0413875 -0.0241642
0.0406324 0.0402409 -0.0248053
0.0589072 0.0345322 -0.0340997
0.0399852 0.0379622 -0.0336646
0.0580226 0.0374334 -0.0326952
0.0579827 0.0364066 -0.0335823
0.0487532 0.0409392 -0.0406766
0.0426153 0.0366843 -0.0316908
0.0430059 0.0364416 -0.0331714
0.0420932 0.0360729 -0.02775
0.0441856 0.0380597 -0.0205479
0.0755689 0.0480323 -0.0427049
0.0479821 0.0374515 -0.0184357
0.0518737 0.0475736 -0.0191549
0.0490088 0.0368612 -0.0182844
0.0465405 0.0414157 -0.0199239
0.0563052 0.0367126 -0.0192346
0.0585444 0.044281 -0.0198678
0.0491204 0.037055 -0.0182906
0.0559698 0.0731916 -0.0402314
0.0490332 0.0417114 -0.0182412
0.0571914 0.044468 -0.0194071
0.0492513 0.0371584 -0.018221
0.0545693 0.0331441 -0.0338801
0.0474698 0.0339565 -0.032922
0.060129 0.0384748 -0.0326936
0.0559358 0.0334722 -0.026579
0.0580018 0.0345733 -0.0340714
0.0490893 0.0341893 -0.0256799
0.0455269 0.0339524 -0.0227042
0.0580794 0.0346322 -0.0337418
0.0443096 0.0358774 -0.0299907
0.0500286 0.0346883 -0.0334575
0.0501386 0.0347285 -0.0334972
0.0586182 0.0361271 -0.0333059
0.0440856 0.0382724 -0.0370982
0.0545427 0.0427306 -0.0401255
0.0572575 0.0343619 -0.0344387
0.0573515 0.0344811 -0.0344492
0.0457081 0.0392466 -0.0230605
0.0577958 0.0345295 -0.0345641
0.0452203 0.0359477 -0.0213824
0.0489168 0.039104 -0.0403823
0.0452345 0.0362068 -0.0207199
0.040873 0.0415653 -0.0229571
0.0417199 0.035151 -0.0283153
0.0380253 0.042736 -0.0219287
0.0448621 0.0376303 -0.0257754
0.0462229 0.0380803 -0.0186772
0.046271 0.038175 -0.0186133
0.0430105 0.0448346 -0.0186685
0.0543579 0.0407214 -0.0194508
0.055263 0.0361818 -0.019362
0.0493409 0.0365315 -0.0173463
0.0491175 0.0368709 -0.0183238
0.0490317 0.0373181 -0.0182426
0.0486986 0.0397913 -0.0194711
0.0494637 0.0367939 -0.0182717
0.0495092 0.037039 -0.0181829
0.0496107 0.036871 -0.0181982
0.0552839 0.0452146 -0.0201634
0.0570106 0.035998 -0.0191624
0.0555776 0.0436919 -0.0184407
0.0758284 0.0499784 -0.035763
0.0609233 0.0370871 -0.0191362
0.0668749 0.047725 -0.0204776
0.0522321 0.0385252 -0.0182305
0.0697135 0.0476641 -0.0349339
0.0522518 0.0390029 -0.0181641
0.06855 0.0361955 -0.0394039
0.0678211 0.0381157 -0.0414063
0.0470169 0.0348233 -0.0198496
0.0460215 0.0518306 -0.0139019
0.0702364 0.0391857 -0.0181427
0.0749995 0.0427624 -0.028191
0.0702733 0.0339406 -0.0205072
0.0670112 0.0394328 -0.0176409
0.069346 0.0456021 -0.0389674
0.0679748 0.0517281 -0.0391967
0.0447856 0.0416929 -0.0187937
0.0701168 0.0389849 -0.01781
0.067427 0.0385694 -0.0256364
0.0626093 0.0474535 -0.0404874
0.0493637 0.0415076 -0.0155278
0.0505097 0.0369241 -0.0165652
0.0686996 0.0388991 -0.0176225
0.0414024 0.0459367 -0.0197982
0.0661052 0.0489374 -0.0414653
0.0536498 0.0328504 -0.0281847
0.0668154 0.0388919 -0.0187317
0.0573831 0.0311044 -0.0367225
0.0692095 0.0371287 -0.0339345
0.0669095 0.0383065 -0.0278301
0.0495607 0.0414968 -0.0164441
0.0605463 0.0365929 -0.0172042
0.0677216 0.0397408 -0.0394151
0.0700469 0.0407784 -0.0402627
0.0498866 0.0406399 -0.0163495
0.0664852 0.0474247 -0.036617
0.0474653 0.0354587 -0.0150224
0.0503476 0.0388578 -0.0186783
0.0399912 0.037044 -0.0342682
0.0521121 0.0540748 -0.0154831
0.0713012 0.0468227 -0.0344983
0.0443981 0.0349142 -0.0171713
0.061876 0.0374146 -0.0171716
0.0410435 0.0388395 -0.0185172
0.0661141 0.0637176 -0.0289989
0.0607702 0.0433802 -0.0172832
0.0581219 0.0323722 -0.0354037
0.0481734 0.059751 -0.0271605
0.0535117 0.032216 -0.030752
0.0551747 0.0395715 -0.0368276
0.0512521 0.060846 -0.0286242
0.0328401 0.039713 -0.0336265
0.0389282 0.0423249 -0.0156973
0.0737358 0.0614569 -0.0181996
0.0517684 0.0437427 -0.0149593
0.0477472 0.0383435 -0.0177661
0.057928 0.0315238 -0.0360859
0.0499847 0.0391213 -0.0175416
0.0564329 0.0309495 -0.0280424
0.0497044 0.0372576 -0.0161195
0.076168 0.0727956 -0.0432279
0.040311 0.0537083 -0.0153448
0.047965 0.0347176 -0.0160363
0.0553364 0.0457201 -0.0142841
0.0602011 0.0616458 -0.0274858
0.064062 0.0673926 -0.0240838
0.0651635 0.0577018 -0.0230522
0.0669777 0.0497863 -0.0254186
0.0373661 0.0593455 -0.020424
0.0568739 0.0327039 -0.0333069
0.0461386 0.0691449 -0.0323165
0.045781 0.0352412 -0.0225464
0.0515538 0.0412957 -0.0138043
0.0410798 0.0324933 -0.0190403
0.0499739 0.0400003 -0.0175822
0.0333788 0.0677959 -0.044349
0.0620139 0.0820521 -0.0449428
0.0661681 0.047057 -0.0387452
0.0394977 0.0469737 -0.0211783
0.0384305 0.0466974 -0.0214192
0.0477711 0.0342718 -0.0232137
0.0551034 0.0330614 -0.0307541
0.0676097 0.0463821 -0.0200393
0.0700334 0.0444998 -0.0385044
0.0463961 0.0327833 -0.0250552
0.0522996 0.0317248 -0.0299782
0.0523552 0.0380709 -0.0195924
0.0529771 0.0330157 -0.0380114
0.0693584 0.0483099 -0.00883866
0.0479256 0.033902 -0.0212653
0.0640784 0.0416364 -0.0359521
0.0522374 0.032195 -0.0317394
0.0384423 0.0403134 -0.0231596
0.0470881 0.0368248 -0.0205645
0.0495066 0.0308804 -0.0301218
0.0418749 0.0355548 -0.0220428
0.0579446 0.0309822 -0.0372382
0.0571995 0.0590789 -0.0146563
0.0436174 0.0336249 -0.0186546
0.0583884 0.0383588 -0.0185971
0.0502838 0.0352458 -0.019473
0.0569575 0.0742516 -0.0109527
0.0661343 0.0449968 -0.0194705
0.0515291 0.0321566 -0.0303489
0.0477972 0.0377089 -0.0197756
0.0426397 0.0320134 -0.0204323
0.0622555 0.0519486 -0.0113721
0.0587092 0.0354351 -0.0323873
0.057668 0.0358788 -0.0280212
0.0525979 0.0410951 -0.0150176
0.0421646 0.0675712 -0.00577665
0.0476812 0.0332827 -0.0329608
0.0534173 0.0325978 -0.0300915
0.0583734 0.0658935 -0.0169169
0.0623194 0.0362522 -0.0317215
0.0513908 0.0312486 -0.0322462
0.0481934 0.0306739 -0.0256525
0.0538721 0.0360065 -0.0367231
0.0390672 0.0390775 -0.0180589
0.0570487 0.0308749 -0.0346473
0.0579115 0.0366929 -0.0404621
0.0471336 0.0353278 -0.030987
0.0616518 0.12061 -0.0409307
0.0531864 0.0354198 -0.0189428
0.0594177 0.0328142 -0.027417
0.0559726 0.0435006 -0.0200375
0.0552037 0.0317014 -0.0337863
0.0486592 0.0328137 -0.0256253
0.0492105 0.0326914 -0.0257555
0.0544952 0.0319123 -0.0336004
0.0485946 0.0324659 -0.0329985
0.0484452 0.03248 -0.0329213
0.0479135 0.0326007 -0.0327651
0.055659 0.0317054 -0.0339731
0.0487872 0.0324878 -0.0331033
0.0551718 0.031843 -0.0338083
0.048732 0.0325757 -0.0330864
0.0485209 0.0326385 -0.0330136
0.0482928 0.032715 -0.0329502
0.0485502 0.0326809 -0.0330387
0.0480783 0.0328023 -0.0329124
0.0467899 0.0330237 -0.0326171
0.048338 0.0327563 -0.0329831
0.0551369 0.0320726 -0.0338961
0.0472661 0.0334347 -0.0317744
0.0488612 0.0327302 -0.0331733
0.0468288 0.0331407 -0.032649
0.0486358 0.0327957 -0.0330895
0.059478 0.0396368 -0.0338055
0.0491856 0.0327463 -0.0332984
0.0465035 0.0332241 -0.0324069
0.0489336 0.0328241 -0.0332133
0.0472112 0.0332228 -0.032825
0.0488134 0.0329069 -0.0331945
0.0594526 0.0367908 -0.0315063
0.0465689 0.0333319 -0.0324709
0.0470222 0.033332 -0.0327518
0.0469255 0.0333441 -0.0327026
0.0564215 0.0320579 -0.034316
0.0474395 0.0333035 -0.0329284
