ply
format ascii 1.0
comment Created by Open3D
element vertex 1258
property double x
property double y
property double z
property uchar red
property uchar green
property uchar blue
end_header
0.0678893 0.18775 -0.0299424 112 68 60
0.0660761 0.183567 -0.0282372 108 65 57
0.0607517 0.184792 -0.0331735 109 66 59
0.0564329 0.178662 -0.0269182 119 74 65
0.0757725 0.173361 -0.0406592 72 47 41
0.0622854 0.183679 -0.0461443 0 0 0
0.0709494 0.174577 -0.0522714 105 66 59
0.0666952 0.178956 -0.0387493 83 52 46
0.0674105 0.191401 -0.023785 0 0 0
0.0725835 0.187674 -0.0215166 167 91 81
0.0748175 0.185999 -0.0463372 88 54 48
0.0853823 0.193473 -0.0292071 121 77 68
0.0754042 0.175581 -0.0526397 104 64 57
0.0756469 0.181424 -0.0271803 120 76 67
0.0926439 0.175577 -0.016274 0 0 0
0.0554566 0.182586 -0.0398706 0 0 0
0.0765611 0.185189 -0.052608 129 85 76
0.0726918 0.187099 -0.034561 80 50 44
0.0911639 0.162422 -0.0254657 113 71 63
0.0769641 0.106481 -0.0433715 103 65 57
0.0854424 0.189672 -0.0291912 113 71 63
0.0715351 0.186484 -0.0216449 127 73 66
0.0645654 0.195661 -0.0393381 0 0 0
0.0605014 0.185659 -0.0324824 121 75 67
0.0872188 0.18878 -0.0155107 0 0 0
0.0771589 0.193379 -0.0196431 0 0 0
0.092406 0.187531 -0.0302428 0 0 0
0.0882876 0.197301 -0.0285959 0 0 0
0.0587599 0.169754 -0.0345903 112 68 61
0.0900122 0.197917 -0.0279123 0 0 0
0.0618693 0.189442 -0.0231352 0 0 0
0.0937887 0.180439 -0.0325872 102 69 61
0.0683343 0.190153 -0.0487021 0 0 0
0.0936159 0.175264 -0.0361809 133 82 72
0.0684785 0.195578 -0.0413823 0 0 0
0.0765136 0.189209 -0.0278959 117 73 64
0.0751115 0.187628 -0.0481982 107 66 58
0.0882239 0.189467 -0.0322064 110 69 61
0.0937448 0.180199 -0.0273689 0 0 0
0.0636296 0.185584 -0.0335017 114 71 63
0.087042 0.191356 -0.0441518 96 79 71
0.0772023 0.194759 -0.0488569 173 78 69
0.0780995 0.196956 -0.0252349 216 124 109
0.0795428 0.19068 -0.0520156 0 0 0
0.0887524 0.193704 -0.0407463 125 95 85
0.0636684 0.188569 -0.0261578 164 86 76
0.0730148 0.188875 -0.0187321 0 0 0
0.0749103 0.187554 -0.0437073 101 64 57
0.0661376 0.190419 -0.0234187 0 0 0
0.0684258 0.191609 -0.0409234 114 71 63
0.0543037 0.184438 -0.0358914 0 0 0
0.0938094 0.179062 -0.0260262 0 0 0
0.082984 0.18683 -0.0439451 98 60 52
0.079391 0.17945 -0.0330502 90 57 51
0.0966929 0.154735 -0.0314532 119 72 64
0.0648261 0.188539 -0.0235324 0 0 0
0.0899459 0.18602 -0.0202128 0 0 0
0.0834595 0.199861 -0.0436631 89 69 62
0.0776562 0.17369 -0.0511727 110 68 61
0.0619249 0.188342 -0.0409392 0 0 0
0.0622438 0.187334 -0.0425852 0 0 0
0.0819205 0.202659 -0.0409309 128 86 77
0.076872 0.182098 -0.0453766 103 65 58
0.082837 0.179167 -0.0200584 122 73 64
0.0755782 0.181879 -0.0462747 104 65 58
0.0499628 0.170736 -0.028779 113 69 61
0.082613 0.182706 -0.0210387 134 84 74
0.0935034 0.178873 -0.0267244 0 0 0
0.077483 0.180011 -0.0485226 96 57 51
0.0795336 0.187878 -0.0448227 99 60 53
0.0708386 0.183812 -0.0188633 0 0 0
0.0842931 0.1818 -0.0384191 98 58 51
0.0872096 0.178088 -0.0269009 111 69 62
0.0673379 0.192084 -0.0429495 0 0 0
0.0529351 0.173953 -0.0376886 105 65 58
0.0963196 0.180219 -0.0314555 0 0 0
0.0618381 0.184814 -0.0235381 0 0 0
0.0799346 0.189852 -0.0249084 130 81 72
0.0899475 0.181395 -0.0181606 0 0 0
0.0638202 0.184112 -0.0331259 106 66 59
0.0826314 0.183396 -0.0302337 109 70 62
0.0914819 0.191965 -0.029406 0 0 0
0.0579719 0.184127 -0.033286 134 85 75
0.0835153 0.178821 -0.0199297 123 75 66
0.0957527 0.186225 -0.0325128 0 0 0
0.0864714 0.178194 -0.0264864 114 71 63
0.0666795 0.194557 -0.0399054 0 0 0
0.0639444 0.188465 -0.0411449 0 0 0
0.0762795 0.191725 -0.0482921 137 94 84
0.0651855 0.18536 -0.0219369 0 0 0
0.056159 0.170706 -0.0128757 0 0 0
0.0861882 0.178994 -0.0249814 122 77 69
0.0904574 0.190616 -0.0242927 0 0 0
0.078205 0.178144 -0.0560496 115 78 70
0.0924117 0.174132 -0.0258414 90 63 56
0.0795545 0.192295 -0.0438498 88 54 48
0.064607 0.18921 -0.0427355 0 0 0
0.0825446 0.190498 -0.0509098 0 0 0
0.0827533 0.192043 -0.0382703 103 64 57
0.0859739 0.187656 -0.0285791 107 66 58
0.0551374 0.173717 -0.048383 140 78 68
0.0522588 0.169216 -0.0284513 107 65 57
0.0613027 0.192424 -0.0358728 0 0 0
0.0779018 0.179862 -0.0470957 110 68 60
0.0819441 0.17932 -0.017823 141 93 82
0.0589108 0.184062 -0.0344215 121 75 68
0.0827779 0.201631 -0.0418813 111 77 68
0.0854319 0.172162 -0.0315957 103 66 58
0.0791576 0.179088 -0.0268377 109 65 56
0.0864496 0.174652 -0.0239799 118 73 65
0.081155 0.189084 -0.0498825 0 0 0
0.0668207 0.184664 -0.0475248 142 77 67
0.0788297 0.198286 -0.0504131 0 0 0
0.0753378 0.19188 -0.0209965 0 0 0
0.0796249 0.186226 -0.0248334 127 79 70
0.0798011 0.181944 -0.0190533 144 98 87
0.0695988 0.191486 -0.0462281 0 0 0
0.0842878 0.196932 -0.0428812 81 54 48
0.0591085 0.174701 -0.0155528 0 0 0
0.0870213 0.193275 -0.0287178 93 61 54
0.0851333 0.196459 -0.0419219 86 55 49
0.0726215 0.177186 -0.049437 103 64 58
0.077077 0.183043 -0.0223302 136 88 78
0.0660425 0.186604 -0.021603 0 0 0
0.0771561 0.191592 -0.0433622 95 61 55
0.0866073 0.20352 -0.0437957 0 0 0
0.0872371 0.185986 -0.0266007 104 66 58
0.0834963 0.182078 -0.0275939 105 67 60
0.076453 0.182094 -0.0471937 104 65 59
0.0887522 0.187341 -0.0472154 0 0 0
0.0553106 0.174625 -0.052601 0 0 0
0.0494842 0.174566 -0.0189315 0 0 0
0.0747531 0.192185 -0.0508609 0 0 0
0.0902843 0.181132 -0.0274944 90 62 55
0.0814539 0.18495 -0.0446986 98 61 53
0.0555595 0.184474 -0.0376447 0 0 0
0.0845688 0.17939 -0.0331661 104 67 59
0.0704676 0.19634 -0.0225261 0 0 0
0.0530332 0.179174 -0.021727 0 0 0
0.063437 0.184709 -0.0315118 116 70 62
0.0882511 0.1873 -0.0489188 0 0 0
0.0834374 0.16686 -0.0234707 108 66 59
0.0650257 0.187027 -0.0223326 0 0 0
0.0574002 0.172261 -0.0138908 0 0 0
0.0681034 0.167198 -0.0164134 124 76 68
0.0697366 0.190119 -0.022669 0 0 0
0.0830787 0.184993 -0.0214471 139 91 80
0.0594217 0.174216 -0.0153325 0 0 0
0.100272 0.186637 -0.0328593 0 0 0
0.0901208 0.196309 -0.0292695 0 0 0
0.0824038 0.191536 -0.0487927 0 0 0
0.0661005 0.104579 -0.0431587 96 61 54
0.0925097 0.181658 -0.0161745 0 0 0
0.0755537 0.195827 -0.047288 0 0 0
0.0633614 0.187962 -0.0244859 0 0 0
0.0771906 0.195449 -0.0461683 178 126 113
0.0890872 0.180713 -0.0297452 108 68 60
0.0804318 0.186823 -0.024068 131 82 73
0.0452191 0.151175 -0.0402911 104 62 55
0.0777427 0.185874 -0.0305262 112 70 61
0.0873427 0.193843 -0.04372 0 0 0
0.0789514 0.149294 -0.00722129 126 81 72
0.0743456 0.137628 -0.0176012 132 90 80
0.0447989 0.154001 -0.0509947 100 60 53
0.0617351 0.149527 -0.0385457 85 55 49
0.102407 0.160936 -0.0496497 157 98 89
0.0885335 0.174365 -0.0338025 99 61 54
0.0427563 0.172742 -0.0427358 0 0 0
0.0870675 0.178995 -0.0302981 100 64 57
0.0517844 0.157989 -0.0579518 119 72 64
0.0602978 0.147549 -0.0182001 115 72 64
0.0588614 0.181764 -0.0217633 0 0 0
0.07324 0.141956 -0.0282491 118 75 67
0.0747809 0.191262 -0.03077 105 66 58
0.0642331 0.16227 -0.00688335 98 68 60
0.0579085 0.171143 -0.0517333 125 79 71
0.0993465 0.147271 -0.0530751 209 134 120
0.0757358 0.192591 -0.0188141 0 0 0
0.0802916 0.18948 -0.0439606 98 60 53
0.0540705 0.179433 -0.0426107 0 0 0
0.0831458 0.185052 -0.0369327 108 66 59
0.0827627 0.179602 -0.0306454 110 72 64
0.0913039 0.177877 -0.0423403 149 96 85
0.071607 0.183321 -0.0150434 0 0 0
0.0854946 0.200402 -0.0350213 92 58 51
0.0848384 0.19644 -0.0461994 0 0 0
0.0628748 0.165001 -0.0704827 203 121 109
0.0798986 0.18775 -0.044467 103 63 56
0.0843609 0.167683 -0.0181416 121 75 67
0.0771805 0.165235 -0.0611957 128 81 73
0.0688909 0.171582 -0.0352618 93 59 52
0.0768167 0.192239 -0.0300322 114 71 63
0.0581359 0.184965 -0.0432855 0 0 0
0.067556 0.186615 -0.0201105 0 0 0
0.0761516 0.190805 -0.0248669 109 68 60
0.0871847 0.19761 -0.0234386 0 0 0
0.0957991 0.181547 -0.0233903 0 0 0
0.0861309 0.185581 -0.0365213 106 66 59
0.0536885 0.175734 -0.0270531 120 74 66
0.0828768 0.186536 -0.00890754 0 0 0
0.0826287 0.195441 -0.0476613 0 0 0
0.0802712 0.184251 -0.044198 104 64 57
0.0780115 0.187697 -0.0450101 100 63 56
0.093679 0.172826 -0.0372248 135 83 73
0.0735576 0.191914 -0.0489005 156 89 81
0.0465741 0.158755 -0.0303228 115 70 62
0.0682351 0.152026 -0.00428281 128 80 70
0.0523135 0.170882 -0.0541652 0 0 0
0.0817955 0.190082 -0.0360608 84 53 47
0.102356 0.167433 -0.0377038 152 89 80
0.0412218 0.16265 -0.0420048 128 83 72
0.0720837 0.169751 -0.0591142 120 73 65
0.0903743 0.201138 -0.0401771 0 0 0
0.0893815 0.190031 -0.0201168 0 0 0
0.0800881 0.182894 -0.0189875 144 101 90
0.087503 0.202446 -0.0342284 88 59 52
0.0985622 0.187799 -0.0368657 0 0 0
0.090023 0.189294 -0.0459244 0 0 0
0.0678508 0.192944 -0.0237193 0 0 0
0.0947634 0.194864 -0.0359713 0 0 0
0.0947088 0.172805 -0.0362346 136 85 75
0.0773023 0.202568 -0.0295837 184 97 86
0.0858335 0.148812 -0.0163596 117 72 64
0.0865729 0.206776 -0.0423664 0 0 0
0.0900841 0.186687 -0.0456245 0 0 0
0.049197 0.181048 -0.0317894 97 72 65
0.0937669 0.173669 -0.0329533 121 75 66
0.101102 0.158596 -0.0216278 0 0 0
0.106704 0.169229 -0.0384159 0 0 0
0.0759099 0.194716 -0.0193697 0 0 0
0.0605377 0.190186 -0.028885 148 83 74
0.0877623 0.195434 -0.0397811 134 88 79
0.0799445 0.177308 -0.0527011 102 63 56
0.0917796 0.171173 -0.00981358 0 0 0
0.0766666 0.163542 -0.00854542 141 97 86
0.0378518 0.166943 -0.0220767 0 0 0
0.0942655 0.189649 -0.0443673 0 0 0
0.0879665 0.194463 -0.0436964 0 0 0
0.0744846 0.186729 -0.023398 124 80 71
0.0895016 0.186929 -0.0200088 0 0 0
0.0741769 0.180509 -0.0551933 133 86 77
0.0903694 0.195524 -0.0446755 0 0 0
0.0735176 0.182026 -0.0627668 0 0 0
0.0874249 0.186612 -0.0504671 0 0 0
0.072557 0.191622 -0.0454772 125 77 68
0.0916419 0.188081 -0.0198101 0 0 0
0.0788592 0.179639 -0.0221786 128 79 70
0.0806949 0.204439 -0.0415749 0 0 0
0.0881442 0.187258 -0.0469521 0 0 0
0.0838472 0.195225 -0.0334143 94 59 52
0.0913912 0.141897 -0.0504946 145 86 76
0.0810326 0.185905 -0.0252488 125 78 69
0.0761979 0.1963 -0.04296 112 69 61
0.090697 0.190759 -0.028233 0 0 0
0.0873137 0.1917 -0.0459597 0 0 0
0.0541051 0.174665 -0.0267125 121 73 65
0.0911789 0.183907 -0.0218499 0 0 0
0.0713837 0.191634 -0.0491821 0 0 0
0.088727 0.199634 -0.028824 0 0 0
0.0924226 0.17718 -0.035004 127 78 69
0.100943 0.150844 -0.0220418 0 0 0
0.087345 0.192485 -0.0456757 0 0 0
0.0890835 0.196503 -0.0406348 0 0 0
0.0805736 0.186516 -0.0429101 107 68 60
0.0839225 0.193731 -0.0262676 134 87 77
0.0341406 0.138002 -0.0481852 103 60 53
0.079108 0.186897 -0.0268594 122 73 64
0.0800984 0.181288 -0.030959 91 57 50
0.0924913 0.186033 -0.0291665 0 0 0
0.0844486 0.162611 -0.0196177 118 73 64
0.0779479 0.15463 -0.00690337 133 86 76
0.054132 0.161237 -0.0606306 129 79 70
0.0619429 0.14053 -0.0366791 87 56 50
0.105637 0.165383 -0.0520801 0 0 0
0.0953601 0.170424 -0.034019 125 78 68
0.0479644 0.165365 -0.0479306 117 74 65
0.0851572 0.160022 -0.0224909 108 67 60
0.0918406 0.181251 -0.0160337 0 0 0
0.0518266 0.160598 -0.0551713 113 69 61
0.0588441 0.180909 -0.0518863 0 0 0
0.0592518 0.139032 -0.0198054 122 80 71
0.0646169 0.163222 -0.00706443 100 71 63
0.0583716 0.181244 -0.0465513 0 0 0
0.0793165 0.189484 -0.0417405 88 55 49
0.0803117 0.195371 -0.015147 0 0 0
0.0876673 0.184199 -0.045516 126 87 78
0.0877216 0.189145 -0.0366355 106 63 56
0.0896939 0.189087 -0.0327957 97 60 53
0.0892676 0.175059 -0.0402407 131 79 69
0.0759204 0.18625 -0.0161744 0 0 0
0.0822172 0.196502 -0.0453992 94 68 60
0.0752339 0.171025 -0.067725 0 0 0
0.0572911 0.175127 -0.0529722 0 0 0
0.0862991 0.171752 -0.0254963 112 70 63
0.0790657 0.171676 -0.0621709 0 0 0
0.0555601 0.143754 -0.0274846 107 66 58
0.100323 0.152225 -0.0205941 0 0 0
0.072185 0.1855 -0.0255093 118 73 65
0.0833782 0.182553 -0.0281827 96 59 52
0.0716963 0.194157 -0.0222607 0 0 0
0.057245 0.183061 -0.0440668 0 0 0
0.0706636 0.183695 -0.0246321 115 71 63
0.0887286 0.192387 -0.0240191 0 0 0
0.0948707 0.179701 -0.0251091 0 0 0
0.0841302 0.182786 -0.0302651 94 59 52
0.0585675 0.176692 -0.0179841 0 0 0
0.0796797 0.184099 -0.00671495 0 0 0
0.0769662 0.183923 -0.0455425 98 61 54
0.0770591 0.191005 -0.0432505 92 59 52
0.0830197 0.181275 -0.0420705 108 65 57
0.0769989 0.187678 -0.0453725 94 59 53
0.096451 0.174167 -0.0281617 0 0 0
0.0817928 0.187203 -0.050793 0 0 0
0.0445393 0.165312 -0.0294931 115 71 63
0.0577293 0.145294 -0.00702825 113 69 61
0.0496528 0.17465 -0.0476377 0 0 0
0.0830638 0.178605 -0.0307023 105 67 59
0.0978359 0.173173 -0.0419194 150 111 101
0.0606797 0.162739 -0.00731493 94 70 64
0.0685242 0.0524898 -0.0497112 105 65 58
0.069505 0.163325 -0.0632262 125 76 68
0.0881414 0.199193 -0.0368074 129 82 72
0.0693845 0.158877 -0.0133008 123 75 66
0.089632 0.188439 -0.0218929 0 0 0
0.0733483 0.192094 -0.0298348 115 69 61
0.100243 0.185112 -0.0368547 0 0 0
0.0376307 0.159137 -0.0328985 108 65 58
0.0672961 0.192017 -0.0250084 0 0 0
0.0903834 0.185749 -0.0350381 116 69 61
0.0837731 0.195675 -0.0350641 102 66 59
0.0919923 0.178424 -0.0369047 132 80 71
0.0879666 0.1852 -0.0363731 112 71 62
0.0803265 0.201045 -0.0428127 129 83 73
0.0654631 0.198952 -0.0285471 0 0 0
0.0776267 0.199304 -0.0298549 115 70 61
0.0947144 0.189036 -0.0343697 0 0 0
0.0907334 0.155318 -0.0149732 102 66 59
0.085807 0.205354 -0.0348228 88 59 52
0.0927665 0.195334 -0.0455876 0 0 0
0.0959395 0.150409 -0.0421093 137 82 73
0.0946357 0.1676 -0.0253437 131 77 69
0.0619223 0.160656 -0.0105725 111 75 67
0.0972718 0.149459 -0.0262304 112 70 62
0.0631665 0.15912 -0.0165661 113 70 62
0.102109 0.186266 -0.0311731 0 0 0
0.0785423 0.190949 -0.0167805 0 0 0
0.0874533 0.190865 -0.028409 95 62 55
0.0472444 0.156719 -0.0380223 111 67 60
0.0908957 0.172531 -0.0227111 88 60 53
0.0871453 0.193791 -0.0465743 0 0 0
0.0739925 0.188314 -0.026183 114 70 62
0.0743383 0.185829 -0.0389107 61 43 38
0.0754483 0.182324 -0.0488186 96 58 52
0.0590097 0.162882 -0.00513609 0 0 0
0.0949942 0.186389 -0.0436153 0 0 0
0.0626807 0.164866 -0.0114473 89 62 55
0.0724583 0.186552 -0.0186354 0 0 0
0.0893792 0.187344 -0.0209508 0 0 0
0.0791387 0.184626 -0.0561068 0 0 0
0.0899441 0.18841 -0.0477452 0 0 0
0.0753721 0.178121 -0.00770495 0 0 0
0.0747266 0.185132 -0.060957 0 0 0
0.0733791 0.193761 -0.0443931 161 90 80
0.091536 0.188462 -0.0194863 0 0 0
0.0838193 0.213039 -0.0382307 0 0 0
0.0926552 0.195898 -0.0420293 0 0 0
0.0804595 0.177844 -0.0258033 112 70 62
0.0870674 0.184614 -0.0413181 133 81 71
0.0782473 0.186877 -0.0256605 128 82 72
0.0890041 0.195143 -0.0418519 0 0 0
0.05283 0.171297 -0.0234963 122 76 68
0.0647749 0.197451 -0.0289327 0 0 0
0.0879625 0.18758 -0.0253495 117 76 69
0.0693697 0.184027 -0.0453688 97 60 53
0.0904592 0.200942 -0.0332529 0 0 0
0.0919105 0.174587 -0.0383498 133 80 71
0.0834457 0.153962 -0.0200217 113 70 62
0.0934312 0.148983 -0.0206871 110 69 61
0.0803182 0.170066 -0.0112288 145 103 91
0.0773753 0.185659 -0.0421063 78 51 46
0.0790135 0.210799 -0.0362102 0 0 0
0.0603835 0.162228 -0.0524296 94 57 50
0.0599077 0.15235 -0.0489305 51 37 33
0.0702459 0.164334 -0.0363436 88 56 50
0.071077 0.159018 -0.0352207 90 58 52
0.0764483 0.161646 -0.0320182 97 61 55
0.087344 0.166197 -0.0308425 101 64 57
0.0851225 0.175656 -0.0269909 102 65 57
0.0617954 0.161886 -0.051223 90 57 51
0.0583479 0.170571 -0.0320146 114 70 62
0.0613174 0.160189 -0.036698 90 57 51
0.0706313 0.167123 -0.0314476 105 65 57
0.0769932 0.15774 -0.0287281 108 68 60
0.0896721 0.176011 -0.0270095 103 65 58
0.0781691 0.146423 -0.0376763 98 63 56
0.0597728 0.158613 -0.0418949 59 38 34
0.0710901 0.17531 -0.0196852 122 76 67
0.061978 0.158626 -0.0363242 89 57 50
0.0615842 0.173245 -0.0210262 110 69 61
0.0668794 0.150649 -0.0397763 74 49 44
0.0598236 0.162803 -0.0398229 87 53 48
0.0744469 0.161754 -0.0406936 73 48 43
0.0763996 0.176073 -0.0210797 128 80 71
0.0701881 0.175387 -0.0272736 115 74 65
0.0635774 0.173584 -0.0269332 113 71 63
0.0571885 0.168017 -0.0362708 109 67 59
0.0644984 0.168098 -0.0298688 104 63 56
0.0761343 0.186942 -0.0534112 118 79 71
0.0767724 0.180151 -0.0479428 101 62 55
0.0739226 0.166714 -0.0374517 83 55 49
0.0868309 0.179089 -0.032143 91 55 48
0.0617055 0.172349 -0.0247577 103 61 54
0.0582729 0.182803 -0.0464244 0 0 0
0.0595225 0.182808 -0.0427226 0 0 0
0.0638381 0.177762 -0.0371431 83 50 44
0.0618491 0.167033 -0.0338101 91 54 48
0.0751851 0.176597 -0.0334458 85 53 47
0.0999886 0.183099 -0.0367609 0 0 0
0.0641734 0.174106 -0.0283591 112 70 62
0.0623663 0.174586 -0.0260779 103 61 54
0.0714817 0.17759 -0.0535204 114 69 62
0.0632069 0.175824 -0.0279178 111 68 60
0.0779245 0.170072 -0.0392037 87 55 49
0.0622502 0.180713 -0.0455515 121 76 68
0.0588781 0.178691 -0.0299354 116 70 62
0.0667001 0.175332 -0.0263223 113 71 63
0.0603042 0.177108 -0.0338475 111 69 61
0.0600284 0.184269 -0.0347989 110 67 60
0.0636036 0.181565 -0.0511086 0 0 0
0.0545099 0.179073 -0.0454029 0 0 0
0.070193 0.184646 -0.034624 87 53 47
0.071314 0.170259 -0.038971 54 39 34
0.0868518 0.168073 -0.0310968 101 64 57
0.0675533 0.171756 -0.0339749 88 55 49
0.069092 0.180119 -0.0510685 113 69 61
0.0625677 0.181541 -0.0462785 118 73 64
0.0792077 0.186419 -0.0519593 111 77 69
0.0877527 0.171889 -0.0361735 100 61 54
0.0949646 0.19537 -0.0268065 0 0 0
0.0423943 0.172162 -0.0411961 0 0 0
0.0639118 0.15183 -0.0462974 53 39 35
0.0671742 0.168361 -0.032988 86 53 47
0.0662961 0.183599 -0.0290726 107 64 57
0.062554 0.168781 -0.0249177 113 70 62
0.0679293 0.185873 -0.0172728 0 0 0
0.0502595 0.17726 -0.0218708 0 0 0
0.074593 0.177841 -0.0560863 131 83 75
0.0709102 0.179286 -0.0567944 139 91 81
0.0810257 0.190194 -0.0558726 0 0 0
0.0648227 0.170753 -0.0392822 79 49 44
0.0750168 0.178351 -0.0252129 118 72 64
0.063564 0.180665 -0.0532773 0 0 0
0.0687631 0.175815 -0.0434291 68 46 41
0.0726432 0.192512 -0.0242761 157 83 74
0.0783625 0.178106 -0.0453596 113 71 63
0.0675394 0.191804 -0.0237738 0 0 0
0.0503969 0.177355 -0.0399795 0 0 0
0.0829453 0.183233 -0.0382331 100 60 53
0.0600605 0.190601 -0.0362866 0 0 0
0.0595302 0.167996 -0.0259213 110 67 59
0.0615267 0.183334 -0.0309131 110 65 58
0.0722505 0.173317 -0.0377097 54 39 35
0.0819277 0.178609 -0.0226013 123 77 68
0.0625853 0.187136 -0.0413221 0 0 0
0.0884771 0.181602 -0.0289026 108 67 59
0.0885851 0.186638 -0.0393214 132 81 71
0.0840391 0.193887 -0.0338782 98 62 55
0.0836232 0.176716 -0.032722 105 66 59
0.0569537 0.179764 -0.0311544 116 71 63
0.0586799 0.185054 -0.0393387 0 0 0
0.0850458 0.177381 -0.0318886 101 65 57
0.088568 0.184441 -0.0470794 0 0 0
0.0563668 0.182494 -0.0398373 0 0 0
0.0699573 0.189647 -0.0499841 0 0 0
0.0755355 0.186055 -0.0598219 0 0 0
0.0713716 0.18327 -0.026095 109 68 60
0.0674718 0.18468 -0.0283678 109 66 58
0.081054 0.181813 -0.0310104 90 56 50
0.0975949 0.181501 -0.0341932 0 0 0
0.0514295 0.172329 -0.0407874 102 64 57
0.0711574 0.18971 -0.0205935 0 0 0
0.0712058 0.177468 -0.0321405 101 62 54
0.0806493 0.188521 -0.0173149 0 0 0
0.0861407 0.172081 -0.0350058 104 65 57
0.0538017 0.181837 -0.026518 141 84 76
0.0839801 0.185494 -0.0389346 99 62 55
0.078567 0.191422 -0.0407357 72 48 43
0.0669652 0.179147 -0.0275423 112 69 61
0.0796278 0.181158 -0.0441509 110 68 60
0.0920238 0.184079 -0.0250541 0 0 0
0.0857555 0.175023 -0.0505266 122 78 70
0.0665156 0.188687 -0.0335757 112 70 62
0.0830279 0.194275 -0.0475187 0 0 0
0.0849389 0.180915 -0.0311416 101 65 58
0.0726856 0.193421 -0.0182233 0 0 0
0.0837544 0.174736 -0.0294987 110 72 64
0.0637935 0.185455 -0.0214459 0 0 0
0.0896363 0.192094 -0.0261012 0 0 0
0.0856839 0.181338 -0.0335085 96 60 53
0.0767384 0.186455 -0.0273655 117 73 64
0.0779249 0.185029 -0.0439029 100 63 56
0.0546898 0.185645 -0.0395409 0 0 0
0.051834 0.173845 -0.0352958 110 68 61
0.0716029 0.177437 -0.0572999 139 89 79
0.0602285 0.186513 -0.0406138 0 0 0
0.0672123 0.190472 -0.0232533 0 0 0
0.0728578 0.189735 -0.0520331 160 94 86
0.0847385 0.195669 -0.0354224 94 61 54
0.089193 0.197367 -0.0300346 0 0 0
0.0750707 0.180428 -0.0486349 98 60 53
0.0690487 0.192179 -0.0237031 0 0 0
0.0778075 0.177528 -0.0531243 102 62 55
0.0628251 0.181767 -0.0453382 119 76 67
0.0802847 0.181907 -0.0175718 141 101 90
0.0644265 0.186576 -0.0277556 120 74 65
0.0852964 0.202404 -0.0439852 0 0 0
0.0816108 0.176953 -0.0274298 109 68 60
0.0709798 0.189185 -0.040646 94 58 51
0.0731145 0.183537 -0.0223839 120 76 68
0.0781626 0.192101 -0.043643 87 55 49
0.0704189 0.0875743 -0.049019 99 63 56
0.0894664 0.178901 -0.0325026 111 69 61
0.0624357 0.190383 -0.0382777 0 0 0
0.0865492 0.186944 -0.0282591 113 71 63
0.0717784 0.187313 -0.0204428 0 0 0
0.0579012 0.184399 -0.0363811 130 92 81
0.0752865 0.187945 -0.0175107 0 0 0
0.0757137 0.194337 -0.0196941 0 0 0
0.0885804 0.187969 -0.0251502 0 0 0
0.0919816 0.195878 -0.0266182 0 0 0
0.0531099 0.177203 -0.0308094 117 72 64
0.0905625 0.195983 -0.0280171 0 0 0
0.0856029 0.181835 -0.0473628 120 75 67
0.0682433 0.194951 -0.0386826 0 0 0
0.0720806 0.190433 -0.0243059 172 95 84
0.0879141 0.189605 -0.0476821 0 0 0
0.07444 0.19631 -0.0476489 0 0 0
0.0739567 0.194212 -0.0292793 120 74 66
0.0887718 0.190673 -0.0420064 126 95 85
0.093117 0.193274 -0.033035 0 0 0
0.0692063 0.188806 -0.0213294 0 0 0
0.0857349 0.179905 -0.0245385 122 77 68
0.0690536 0.190057 -0.0396357 92 56 49
0.0724097 0.183704 -0.0449866 105 66 59
0.0791323 0.181002 -0.0463859 106 65 57
0.0881753 0.185999 -0.0274319 105 69 61
0.0633918 0.187997 -0.0239596 0 0 0
0.0853935 0.1919 -0.0473532 0 0 0
0.0866104 0.171365 -0.0483543 126 77 68
0.0679136 0.19431 -0.0408927 0 0 0
0.0648652 0.187752 -0.0438497 0 0 0
0.0603267 0.182265 -0.0295277 115 70 62
0.0812738 0.194294 -0.0350638 87 57 51
0.0791598 0.190524 -0.0418677 87 55 49
0.0699208 0.193093 -0.0239823 0 0 0
0.0835617 0.187949 -0.0151555 0 0 0
0.0750311 0.200905 -0.0397473 0 0 0
0.0673727 0.178358 -0.0277896 116 73 64
0.0546839 0.187829 -0.0340426 0 0 0
0.079201 0.189115 -0.0446823 97 60 53
0.0692201 0.181053 -0.041866 78 50 44
0.0750399 0.184135 -0.0462859 96 60 53
0.0576379 0.190748 -0.0380291 0 0 0
0.0843332 0.177047 -0.0319725 111 75 68
0.0717394 0.181955 -0.0281031 115 75 66
0.0813712 0.172336 -0.0411098 109 63 55
0.0640124 0.188008 -0.044321 0 0 0
0.0643932 0.188541 -0.0406519 0 0 0
0.07346 0.184983 -0.038759 63 43 39
0.0480865 0.178012 -0.0398224 0 0 0
0.0678809 0.182319 -0.0335601 97 59 53
0.0586934 0.187017 -0.0248913 0 0 0
0.0837591 0.18309 -0.0296655 100 64 56
0.0662136 0.188296 -0.0346624 111 69 61
0.087918 0.19072 -0.0460869 0 0 0
0.0821619 0.195441 -0.0194163 0 0 0
0.0635071 0.184895 -0.0362741 104 63 56
0.0811215 0.188092 -0.0209072 132 93 83
0.0898834 0.188263 -0.0243017 0 0 0
0.0810444 0.189659 -0.0248553 128 79 70
0.0670037 0.195791 -0.0409495 0 0 0
0.0860127 0.194832 -0.0308056 105 65 57
0.0896031 0.187368 -0.0352261 111 66 58
0.0835448 0.18548 -0.0541553 0 0 0
0.076201 0.186361 -0.0227413 128 79 70
0.0624602 0.171644 -0.00844115 0 0 0
0.0573455 0.182019 -0.0319831 119 73 65
0.0905112 0.180224 -0.0188276 0 0 0
0.0557803 0.176577 -0.0363679 107 66 59
0.0588047 0.192684 -0.0350816 0 0 0
0.069645 0.191107 -0.0478476 0 0 0
0.0831614 0.18862 -0.0499913 0 0 0
0.0889534 0.201414 -0.0330267 0 0 0
0.07961 0.183096 -0.0216541 132 84 75
0.0795486 0.184236 -0.0412348 109 67 59
0.0902623 0.190645 -0.0259756 0 0 0
0.093346 0.179394 -0.0281202 0 0 0
0.0914669 0.184242 -0.0352826 129 79 70
0.080912 0.192425 -0.0465497 114 75 67
0.0769639 0.193077 -0.0501489 145 69 62
0.0510257 0.171664 -0.0309889 113 69 61
0.0673777 0.188168 -0.044745 170 87 77
0.0779434 0.200513 -0.0496636 0 0 0
0.0863402 0.183205 -0.0162919 0 0 0
0.0820282 0.185202 -0.0426987 98 59 52
0.0691197 0.183748 -0.0505758 130 84 75
0.055509 0.193417 -0.0305455 0 0 0
0.075655 0.191663 -0.0454405 105 65 58
0.0789195 0.180423 -0.0288995 109 67 59
0.0651731 0.197088 -0.034541 0 0 0
0.0839934 0.200497 -0.044659 0 0 0
0.0838722 0.180611 -0.0260191 117 73 65
0.0922757 0.194686 -0.0324652 0 0 0
0.0538545 0.171734 -0.052902 0 0 0
0.0447584 0.167194 -0.046324 0 0 0
0.0717149 0.177518 -0.042911 64 44 40
0.078891 0.178993 -0.044286 114 71 63
0.0858811 0.174747 -0.033018 102 64 57
0.0901603 0.18387 -0.038702 134 81 71
0.0894743 0.16948 -0.0235811 115 74 66
0.0676644 0.185458 -0.0267239 109 66 58
0.0524826 0.175767 -0.0208085 0 0 0
0.0570472 0.174862 -0.0170724 0 0 0
0.0697942 0.193342 -0.0238936 0 0 0
0.0513007 0.172994 -0.029021 117 72 64
0.0887912 0.197979 -0.027978 0 0 0
0.0629615 0.191429 -0.0394106 0 0 0
0.0726125 0.186629 -0.0489357 125 79 70
0.0710834 0.122702 -0.0411486 99 62 55
0.0911113 0.180039 -0.0182264 0 0 0
0.0809063 0.183554 -0.0422394 100 59 52
0.0818708 0.19246 -0.04755 92 67 60
0.0828598 0.185013 -0.0218558 137 87 77
0.0810597 0.185909 -0.0285413 105 66 58
0.0793174 0.194229 -0.0242753 205 137 121
0.061297 0.179702 -0.0351101 110 69 61
0.0579934 0.184909 -0.038304 0 0 0
0.0583241 0.18991 -0.0369773 0 0 0
0.0736212 0.195154 -0.0197048 0 0 0
0.0778271 0.196051 -0.0475043 177 77 66
0.0509543 0.177405 -0.0230708 0 0 0
0.0658909 0.187536 -0.0227867 0 0 0
0.063757 0.186269 -0.0272465 106 67 59
0.0916221 0.185004 -0.0300856 99 72 65
0.0579487 0.181421 -0.0325384 112 69 61
0.0895654 0.19839 -0.0267455 0 0 0
0.0618693 0.189442 -0.0231352 0 0 0
0.0688719 0.195118 -0.0440705 0 0 0
0.0860556 0.186798 -0.0331642 97 61 54
0.0818196 0.189662 -0.0506179 0 0 0
0.0802792 0.189964 -0.0423777 102 63 56
0.0884031 0.200012 -0.042002 0 0 0
0.0845538 0.184034 -0.0396885 106 66 58
0.0805939 0.185445 -0.0449056 93 55 48
0.0832701 0.19091 -0.0431589 95 58 51
0.0853593 0.183924 -0.0290948 101 65 57
0.0607928 0.182351 -0.033161 114 71 63
0.0700453 0.188071 -0.0393063 97 61 54
0.0508799 0.173667 -0.0172424 0 0 0
0.0659173 0.191645 -0.0403691 0 0 0
0.0857428 0.187347 -0.0477352 0 0 0
0.0827353 0.186199 -0.0285881 102 64 57
0.057683 0.183799 -0.0430936 0 0 0
0.0788297 0.198286 -0.0504131 0 0 0
0.0784741 0.188594 -0.0444505 100 63 56
0.0863401 0.203246 -0.0434573 0 0 0
0.0936437 0.180409 -0.0278653 0 0 0
0.0533801 0.181506 -0.0387195 0 0 0
0.087993 0.201683 -0.0398868 0 0 0
0.0748799 0.194154 -0.0290122 118 74 66
0.0881017 0.188708 -0.0438216 121 92 82
0.0873323 0.193198 -0.0241969 0 0 0
0.0889664 0.185037 -0.0326663 111 69 61
0.0833906 0.197427 -0.0537289 0 0 0
0.0736345 0.183862 -0.0479421 93 56 49
0.0769236 0.174912 -0.0627663 0 0 0
0.0934371 0.19736 -0.0402145 0 0 0
0.089589 0.189792 -0.0209012 0 0 0
0.0657986 0.193547 -0.0232889 0 0 0
0.0919736 0.192319 -0.0470343 0 0 0
0.0478464 0.173833 -0.0366374 134 92 81
0.0967509 0.174238 -0.0287614 0 0 0
0.0856923 0.189743 -0.0471653 0 0 0
0.0917796 0.171173 -0.00981358 0 0 0
0.0904165 0.203121 -0.0414186 0 0 0
0.0774933 0.181364 -0.0228358 129 81 72
0.0807153 0.178623 -0.0576852 0 0 0
0.0902647 0.188708 -0.0446179 0 0 0
0.0766939 0.192927 -0.0422143 91 56 50
0.0814954 0.211406 -0.0253385 0 0 0
0.0916419 0.188081 -0.0198101 0 0 0
0.090697 0.190759 -0.028233 0 0 0
0.092085 0.190702 -0.0464685 0 0 0
0.0519245 0.170802 -0.0256522 113 68 60
0.0751465 0.185458 -0.0504861 124 78 70
0.0882169 0.191823 -0.0487882 0 0 0
0.0779485 0.193492 -0.0505859 0 0 0
0.0803117 0.195371 -0.015147 0 0 0
0.0880562 0.188399 -0.0278512 93 63 55
0.0669759 0.187389 -0.0226498 0 0 0
0.0944755 0.180685 -0.0266385 0 0 0
0.0822761 0.190383 -0.0491917 0 0 0
0.0947169 0.170595 -0.028292 103 71 63
0.0700644 0.198759 -0.0328182 169 94 83
0.0565543 0.157941 -0.0171371 112 71 63
0.089632 0.188439 -0.0218929 0 0 0
0.0630695 0.192292 -0.0266526 0 0 0
0.0937978 0.192584 -0.0290567 0 0 0
0.0839593 0.180967 -0.0380311 102 61 53
0.0877302 0.192175 -0.0336991 112 71 63
0.0642232 0.197883 -0.0302908 0 0 0
0.095824 0.190341 -0.0373704 0 0 0
0.0927655 0.195332 -0.0455859 0 0 0
0.0660824 0.153767 -0.0163651 117 72 63
0.0749612 0.193095 -0.0210485 0 0 0
0.0922205 0.191482 -0.0263503 0 0 0
0.0723318 0.19041 -0.051685 0 0 0
0.0791387 0.184626 -0.0561068 0 0 0
0.090559 0.197028 -0.0453921 0 0 0
0.0799352 0.191331 -0.0177822 0 0 0
0.0879877 0.198125 -0.0451282 0 0 0
0.0589072 0.166691 -0.0257145 111 68 60
0.0822148 0.178693 -0.0190615 132 82 73
0.075142 0.184711 -0.0472525 93 57 51
0.0947899 0.174207 -0.0387694 144 89 79
0.0776449 0.181233 -0.0412147 73 46 41
0.0762413 0.185547 -0.0238322 128 80 71
0.0643672 0.157683 -0.0342714 87 54 48
0.055082 0.177701 -0.0436365 0 0 0
0.0728388 0.16768 -0.019051 128 81 71
0.0786227 0.140844 -0.0146765 127 83 73
0.0872598 0.153255 -0.00150708 112 72 66
0.088761 0.166322 -0.0283306 104 66 58
0.0881789 0.188516 -0.0343554 114 73 64
0.0828847 0.186208 -0.039723 106 66 59
0.0747367 0.157267 -0.0107034 132 85 75
0.0757421 0.175241 -0.00546179 0 0 0
0.0791369 0.151139 -0.0129083 128 83 74
0.0729038 0.161463 -0.0133401 130 81 72
0.0972081 0.160045 -0.00913752 0 0 0
0.0798623 0.180322 -0.0439434 107 65 57
0.08459 0.185287 -0.0415373 112 67 59
0.0866484 0.147622 -0.0157212 119 74 65
0.0752247 0.0983364 -0.0448103 104 65 57
0.0900338 0.157662 -0.00956065 117 76 69
0.0853514 0.190726 -0.0351626 97 60 53
0.0711039 0.197087 -0.0270454 164 87 78
0.0902466 0.196618 -0.0392932 105 81 73
0.0881929 0.200068 -0.0417594 0 0 0
0.0879032 0.184415 -0.0322544 99 62 56
0.0557836 0.171293 -0.0493492 115 71 62
0.0542559 0.174577 -0.0499926 0 0 0
0.102304 0.141503 -0.0360715 134 83 73
0.0679873 0.164716 -0.0142052 120 76 67
0.08974 0.183851 -0.0498272 0 0 0
0.0639361 0.198307 -0.0303623 0 0 0
0.0858243 0.189457 -0.0347488 92 57 50
0.0923112 0.187481 -0.0390968 148 101 90
0.0463181 0.180344 -0.0211018 0 0 0
0.06563 0.149011 -0.0156088 118 73 64
0.0948148 0.186809 -0.0472447 0 0 0
0.0743355 0.193412 -0.0244585 156 83 74
0.0529778 0.177389 -0.0196082 0 0 0
0.0880097 0.201301 -0.0281901 0 0 0
0.0591036 0.130705 -0.0177067 128 81 71
0.0909428 0.192787 -0.0312199 0 0 0
0.0698247 0.158449 -0.00588813 126 82 72
0.0902564 0.180663 -0.0400335 139 86 76
0.0491254 0.180307 -0.0244366 0 0 0
0.0644591 0.197244 -0.0316682 0 0 0
0.0941795 0.191908 -0.0352244 0 0 0
0.0902421 0.159629 -0.040048 118 70 61
0.0720637 0.163104 -0.0104025 130 81 72
0.0634255 0.152815 -0.0129244 119 73 65
0.0992656 0.186537 -0.0420801 0 0 0
0.0669224 0.16289 -0.00958566 102 67 59
0.0980044 0.167394 -0.0242531 0 0 0
0.0834873 0.187455 -0.0209505 128 89 79
0.0380157 0.168887 -0.0401572 0 0 0
0.0600858 0.168604 -0.00743557 0 0 0
0.0825757 0.193843 -0.0480032 0 0 0
0.0397602 0.143161 -0.0298357 115 69 61
0.0802394 0.201693 -0.0389779 86 53 46
0.0743394 0.148114 -0.018101 127 84 74
0.0598806 0.148196 -0.00121085 95 64 56
0.0873315 0.183619 -0.015166 0 0 0
0.088333 0.155372 -0.0195118 115 71 63
0.0764898 0.164576 -0.00555789 114 84 74
0.0969872 0.185685 -0.0432163 0 0 0
0.0397649 0.152896 -0.0397086 116 70 63
0.0796855 0.195618 -0.027497 126 77 68
0.0733762 0.145864 -0.0130633 129 81 72
0.050114 0.173659 -0.0465042 0 0 0
0.0792735 0.186409 -0.0448126 108 67 59
0.0615521 0.147753 -0.0149755 112 69 60
0.0816896 0.186776 -0.0314662 99 63 56
0.0956589 0.189879 -0.0420529 0 0 0
0.08244 0.196115 -0.0230727 129 80 72
0.0508122 0.178322 -0.0247839 0 0 0
0.0843998 0.200224 -0.0404336 87 57 50
0.0925319 0.205089 -0.0444956 0 0 0
0.0847121 0.187908 -0.0268122 122 78 69
0.0717818 0.193897 -0.0469266 0 0 0
0.0830508 0.190577 -0.025404 122 73 65
0.0756642 0.169658 -0.000312058 0 0 0
0.0921139 0.181187 -0.034952 127 78 69
0.0892318 0.188961 -0.0440728 0 0 0
0.0879907 0.201813 -0.0295855 0 0 0
0.0544362 0.189256 -0.0340634 0 0 0
0.0392066 0.169414 -0.0435339 0 0 0
0.0937952 0.167897 -0.0104157 0 0 0
0.089315 0.199099 -0.0412331 0 0 0
0.0702591 0.201988 -0.0376684 0 0 0
0.0909662 0.197609 -0.0377823 115 88 79
0.041398 0.155826 -0.0238437 115 70 62
0.0675012 0.174062 -0.00862822 0 0 0
0.0861859 0.168186 0.00128236 0 0 0
0.0868039 0.187621 -0.0294386 110 68 61
0.0695694 0.203766 -0.0339597 0 0 0
0.0880561 0.190013 -0.0442269 0 0 0
0.0880842 0.190892 -0.0452339 0 0 0
0.0741837 0.136427 -0.0266318 110 69 61
0.066774 0.187679 -0.0426092 113 71 62
0.0750346 0.186415 -0.0191596 167 91 81
0.0678404 0.156839 -0.0351221 78 49 43
0.0555801 0.181126 -0.0469162 0 0 0
0.0653275 0.182133 -0.0188592 0 0 0
0.082522 0.157122 -0.0144241 126 79 70
0.0945059 0.162695 -0.0241429 95 64 56
0.0539447 0.149837 -0.0235791 113 71 63
0.0845046 0.185401 -0.0327828 102 65 58
0.0837817 0.194255 -0.047245 0 0 0
0.0807817 0.172227 -0.013042 146 103 91
0.0620085 0.165894 -0.0132657 99 67 59
0.0922792 0.154226 -0.0201817 113 72 65
0.0758791 0.185739 -0.0441223 99 63 56
0.0835733 0.175299 -0.0526282 118 76 68
0.0814725 0.138824 -0.0193511 122 76 67
0.0974304 0.183234 -0.030489 0 0 0
0.0892294 0.184364 -0.0348484 110 69 61
0.0683067 0.198959 -0.03352 0 0 0
0.0846943 0.191729 -0.0423681 98 60 53
0.0900323 0.182994 -0.0312726 102 63 56
0.0600577 0.174 -0.0478436 106 66 58
0.0541578 0.172326 -0.0510218 0 0 0
0.104922 0.132823 -0.0285147 118 75 67
0.0587132 0.156225 -0.0249469 112 69 61
0.0848866 0.19343 -0.0469876 0 0 0
0.0703538 0.194519 -0.023712 0 0 0
0.0788146 0.190339 -0.0324618 90 56 49
0.0503455 0.176509 -0.0223829 0 0 0
0.0718381 0.162365 -0.0100594 130 81 72
0.0945538 0.186493 -0.0440759 0 0 0
0.0759136 0.191049 -0.0250416 111 71 63
0.0303197 0.149655 -0.0267429 115 71 63
0.069261 0.167376 -0.0056389 0 0 0
0.0976404 0.185841 -0.0342701 0 0 0
0.0874638 0.192927 -0.0299562 105 69 61
0.072123 0.166748 -0.00739168 105 77 68
0.0756215 0.189135 -0.0435632 99 62 55
0.0917586 0.189668 -0.0302539 0 0 0
0.0905255 0.194189 -0.0463379 0 0 0
0.0728008 0.200423 -0.0250561 0 0 0
0.0632759 0.193724 -0.0257454 0 0 0
0.0898822 0.182167 -0.0362738 116 71 63
0.0912373 0.15261 -0.0398096 122 73 64
0.0703963 0.168136 -0.00935351 105 77 68
0.0584951 0.15827 -0.0168659 107 66 59
0.0978999 0.168029 -0.0247646 0 0 0
0.0371787 0.165285 -0.0367544 114 85 75
0.0598455 0.167048 -0.0081148 0 0 0
0.086715 0.195573 -0.046854 0 0 0
0.0930629 0.194538 -0.0458034 0 0 0
0.088522 0.186667 -0.0253198 123 79 72
0.0796936 0.184778 -0.0427437 106 66 59
0.072321 0.172396 -0.00945721 96 74 66
0.0655562 0.164015 -0.00196656 0 0 0
0.0777711 0.186088 -0.0107159 0 0 0
0.096318 0.184328 -0.0462494 0 0 0
0.088856 0.200704 -0.0283529 0 0 0
0.0821328 0.18225 -0.0478702 99 61 54
0.054818 0.158586 -0.00977969 89 62 55
0.096374 0.185141 -0.0313651 0 0 0
0.0814123 0.187167 -0.0283528 103 63 55
0.0357083 0.170095 -0.0356733 0 0 0
0.0394718 0.169924 -0.0245779 88 72 64
0.0826186 0.194913 -0.0216586 164 96 86
0.0822089 0.179077 -0.0147734 130 92 82
0.0514312 0.183107 -0.021233 0 0 0
0.0914948 0.194621 -0.0453075 0 0 0
0.0714205 0.19345 -0.0480855 0 0 0
0.0809665 0.203828 -0.043633 0 0 0
0.0653221 0.162979 -0.00533949 100 76 68
0.0673105 0.167265 -0.00152886 0 0 0
0.0920339 0.184211 -0.0422995 131 96 86
0.0861447 0.205293 -0.0473949 0 0 0
0.0709927 0.161685 -0.00674233 116 81 72
0.0901518 0.190689 -0.0412422 126 97 87
0.0612315 0.183324 -0.0353327 110 68 61
0.0393479 0.163646 -0.0380031 133 87 77
0.0769796 0.155146 -0.0108103 127 80 71
0.0867139 0.198324 -0.0375284 113 70 62
0.0913064 0.192923 -0.0380189 130 91 80
0.0885384 0.202076 -0.0430141 0 0 0
0.0330426 0.164081 -0.0333209 108 81 72
0.0805598 0.204763 -0.0437209 0 0 0
0.0615352 0.169687 -0.00652367 0 0 0
0.0843179 0.193228 -0.0300769 113 71 63
0.0698902 0.160252 0.00363328 0 0 0
0.074456 0.19199 -0.0447381 107 65 58
0.0922045 0.189749 -0.0287711 0 0 0
0.0890026 0.184749 -0.0456808 0 0 0
0.0856052 0.190877 -0.0500944 0 0 0
0.0603436 0.16275 -0.0497066 90 56 49
0.0626427 0.168768 -0.033346 99 59 53
0.0635526 0.161379 -0.0555339 95 59 53
0.0669634 0.145633 -0.0485723 59 41 36
0.0673822 0.159887 -0.0420529 52 38 34
0.0726683 0.170545 -0.0389098 57 40 36
0.072207 0.154928 -0.0365714 100 64 57
0.0707931 0.161241 -0.0289031 103 61 54
0.0768564 0.160068 -0.0335947 88 56 50
0.0798435 0.170592 -0.0280936 114 73 64
0.0459162 0.165648 -0.0371577 108 66 59
0.052808 0.169538 -0.0503928 150 83 72
0.0582944 0.162025 -0.0490395 90 55 49
0.0618239 0.165947 -0.0306571 103 58 51
0.0666266 0.168586 -0.0355667 90 57 51
0.0791514 0.167749 -0.0334899 92 59 52
0.0733692 0.164422 -0.0341042 85 53 47
0.0767716 0.157624 -0.0260844 125 77 68
0.0695879 0.1722 -0.019287 120 74 65
0.0721841 0.145323 -0.0381464 99 63 56
0.0719064 0.171065 -0.0315259 103 63 55
0.080944 0.174167 -0.0328289 89 57 51
0.061233 0.159204 -0.041 61 41 36
0.0659125 0.176982 -0.0276958 115 72 63
0.0714109 0.181528 -0.0339435 89 55 49
0.075042 0.178792 -0.0342071 94 59 52
0.0753435 0.173399 -0.0357255 73 46 41
0.0746763 0.181798 -0.0314536 105 64 57
0.0723774 0.16958 -0.0301955 100 60 52
0.0802804 0.174091 -0.0289592 114 73 65
0.0593465 0.150885 -0.0317477 91 55 49
0.0642319 0.17755 -0.0397037 77 48 42
0.0684487 0.15531 -0.0423895 52 38 34
0.0711059 0.164724 -0.039341 57 41 36
0.0860903 0.172412 -0.0280548 95 59 52
0.060351 0.170548 -0.0469075 99 59 52
0.0661714 0.171487 -0.0299301 98 60 53
0.0843231 0.17097 -0.0331732 104 64 57
0.0637378 0.18801 -0.0425942 0 0 0
0.0680627 0.178389 -0.026785 110 68 60
0.063564 0.173095 -0.0267996 114 71 62
0.0528484 0.14977 -0.0438009 89 55 49
0.0638056 0.164901 -0.0220456 111 69 61
0.0829865 0.16984 -0.0352645 95 59 52
0.0699527 0.172671 -0.0300341 104 64 57
0.0762706 0.168957 -0.0458597 96 58 51
0.0766781 0.167468 -0.0390225 73 47 41
0.0822248 0.164017 -0.0328499 88 55 49
0.0882224 0.18012 -0.0286461 112 70 62
0.0671368 0.179354 -0.0254025 108 65 58
0.054092 0.181183 -0.0215705 0 0 0
0.0624648 0.176578 -0.0427013 100 61 54
0.0616611 0.181289 -0.0385825 101 62 55
0.0620379 0.168097 -0.0312162 105 62 55
0.075359 0.171409 -0.0319266 96 60 53
0.0895046 0.18117 -0.040394 136 82 73
0.0663381 0.179235 -0.0242474 112 68 61
0.0580762 0.180387 -0.0316025 110 66 59
0.0602559 0.178078 -0.0344914 111 70 62
0.0711167 0.17218 -0.0344208 90 57 51
0.0677465 0.173679 -0.0341759 87 54 48
0.0633308 0.172721 -0.0266567 113 70 62
0.0856035 0.172909 -0.0335557 105 66 59
0.0873814 0.181637 -0.048704 0 0 0
0.0599741 0.177849 -0.036512 102 62 55
0.062014 0.183595 -0.0472168 0 0 0
0.0661207 0.165693 -0.0352772 89 56 50
0.0697308 0.179111 -0.0299019 90 55 48
0.0639241 0.17639 -0.0347973 105 63 56
0.0648732 0.174305 -0.0340495 94 55 49
0.0586772 0.176801 -0.0365704 109 67 60
0.0740717 0.186097 -0.0282374 116 72 64
0.0601485 0.179102 -0.0381974 107 65 58
0.0815085 0.183448 -0.0281325 100 61 54
0.0835408 0.190205 -0.0171417 0 0 0
0.071767 0.179688 -0.0264615 115 71 63
0.0653144 0.181205 -0.0282213 106 64 56
0.0796829 0.188004 -0.0511669 92 68 61
0.0731373 0.174316 -0.0373125 53 38 34
0.0575265 0.147817 -0.0385829 82 52 46
0.0657266 0.18214 -0.0252152 110 67 59
0.0608612 0.179158 -0.0327693 107 65 58
0.0679214 0.183038 -0.0431954 99 60 53
0.0650455 0.169546 -0.0328817 88 53 47
0.0621675 0.181295 -0.0404831 97 59 52
0.0915002 0.194436 -0.0272185 0 0 0
0.0443116 0.174727 -0.0411732 0 0 0
0.0712133 0.162514 -0.0396348 59 42 37
0.061449 0.178706 -0.0299113 110 67 59
0.0699198 0.181163 -0.0278133 117 74 65
0.0635042 0.17051 -0.0255667 113 71 62
0.0705507 0.18025 -0.0177869 93 63 55
0.0812617 0.177361 -0.028942 115 75 67
0.077135 0.174099 -0.0556311 110 69 61
0.0790181 0.188947 -0.0208065 116 84 74
0.0662352 0.183066 -0.0264224 111 67 60
0.0600058 0.179792 -0.0437248 94 58 50
0.0737316 0.177756 -0.0266173 120 75 66
0.053284 0.177699 -0.0429612 0 0 0
0.0583637 0.18615 -0.0438768 0 0 0
0.0811321 0.185722 -0.0234714 127 79 70
0.0570177 0.168079 -0.0265326 110 67 59
0.0549891 0.183369 -0.0382576 0 0 0
0.0661052 0.19237 -0.0245886 0 0 0
0.0514683 0.172609 -0.0341077 117 72 64
0.0730019 0.185983 -0.0187084 0 0 0
0.0804241 0.184083 -0.0228518 130 80 71
0.0849504 0.16666 -0.0290635 108 70 63
0.0765369 0.180395 -0.0489381 91 55 48
0.071511 0.192257 -0.0488316 0 0 0
0.0726742 0.176076 -0.00978714 0 0 0
0.0711615 0.170549 -0.0378991 55 39 35
0.0806916 0.174699 -0.0245635 113 70 62
0.0590245 0.178095 -0.0362195 109 68 60
0.0788742 0.185129 -0.0356341 92 59 53
0.0617301 0.1804 -0.0492786 0 0 0
0.0806122 0.184285 -0.0407261 103 62 55
0.0606779 0.185128 -0.0417818 0 0 0
0.0879267 0.184358 -0.0274752 112 71 63
0.0558824 0.18155 -0.0233402 0 0 0
0.0695988 0.189124 -0.0510284 0 0 0
0.0625654 0.173151 -0.0370763 86 51 45
0.0879437 0.177592 -0.02701 109 67 59
0.0751918 0.194267 -0.0205942 0 0 0
0.0669739 0.185102 -0.0209325 0 0 0
0.0701016 0.184252 -0.0188855 0 0 0
0.0835413 0.183674 -0.0323571 97 61 54
0.0842791 0.185005 -0.0381668 96 57 50
0.0901781 0.16917 -0.0380564 108 63 54
0.0487401 0.176064 -0.0402889 0 0 0
0.0831056 0.185348 -0.0429023 101 61 54
0.0774295 0.188029 -0.030051 114 70 62
0.0678031 0.189887 -0.0225443 0 0 0
0.0640658 0.179163 -0.0277956 105 64 56
0.0651084 0.189359 -0.0440289 0 0 0
0.0914072 0.186524 -0.0261611 0 0 0
0.0910282 0.182713 -0.0227252 0 0 0
0.0532451 0.183356 -0.0375074 0 0 0
0.0914469 0.174679 -0.0329399 107 65 57
0.0709741 0.190936 -0.0514254 0 0 0
0.0602277 0.180705 -0.0487371 0 0 0
0.0616947 0.181092 -0.0377747 108 66 59
0.0674437 0.173633 -0.0196611 116 73 64
0.087334 0.163303 -0.0291173 98 61 54
0.0828561 0.180878 -0.0359746 109 69 61
0.0441874 0.162062 -0.0483596 121 77 68
0.0820686 0.18346 -0.0241408 122 75 67
0.0700385 0.175968 -0.0326701 91 55 48
0.0812854 0.195835 -0.0300494 118 71 63
0.0475149 0.179969 -0.0228037 0 0 0
0.0941085 0.183843 -0.0276575 0 0 0
0.0680646 0.186317 -0.0295415 106 64 56
0.0829324 0.184051 -0.0367379 113 70 62
0.0895664 0.188265 -0.0275512 125 78 71
0.07278 0.192331 -0.0219913 0 0 0
0.0840499 0.174536 -0.0349638 103 64 56
0.064033 0.18477 -0.0331574 107 67 60
0.0936875 0.189278 -0.0304063 0 0 0
0.0708736 0.193082 -0.0335605 95 58 51
0.080598 0.189828 -0.0307672 96 60 52
0.0681274 0.18634 -0.0221642 0 0 0
0.0851055 0.186431 -0.0340092 96 61 54
0.0844156 0.191573 -0.0395661 101 61 54
0.0842675 0.182231 -0.017718 109 79 69
0.0562458 0.186359 -0.0357018 0 0 0
0.0664283 0.185252 -0.0211791 0 0 0
0.0768032 0.191093 -0.0512402 150 84 77
0.0641881 0.186897 -0.0433419 0 0 0
0.0873935 0.191984 -0.0369127 107 66 58
0.0808712 0.187678 -0.0252899 125 77 68
0.0675442 0.174075 -0.0284577 105 64 56
0.0921049 0.175496 -0.0229797 0 0 0
0.0720869 0.189482 -0.0467392 122 77 68
0.0871007 0.185047 -0.0282398 106 66 58
0.0548865 0.183167 -0.0404967 0 0 0
0.0870604 0.18631 -0.0216413 117 75 69
0.0772672 0.194951 -0.0416711 85 52 45
0.0894165 0.191435 -0.0247234 0 0 0
0.0748839 0.187597 -0.0367594 65 44 39
0.0885467 0.178463 -0.0444629 138 87 77
0.0720791 0.190922 -0.0219804 0 0 0
0.063225 0.190491 -0.0256751 0 0 0
0.094571 0.191177 -0.0347227 0 0 0
0.061098 0.190906 -0.029925 168 91 81
0.0678018 0.194178 -0.0383784 0 0 0
0.058536 0.185728 -0.0255138 0 0 0
0.0652858 0.189306 -0.0262576 145 82 73
0.082065 0.188221 -0.0239779 125 78 70
0.089405 0.195071 -0.0237835 0 0 0
0.0760496 0.193752 -0.0211059 0 0 0
0.0931739 0.197011 -0.0318559 0 0 0
0.047263 0.186023 -0.025505 0 0 0
0.0908969 0.197588 -0.0293995 0 0 0
0.0942508 0.17342 -0.0272689 136 80 72
0.0678234 0.192733 -0.0408396 0 0 0
0.0694344 0.187098 -0.030586 112 69 61
0.0905257 0.19415 -0.0272931 0 0 0
0.0772018 0.195793 -0.0492923 0 0 0
0.0776705 0.187248 -0.0425235 86 55 49
0.0714736 0.192126 -0.0295257 114 68 60
0.0769346 0.190516 -0.0409049 65 45 40
0.0594856 0.191377 -0.0360273 0 0 0
0.0838862 0.195012 -0.0445139 103 72 64
0.0582065 0.185796 -0.026336 0 0 0
0.0642792 0.197323 -0.0288291 0 0 0
0.0655498 0.19403 -0.0359498 0 0 0
0.0556772 0.173338 -0.0157912 0 0 0
0.084606 0.184613 -0.0315699 101 65 58
0.0840777 0.191553 -0.0471428 0 0 0
0.0645811 0.1939 -0.0393843 0 0 0
0.064522 0.188029 -0.0428367 0 0 0
0.0874062 0.169292 -0.0367661 107 65 57
0.0822184 0.182056 -0.024118 120 74 66
0.062095 0.18386 -0.0318893 112 68 60
0.0826204 0.196896 -0.0440259 109 74 66
0.0612809 0.189273 -0.0383744 0 0 0
0.0830871 0.177565 -0.026954 100 62 55
0.0706849 0.18997 -0.0347078 83 51 45
0.0727141 0.182115 -0.0229313 119 73 64
0.0811293 0.183816 -0.0399629 100 61 53
0.0662491 0.182442 -0.0272964 111 67 59
0.0710732 0.184071 -0.0405804 73 48 42
0.0748393 0.191479 -0.0229758 166 91 81
0.0698345 0.188838 -0.0378364 95 59 52
0.0565767 0.188965 -0.0344875 0 0 0
0.0893207 0.173916 -0.0286219 114 72 64
0.0648026 0.181047 -0.0198541 0 0 0
0.063152 0.184479 -0.0346205 111 69 61
0.0845299 0.185539 -0.0200449 110 79 70
0.0816033 0.185844 -0.0331299 98 64 57
0.0650358 0.18788 -0.0293832 123 76 67
0.0862289 0.189284 -0.0336434 92 57 50
0.0800675 0.183459 -0.0284335 104 64 56
0.0915101 0.192241 -0.0316642 0 0 0
0.0663941 0.192587 -0.0415848 0 0 0
0.0752781 0.190395 -0.0297233 110 68 60
0.0933316 0.187937 -0.0317645 0 0 0
0.0743945 0.186695 -0.0182514 0 0 0
0.066442 0.192378 -0.0383758 0 0 0
0.0858861 0.191836 -0.0296898 110 67 59
0.0591028 0.19145 -0.0302289 0 0 0
0.0826438 0.178902 -0.0382739 114 71 62
0.0904848 0.201193 -0.0398164 0 0 0
0.0751198 0.188477 -0.0443971 90 56 49
0.071911 0.184805 -0.0185056 0 0 0
0.0594807 0.171567 -0.00956037 0 0 0
0.0493005 0.173844 -0.0330204 116 71 63
0.0623927 0.18799 -0.040355 0 0 0
0.0864613 0.188961 -0.0491659 0 0 0
0.0798099 0.192712 -0.0387523 76 51 45
0.0565574 0.17433 -0.0488145 150 82 71
0.0635894 0.188155 -0.0262519 145 82 73
0.0821201 0.187497 -0.0445929 97 59 52
0.0861832 0.181543 -0.024853 118 73 65
0.0592659 0.180857 -0.0351619 110 68 61
0.0907708 0.19091 -0.0269598 0 0 0
0.0589841 0.175838 -0.0163574 0 0 0
0.0725981 0.196319 -0.0435466 0 0 0
0.0715824 0.193196 -0.0482869 0 0 0
0.0794988 0.190762 -0.0503017 88 62 56
0.0708079 0.188714 -0.0520874 0 0 0
0.079 0.197722 -0.0470635 0 0 0
0.0817846 0.185249 -0.0260652 114 69 61
0.0818664 0.185064 -0.0256701 114 69 61
0.0862623 0.200569 -0.0418895 0 0 0
0.0813532 0.202888 -0.0279296 202 127 113
0.0756498 0.184542 -0.0300334 114 72 64
0.0712683 0.193757 -0.0309324 115 69 61
0.0838318 0.196313 -0.0411163 90 56 49
0.0823112 0.182512 -0.0223437 121 74 66
0.0879552 0.193485 -0.0345323 111 69 61
0.0542813 0.167378 -0.0522967 124 80 72
0.0389303 0.169318 -0.0413832 0 0 0
0.0754245 0.190917 -0.0520812 171 79 69
0.0646541 0.189822 -0.024904 0 0 0
0.0802544 0.189089 -0.0484863 114 75 67
0.0918946 0.183819 -0.0260682 0 0 0
0.0751113 0.197008 -0.0476291 0 0 0
0.0834227 0.182661 -0.0359507 112 70 62
0.0889342 0.183922 -0.0440513 139 95 85
0.0857024 0.187129 -0.0383145 100 60 52
0.0632646 0.188748 -0.0244601 0 0 0
0.0894346 0.200459 -0.0302999 0 0 0
0.0599456 0.167384 -0.0201625 111 69 62
0.0695802 0.191245 -0.0227872 0 0 0
0.0820794 0.189621 -0.0249903 125 77 69
0.0530459 0.179268 -0.02005 0 0 0
0.0928636 0.183226 -0.0314924 102 71 64
0.0722824 0.185878 -0.0424719 88 56 50
0.0782049 0.190926 -0.0505696 108 75 67
0.0909211 0.179423 -0.020944 0 0 0
0.0810337 0.183125 -0.053467 0 0 0
0.0633735 0.187163 -0.0246517 0 0 0
0.079059 0.191914 -0.0498716 90 64 57
0.0817679 0.181694 -0.028238 105 67 59
0.0723699 0.177318 -0.0339444 85 54 48
0.0835642 0.191218 -0.0490548 0 0 0
0.0640615 0.186411 -0.0456712 0 0 0
0.0555007 0.194103 -0.0338052 0 0 0
0.0849858 0.179966 -0.0327782 102 65 58
0.0775872 0.194369 -0.0497703 0 0 0
0.0658788 0.186114 -0.0344709 104 65 57
0.0674091 0.18846 -0.0230141 0 0 0
0.0615441 0.194705 -0.027916 0 0 0
0.0622327 0.183771 -0.0231091 0 0 0
0.0835248 0.196418 -0.015162 0 0 0
0.0894682 0.191008 -0.0250955 0 0 0
0.0560086 0.183363 -0.0380072 0 0 0
0.0901158 0.197314 -0.0291153 0 0 0
0.0903117 0.199783 -0.0255157 0 0 0
0.0669339 0.192332 -0.0433485 0 0 0
0.0575511 0.1879 -0.0357937 0 0 0
0.0818081 0.186747 -0.0517265 0 0 0
0.0591455 0.179752 -0.0292841 111 67 59
0.0828592 0.199669 -0.0487871 0 0 0
0.0878128 0.199152 -0.0415549 0 0 0
0.0657332 0.185207 -0.0411168 91 55 48
0.081121 0.190229 -0.0490067 93 68 61
0.0829326 0.179286 -0.0223564 122 76 68
0.089516 0.188475 -0.0440968 0 0 0
0.0926352 0.182853 -0.0213267 0 0 0
0.0878336 0.188436 -0.0336169 104 64 56
0.0845986 0.19311 -0.0212327 111 74 68
0.0739312 0.183004 -0.0414147 61 43 38
0.0702403 0.189047 -0.0467911 161 90 80
0.0657976 0.186589 -0.0226576 0 0 0
0.0523223 0.172315 -0.0159481 0 0 0
0.0799531 0.192891 -0.0431017 93 58 51
0.0854669 0.185995 -0.0483791 0 0 0
0.0828003 0.186612 -0.0291682 99 62 55
0.055636 0.185817 -0.0365373 0 0 0
0.0841894 0.194581 -0.0413188 95 59 52
0.0713283 0.183147 -0.0496948 115 72 64
0.0819343 0.191817 -0.0493857 0 0 0
0.085251 0.205101 -0.043146 0 0 0
0.0846192 0.175603 -0.0361891 108 67 59
0.0792713 0.182818 -0.0290187 104 63 56
0.0811824 0.184068 -0.0460957 100 62 55
0.0577537 0.179374 -0.0391399 104 63 56
0.0744377 0.193479 -0.0501092 0 0 0
0.0766469 0.192138 -0.028704 112 68 60
0.0786385 0.192265 -0.0393568 71 49 43
0.0661437 0.186751 -0.022771 0 0 0
0.0743849 0.194959 -0.021655 0 0 0
0.0860257 0.181861 -0.0350802 95 58 51
