ply
format ascii 1.0
comment Created by Open3D
element vertex 1193
property double x
property double y
property double z
property uchar red
property uchar green
property uchar blue
end_header
0.0624331 0.183049 -0.0334285 244 161 147
0.0664626 0.026135 -0.0290421 0 0 0
0.0653928 0.184928 -0.044413 208 114 97
0.0678724 0.163009 -0.0321755 128 83 76
0.0700833 0.111286 -0.0450523 42 38 36
0.0752156 0.192649 -0.0479849 246 139 132
0.0791802 0.197059 -0.0481226 255 150 140
0.0638609 0.114514 -0.0599293 39 28 26
0.0665795 0.190959 -0.044386 219 137 114
0.0750053 0.164502 -0.0281281 125 84 76
0.0630079 0.18317 -0.0441089 253 153 136
0.0525706 0.176278 -0.0367281 255 166 144
0.0869112 0.196037 -0.0385572 255 215 188
0.0694962 0.183733 -0.0466069 241 146 131
0.0599996 0.11547 -0.0431921 42 33 30
0.0669641 0.195156 -0.042251 111 14 5
0.0799582 0.19765 -0.0488131 255 182 164
0.0852065 0.164007 -0.0375981 162 76 69
0.0686527 0.166836 -0.0303345 191 94 82
0.0755671 0.157217 -0.0290952 171 90 81
0.0732094 0.183319 -0.0484172 230 144 129
0.0687632 0.158236 -0.0288557 149 81 69
0.0800862 0.181165 -0.0484151 247 150 129
0.0810346 0.180249 -0.0471927 230 137 130
0.0774264 0.194318 -0.0487008 255 181 173
0.0727 0.193943 -0.0468949 202 99 83
0.0719876 0.189896 -0.0498665 132 41 30
0.0600088 0.119091 -0.039381 48 28 23
0.0602054 0.119375 -0.0629883 0 0 0
0.0708155 0.159617 -0.0293117 139 82 73
0.069343 0.176942 -0.0495255 95 53 33
0.0735119 0.148009 -0.056797 25 0 0
0.0722884 0.138478 -0.0575762 77 30 26
0.068023 0.122173 -0.0365674 62 51 46
0.0745428 0.176524 -0.051568 103 52 45
0.0711232 0.185938 -0.0468998 240 122 111
0.063001 0.16709 -0.0341607 122 66 59
0.0765458 0.136802 -0.0344733 57 41 38
0.087032 0.201555 -0.0364112 255 195 173
0.0801908 0.137146 -0.0397882 0 0 0
0.0792722 0.179247 -0.0494025 255 156 143
0.0781774 0.157932 -0.0286547 138 82 71
0.074885 0.179496 -0.0508685 224 178 165
0.0801766 0.180293 -0.047875 255 159 146
0.0641945 0.17627 -0.0303558 144 87 78
0.0702432 0.106296 -0.0621428 0 0 0
0.0782604 0.17127 -0.0540859 254 230 216
0.0774016 0.145574 -0.0310236 36 12 9
0.0838921 0.156713 -0.0370084 126 68 55
0.0625309 0.117967 -0.038206 46 36 32
0.0676286 0.166435 -0.0306681 205 99 85
0.0613626 0.111942 -0.042529 56 45 42
0.0669998 0.110989 -0.0350872 56 41 37
0.0866112 0.195442 -0.0385906 187 123 111
0.0626145 0.181466 -0.0358773 237 147 135
0.0632311 0.180914 -0.0441778 255 197 172
0.0660328 0.19803 -0.0329639 255 79 68
0.0743463 0.190955 -0.0480361 237 130 122
0.0707561 0.167653 -0.0293735 190 100 90
0.0732371 0.19557 -0.0457493 104 32 25
0.0608486 0.121247 -0.0644275 0 11 11
0.0718338 0.189833 -0.0263731 255 165 150
0.0871725 0.186723 -0.0378198 255 136 112
0.0828727 0.159738 -0.0283468 148 85 77
0.0632687 0.119439 -0.0657209 0 0 0
0.0664445 0.199978 -0.0389758 255 119 113
0.0672897 0.201584 -0.0381065 242 130 117
0.087273 0.184394 -0.0272295 255 177 158
0.0671473 0.134759 -0.0348338 81 56 54
0.0599039 0.167605 -0.0367003 247 131 119
0.0735531 0.178994 -0.0502256 84 36 28
0.0831325 0.193923 -0.0469889 152 43 24
0.0862008 0.197111 -0.0383004 239 144 131
0.0698187 0.133346 -0.035416 76 50 44
0.0670908 0.198545 -0.0411585 255 146 134
0.0868824 0.203889 -0.035847 255 221 200
0.0613151 0.141594 -0.0548936 0 0 0
0.0545021 0.11632 -0.0639451 0 0 0
0.0759683 0.157508 -0.0293449 137 86 79
0.0778354 0.186226 -0.0218074 203 132 122
0.0871817 0.190039 -0.0271829 251 143 131
0.0743089 0.131828 -0.0361812 102 67 62
0.06705 0.112226 -0.0353616 44 30 28
0.0589653 0.177546 -0.033776 151 84 75
0.0634204 0.113677 -0.060901 29 29 26
0.073609 0.197052 -0.0266271 255 201 185
0.0676424 0.202401 -0.036835 255 144 133
0.0621359 0.181271 -0.0370301 244 136 123
0.0593602 0.114799 -0.0592309 32 19 17
0.0593685 0.116697 -0.0424951 61 48 45
0.0869397 0.200069 -0.0368793 255 196 192
0.0660967 0.199992 -0.0386357 255 134 117
0.0741718 0.197643 -0.0265542 255 194 177
0.0722285 0.188357 -0.026806 255 122 108
0.0665943 0.196739 -0.0415886 254 140 128
0.0620249 0.161087 -0.0369777 141 85 76
0.0659056 0.165264 -0.0288162 255 122 96
0.0812167 0.159106 -0.0469828 122 31 0
0.0584632 0.126797 -0.0605442 0 0 0
0.0513804 0.125387 -0.0503701 33 15 14
0.0619011 0.145124 -0.0550193 50 33 29
0.0884568 0.188714 -0.0346516 255 228 217
0.0694331 0.153731 -0.0341545 140 86 77
0.0659589 0.164611 -0.0290312 255 0 0
0.0669495 0.182474 -0.0307414 241 177 157
0.0781054 0.179047 -0.0497132 255 146 136
0.0695419 0.118068 -0.0300604 0 0 0
0.0677248 0.110496 -0.0489766 66 49 46
0.0756918 0.16223 -0.0271283 149 87 79
0.0816469 0.15314 -0.0410837 255 142 115
0.0724732 0.171948 -0.0275441 168 96 86
0.0682119 0.15619 -0.0321879 255 131 110
0.0789289 0.195534 -0.0253 255 156 138
0.0854213 0.179979 -0.0402536 233 248 226
0.055911 0.115497 -0.0645854 0 0 0
0.0878795 0.172806 -0.0255172 147 80 69
0.0692893 0.167419 -0.0568029 186 139 128
0.0798153 0.169565 -0.0500387 105 67 62
0.0695426 0.162297 -0.0303074 154 80 70
0.0583922 0.118157 -0.0645272 0 0 0
0.0728812 0.194074 -0.0252508 241 102 85
0.0709597 0.0911701 -0.0616172 0 0 0
0.0603679 0.115452 -0.0527418 52 38 36
0.0714554 0.186528 -0.0233019 255 232 209
0.0691085 0.110929 -0.0462037 15 16 15
0.0794548 0.18909 -0.0518539 255 137 123
0.05519 0.121503 -0.0599517 0 0 0
0.0856181 0.190439 -0.0423413 255 155 138
0.0599052 0.114905 -0.0525306 54 41 40
0.0627619 0.182777 -0.0345259 176 119 108
0.0618455 0.181401 -0.037788 255 162 143
0.0841066 0.161219 -0.0379637 255 133 118
0.0842492 0.176662 -0.0426488 255 155 138
0.0748703 0.166994 -0.0270185 85 17 9
0.0681347 0.102148 -0.0636765 0 0 0
0.0730716 0.138179 -0.057113 69 40 38
0.064816 0.18724 -0.0444319 168 81 73
0.0534708 0.129856 -0.0614831 0 0 0
0.083561 0.15942 -0.0304416 127 57 49
0.088162 0.192156 -0.0356157 195 56 39
0.0743558 0.192209 -0.0480731 168 94 88
0.0788769 0.164306 -0.0275159 113 72 66
0.0696914 0.193629 -0.0449255 155 53 29
0.0784712 0.179628 -0.0496961 244 122 98
0.066433 0.196104 -0.0410868 114 36 26
0.0717009 0.182844 -0.0266946 237 139 123
0.0769088 0.196911 -0.0484992 255 150 137
0.0882215 0.188336 -0.0364936 255 185 166
0.0669964 0.195963 -0.0418482 242 140 140
0.0738533 0.179485 -0.0248799 151 62 55
0.0822416 0.161703 -0.0277621 139 89 83
0.0913458 0.178992 -0.0311013 234 151 134
0.0910102 0.178464 -0.0304341 152 95 88
0.0864348 0.197327 -0.0357441 185 80 69
0.05643 0.119534 -0.0569472 23 7 1
0.0841401 0.16258 -0.0300555 139 89 84
0.057581 0.144213 -0.0473729 84 52 47
0.0676597 0.167439 -0.0306947 214 91 83
0.0737959 0.180126 -0.0253255 235 170 153
0.0654214 0.180322 -0.0311565 255 171 152
0.0668378 0.182073 -0.0304919 255 173 152
0.0872754 0.198714 -0.0335096 255 221 196
0.0777867 0.155153 -0.0254532 143 35 17
0.0671057 0.195397 -0.0422313 255 153 155
0.0452309 0.112397 -0.0221211 0 0 0
0.0635608 0.167206 -0.0323439 177 117 102
0.0707835 0.165511 -0.0283824 144 82 71
0.0905858 0.189854 -0.0332125 255 255 255
0.0584648 0.122658 -0.0571979 38 28 25
0.0606884 0.119933 -0.064836 0 0 0
0.0638723 0.181396 -0.0330196 246 156 139
0.072763 0.16097 -0.0283138 144 84 75
0.0735199 0.180687 -0.0250473 250 195 177
0.076124 0.154442 -0.0313948 178 111 98
0.0737146 0.148779 -0.0559047 65 38 34
0.0683303 0.10556 -0.0389943 24 22 20
0.0613321 0.142962 -0.0539147 62 35 34
0.0677791 0.168652 -0.0294388 189 112 99
0.0875006 0.170657 -0.0219506 144 63 61
0.0632428 0.119713 -0.0657612 16 0 0
0.0726489 0.195716 -0.0268743 255 209 191
0.0869393 0.198421 -0.0351401 255 187 174
0.0782091 0.183032 -0.049085 30 0 0
0.0746391 0.183408 -0.020725 153 90 84
0.0632097 0.181499 -0.0342355 255 198 172
0.0688308 0.109093 -0.0360731 35 38 35
0.0751631 0.172164 -0.0269695 255 156 139
0.0831202 0.154403 -0.0373306 173 109 102
0.090166 0.179607 -0.03008 168 94 88
0.0914087 0.191853 -0.0372905 218 131 120
0.0645868 0.181178 -0.0326039 200 105 90
0.0887136 0.188979 -0.032135 255 221 195
0.0682996 0.111323 -0.0460604 40 34 31
0.0678389 0.181919 -0.0293398 255 178 157
0.0841324 0.157384 -0.0336437 166 106 98
0.0673011 0.171504 -0.0289339 165 75 62
0.0777151 0.153205 -0.0325477 178 113 99
0.0886737 0.176696 -0.0351573 207 123 120
0.0739047 0.189746 -0.0490742 229 129 119
0.0613854 0.181302 -0.0388781 251 186 155
0.0841384 0.162717 -0.0296562 128 74 66
0.0712407 0.180825 -0.049245 254 174 157
0.0914011 0.178163 -0.0345428 255 155 136
0.0623834 0.184119 -0.0330926 137 29 31
0.0630138 0.125336 -0.063656 31 19 14
0.0785333 0.192209 -0.053548 255 203 187
0.0879053 0.192526 -0.0366711 91 82 63
0.0873046 0.171711 -0.0276469 175 112 101
0.0717048 0.189504 -0.0248667 255 137 123
0.0864101 0.196364 -0.0406491 255 158 139
0.0718604 0.190275 -0.0239177 255 131 117
0.0860616 0.182268 -0.039574 194 76 69
0.0871079 0.185578 -0.0380079 255 230 211
0.0890186 0.187547 -0.0328507 255 207 188
0.0876003 0.185184 -0.0280804 214 127 112
0.0881569 0.186807 -0.0368249 180 49 40
0.0764115 0.187522 -0.0232141 238 142 131
0.0863466 0.200853 -0.0369336 255 203 187
0.0649873 0.195107 -0.0401003 255 168 154
0.0686571 0.195187 -0.0299906 215 114 97
0.073238 0.182558 -0.0245047 255 255 255
0.0796888 0.193665 -0.0515484 255 146 131
0.0757109 0.185548 -0.0221754 239 191 160
0.0628316 0.182237 -0.0346045 239 157 142
0.0760301 0.186209 -0.0236022 255 150 134
0.0716204 0.189038 -0.0232396 239 166 151
0.0747787 0.187913 -0.0244358 255 213 195
0.0712305 0.168815 -0.0271895 255 255 255
0.086815 0.203088 -0.0360686 255 255 255
0.0656682 0.179468 -0.029792 255 157 137
0.0743926 0.181089 -0.0508596 255 224 212
0.0906769 0.181894 -0.0332486 252 159 143
0.0904511 0.181889 -0.0383077 214 113 102
0.0815507 0.161997 -0.0283925 142 77 70
0.0745751 0.193285 -0.0261554 255 127 112
0.0694076 0.186075 -0.0260927 189 85 71
0.0715767 0.101057 -0.0665078 0 0 0
0.0759396 0.189843 -0.0239539 216 103 91
0.0639654 0.193413 -0.0370975 229 140 125
0.0890219 0.184342 -0.0279141 255 170 153
0.085657 0.199205 -0.0389603 255 193 166
0.065717 0.19632 -0.0399807 255 148 134
0.0779744 0.181453 -0.0497078 231 176 179
0.0848221 0.191384 -0.0470947 255 156 144
0.0710489 0.18774 -0.0220585 242 117 102
0.0759655 0.185689 -0.0231388 255 136 119
0.0724059 0.189181 -0.0250195 255 152 135
0.0907098 0.184765 -0.0355862 222 125 107
0.0580666 0.121267 -0.0577757 42 33 30
0.0615693 0.175823 -0.0322977 121 26 31
0.0623571 0.171015 -0.0286326 255 143 118
0.0836201 0.17186 -0.0426401 255 191 178
0.0836104 0.160032 -0.0284041 255 147 154
0.0721462 0.156963 -0.0308017 145 97 89
0.0875954 0.176413 -0.0282546 200 121 113
0.0580558 0.121164 -0.0578672 47 31 29
0.0883626 0.188716 -0.0358843 255 223 201
0.0699558 0.153113 -0.0338244 132 77 66
0.0582064 0.120079 -0.0634176 0 0 0
0.0882594 0.165704 -0.0483983 161 149 128
0.0656967 0.154635 -0.035525 124 83 79
0.0769492 0.184051 -0.0494502 226 137 130
0.0782155 0.132735 -0.0487856 0 0 0
0.0520508 0.174791 -0.0354118 150 65 63
0.0584606 0.144068 -0.0484285 96 56 50
0.0822045 0.161767 -0.0282678 157 75 69
0.0852172 0.169671 -0.0360401 139 81 73
0.0782397 0.192158 -0.0498636 241 160 148
0.078883 0.193369 -0.0484004 166 82 73
0.053718 0.0962392 -0.0384247 0 0 0
0.0646607 0.179559 -0.0312885 153 96 88
0.0620229 0.167839 -0.0327221 223 101 88
0.0843887 0.175299 -0.0412579 204 103 92
0.0547457 0.173474 -0.0391415 44 38 48
0.0681244 0.16462 -0.0579116 227 140 120
0.0605464 0.179336 -0.0371271 97 110 119
0.0761947 0.191645 -0.024798 153 84 83
0.0708157 0.165617 -0.0284279 144 70 54
0.0909918 0.183915 -0.0339393 186 76 68
0.0747687 0.191833 -0.0257004 255 99 83
0.065373 0.172799 -0.029387 255 104 84
0.0610193 0.182393 -0.0384501 244 162 144
0.0680104 0.148315 -0.0355778 109 69 60
0.0631509 0.113714 -0.0596643 41 28 26
0.0705944 0.107994 -0.0419776 30 25 25
0.0587936 0.120377 -0.0648263 17 0 0
0.0654972 0.165147 -0.0326674 140 84 76
0.0749048 0.167253 -0.0284035 152 91 84
0.0783997 0.155988 -0.029734 132 91 82
0.0732023 0.166495 -0.0275522 97 18 5
0.0740421 0.180119 -0.0251821 225 128 115
0.075279 0.178931 -0.0504424 32 14 8
0.0668577 0.185949 -0.0445134 203 117 118
0.0582721 0.121208 -0.0578397 43 33 31
0.074454 0.165221 -0.0281894 122 67 55
0.0832971 0.159472 -0.0281854 113 70 67
0.0840765 0.158051 -0.0325918 132 85 77
0.0656095 0.195117 -0.0350194 179 82 74
0.066302 0.165809 -0.0321018 137 90 80
0.0718567 0.196685 -0.0450007 168 71 64
0.0768593 0.179947 -0.0498434 225 143 128
0.0656668 0.163475 -0.0503939 168 84 72
0.0566262 0.121218 -0.06188 0 0 0
0.0889446 0.190026 -0.0334485 255 199 181
0.0668167 0.196396 -0.041335 255 128 145
0.0891383 0.19207 -0.03496 255 207 183
0.0611361 0.178532 -0.0344243 109 66 57
0.0763995 0.160966 -0.0282656 147 91 80
0.0585023 0.121472 -0.0585846 36 26 23
0.0784304 0.193548 -0.0481555 148 56 48
0.0668225 0.181602 -0.0306938 255 177 153
0.0641164 0.182075 -0.0332789 247 128 117
0.0774722 0.154022 -0.0239421 255 255 255
0.0862294 0.194935 -0.03908 255 114 100
0.0668733 0.181062 -0.0301935 255 176 155
0.0635024 0.11121 -0.0679187 0 0 0
0.0872699 0.199477 -0.0325947 252 171 155
0.0700201 0.0741207 -0.0449657 0 0 0
0.0695192 0.105133 -0.0687947 0 0 0
0.083785 0.162469 -0.0296491 125 76 71
0.0916731 0.178294 -0.0267803 255 238 207
0.0779545 0.194236 -0.0506937 155 74 65
0.0678092 0.203119 -0.0372475 255 161 142
0.0606733 0.164425 -0.0363951 199 88 72
0.0877612 0.184825 -0.0384087 238 196 179
0.0786463 0.181233 -0.0487305 253 170 160
0.0618287 0.104052 -0.0619574 0 0 0
0.0711687 0.157193 -0.0311632 113 69 61
0.082744 0.178421 -0.043057 163 62 52
0.0768843 0.179503 -0.0497526 255 129 113
0.0706547 0.112151 -0.0541999 62 41 43
0.0728904 0.195732 -0.0458773 255 158 142
0.075401 0.179765 -0.0498903 217 155 136
0.0673592 0.162794 -0.031745 159 91 83
0.088774 0.190916 -0.0366494 255 193 165
0.074205 0.168626 -0.02693 174 98 84
0.0615775 0.185778 -0.0356802 212 145 136
0.0661508 0.134145 -0.0347744 82 49 46
0.0746233 0.166414 -0.0270863 101 16 4
0.076494 0.137243 -0.0291799 0 0 0
0.0732916 0.180607 -0.0508459 34 0 0
0.0807472 0.159306 -0.0463155 118 57 41
0.0657054 0.198118 -0.0395172 255 54 38
0.0665748 0.153078 -0.0364826 124 78 71
0.0695071 0.165708 -0.0299001 202 116 102
0.0863842 0.173856 -0.046739 135 61 48
0.0839021 0.159397 -0.0309953 138 59 58
0.0542593 0.177267 -0.0300568 92 89 113
0.0664604 0.16368 -0.0321054 175 98 88
0.0655241 0.112018 -0.0505514 48 42 45
0.0615189 0.142099 -0.0551158 82 43 38
0.0619185 0.180804 -0.0397342 250 195 177
0.0769876 0.179494 -0.050946 253 204 210
0.0651631 0.177825 -0.0300215 158 98 86
0.0806864 0.173976 -0.0504417 123 65 57
0.0852764 0.190159 -0.0232729 240 144 125
0.0735243 0.193462 -0.0257271 255 255 255
0.0641855 0.19348 -0.0369343 204 109 98
0.0744992 0.192499 -0.0250047 255 200 178
0.0716486 0.190093 -0.0239725 255 131 116
0.088449 0.188897 -0.0363398 255 165 147
0.0884003 0.189406 -0.0335261 255 203 187
0.0681309 0.182044 -0.0291162 255 241 210
0.0728953 0.179374 -0.0250872 255 255 255
0.062392 0.181279 -0.0372329 255 160 141
0.0893646 0.190909 -0.0387497 255 187 168
0.086002 0.180911 -0.0393487 220 134 116
0.071457 0.189602 -0.0233431 239 167 152
0.0745002 0.189156 -0.0236952 255 177 159
0.0790666 0.176946 -0.0254849 243 166 141
0.0479616 0.109411 -0.0497129 0 0 0
0.066933 0.178875 -0.0282127 245 126 114
0.0799508 0.179887 -0.0483331 255 175 164
0.0787059 0.179929 -0.0495509 226 163 152
0.0860499 0.186438 -0.0276063 204 118 106
0.074508 0.18676 -0.0513373 255 214 227
0.0712569 0.100766 -0.0684007 0 0 0
0.0678571 0.180991 -0.0250965 255 255 255
0.0731845 0.196764 -0.0262983 255 201 186
0.0865484 0.186484 -0.0271312 235 133 121
0.0859377 0.197448 -0.0382428 255 158 140
0.0657654 0.19671 -0.0389659 255 183 167
0.0793545 0.181863 -0.0489671 241 161 148
0.0613346 0.18292 -0.038464 184 129 121
0.0854917 0.183251 -0.0397966 255 223 202
0.0715206 0.187888 -0.0244953 239 117 102
0.0799854 0.201127 -0.0468873 237 126 117
0.0635831 0.182903 -0.033293 255 163 143
0.071888 0.18765 -0.0252891 255 180 162
0.0611271 0.125677 -0.0392063 75 59 56
0.0799422 0.136705 -0.0400602 0 0 0
0.0709608 0.165848 -0.0281027 183 116 104
0.0694353 0.165516 -0.0309142 156 92 83
0.0708147 0.15788 -0.0311212 133 78 74
0.072221 0.172419 -0.0279902 218 133 121
0.0803378 0.179172 -0.0490662 146 98 93
0.0690473 0.13118 -0.0356905 56 37 32
0.0790465 0.183465 -0.048185 204 122 110
0.0816443 0.156096 -0.0431958 92 37 30
0.0809755 0.17566 -0.049435 137 76 70
0.0697413 0.162796 -0.0306877 164 93 85
0.0608527 0.13926 -0.0401844 91 58 54
0.0690204 0.130945 -0.035685 66 49 46
0.0628604 0.189553 -0.0324696 255 230 198
0.0724924 0.164175 -0.0275589 134 59 50
0.0864813 0.190147 -0.0269978 255 160 153
0.078282 0.181233 -0.0488326 171 95 85
0.0640085 0.181936 -0.0465974 183 108 91
0.0625637 0.156974 -0.0379147 164 96 84
0.074633 0.179456 -0.0503224 213 148 138
0.064055 0.185851 -0.0422182 215 152 139
0.0660808 0.183071 -0.0449321 255 165 155
0.0576138 0.14593 -0.0445811 47 23 22
0.0640168 0.185494 -0.0443119 248 166 152
0.0755301 0.134203 -0.0352347 99 70 63
0.0667463 0.0801762 -0.0355222 222 255 255
0.0643776 0.18063 -0.0461187 103 55 46
0.0680876 0.192259 -0.0443613 227 137 125
0.0776708 0.136202 -0.0433322 58 38 34
0.073226 0.160378 -0.0527844 255 133 116
0.0637145 0.167971 -0.0511074 158 80 75
0.0660881 0.121072 -0.0361575 18 0 0
0.0655363 0.180738 -0.047507 136 56 43
0.0710028 0.157298 -0.0309566 132 82 75
0.0589085 0.145628 -0.0521769 31 0 0
0.0672273 0.176616 -0.0498196 148 82 72
0.0694239 0.180905 -0.0466881 149 119 109
0.062453 0.181204 -0.0364204 253 158 151
0.0771549 0.132557 -0.0421165 86 55 51
0.073679 0.176103 -0.0526021 110 58 52
0.0693887 0.131733 -0.0356953 97 62 62
0.0632543 0.182076 -0.0461602 231 129 116
0.0730196 0.130695 -0.0371219 92 60 56
0.0640259 0.185342 -0.0435984 150 52 51
0.0684404 0.147285 -0.0343783 53 42 33
0.0728322 0.161621 -0.0295246 128 75 70
0.0722145 0.135549 -0.0340154 95 63 56
0.0849552 0.16647 -0.0367547 99 62 59
0.0643582 0.18335 -0.0435919 208 110 97
0.0794132 0.183618 -0.0473885 195 126 115
0.0489185 0.100599 -0.0464857 0 0 0
0.084356 0.159663 -0.0358101 141 95 88
0.0820657 0.150594 -0.0432968 124 77 68
0.0646037 0.157656 -0.0351476 143 94 82
0.0864543 0.184155 -0.0385802 255 147 131
0.0644598 0.16361 -0.0478666 155 81 70
0.0782747 0.159961 -0.0280679 177 98 86
0.0650995 0.106464 -0.0452361 52 41 39
0.0713957 0.197614 -0.0445542 196 104 93
0.071386 0.196583 -0.0450446 162 68 62
0.0809694 0.181174 -0.0481336 45 0 0
0.0651624 0.197292 -0.034169 220 37 25
0.0592687 0.130981 -0.0412856 48 37 34
0.0761398 0.174786 -0.0519743 255 173 150
0.0759568 0.153345 -0.0323548 158 104 97
0.0825447 0.163602 -0.0279869 163 92 83
0.0704865 0.155557 -0.0319976 169 103 93
0.0684841 0.125773 -0.0356847 85 44 46
0.0690848 0.182918 -0.046795 253 146 128
0.0696329 0.164434 -0.0529816 160 108 104
0.0707782 0.165165 -0.0293291 150 87 78
0.0631555 0.133546 -0.0394973 73 53 50
0.0738216 0.18483 -0.048037 182 121 109
0.0624339 0.182697 -0.0416938 255 191 177
0.064457 0.185333 -0.043054 196 107 94
0.063995 0.186412 -0.0425331 253 151 137
0.0626366 0.119461 -0.0355764 53 27 26
0.0837447 0.167384 -0.0382834 140 73 66
0.0700455 0.193736 -0.0453802 201 92 80
0.0686821 0.18616 -0.0468625 206 104 90
0.0747455 0.154833 -0.030449 169 102 91
0.0589823 0.164156 -0.043815 211 96 87
0.084241 0.155167 -0.0385728 135 76 68
0.0695886 0.0917296 -0.0649558 0 0 0
0.0614986 0.162719 -0.0461121 255 150 134
0.068578 0.162385 -0.0297715 157 88 83
0.0648621 0.187092 -0.0436488 213 120 107
0.0905984 0.191916 -0.0344381 255 188 167
0.0719252 0.197095 -0.0452889 255 145 130
0.0871506 0.201967 -0.0352109 255 185 166
0.0590237 0.129501 -0.0414968 74 51 50
0.0719205 0.166022 -0.028615 193 110 93
0.0691454 0.130278 -0.0355146 41 32 25
0.0693717 0.129246 -0.0355715 53 39 44
0.0804441 0.186522 -0.0468093 202 116 103
0.0639844 0.183625 -0.0433852 190 95 87
0.0678194 0.184974 -0.046792 237 137 121
0.067473 0.135053 -0.0350366 79 50 47
0.0688749 0.123052 -0.0349354 50 34 34
0.0665757 0.0737816 -0.0357859 0 0 0
0.0680304 0.122211 -0.0366416 65 54 50
0.0710275 0.08954 -0.0636948 0 0 0
0.0719897 0.15363 -0.033241 132 86 82
0.0832699 0.169081 -0.0387923 136 82 73
0.064579 0.128226 -0.0378281 74 51 47
0.0652804 0.195455 -0.0335625 255 153 138
0.0846689 0.161746 -0.0303864 171 98 93
0.0695325 0.159744 -0.031748 126 76 70
0.082931 0.159685 -0.0282819 138 78 71
0.0699069 0.109021 -0.042327 49 42 38
0.0641137 0.163213 -0.0480511 181 84 67
0.074694 0.198202 -0.0463902 248 134 119
0.0635484 0.113864 -0.059147 44 27 23
0.072301 0.138369 -0.0573848 68 38 35
0.0626797 0.114415 -0.060939 31 23 20
0.0877566 0.198186 -0.0334898 249 202 178
0.0888434 0.186368 -0.0282502 255 133 109
0.0751323 0.198153 -0.0466277 235 123 109
0.0623566 0.0776138 -0.0461089 0 0 0
0.0827626 0.16005 -0.0283791 127 62 51
0.0782306 0.152706 -0.0443858 119 75 67
0.0614859 0.144656 -0.0541198 78 52 46
0.0673001 0.194648 -0.0437309 177 76 71
0.065241 0.196677 -0.037501 229 128 118
0.0647209 0.128808 -0.0378257 63 43 38
0.0678712 0.12422 -0.036046 49 35 32
0.0735241 0.197414 -0.0466712 206 100 86
0.0639863 0.131617 -0.0387257 82 63 58
0.0653924 0.184855 -0.0453925 220 129 114
0.0614363 0.182087 -0.0407645 166 132 120
0.0737155 0.167656 -0.0260219 180 106 89
0.071315 0.185564 -0.0470716 203 97 95
0.0838316 0.168614 -0.0379212 49 19 14
0.079348 0.165302 -0.027402 120 78 70
0.0788847 0.180964 -0.0489436 255 169 161
0.0795079 0.181301 -0.048967 238 117 102
0.0712415 0.154562 -0.031143 172 98 88
0.0678283 0.195676 -0.0431187 157 62 51
0.0705468 0.108453 -0.0400208 37 28 26
0.0625063 0.127824 -0.0391335 72 55 48
0.0869342 0.202202 -0.0358838 255 154 137
0.0873167 0.199508 -0.0332002 255 138 121
0.0733791 0.195497 -0.0459398 150 71 52
0.0764623 0.183806 -0.0495685 220 149 143
0.0699037 0.165974 -0.029358 238 135 120
0.0560768 0.123587 -0.0481556 45 31 26
0.0734553 0.104929 -0.062561 0 0 0
0.0795443 0.16292 -0.0496092 92 50 44
0.067024 0.112495 -0.0352157 83 67 65
0.0731676 0.196408 -0.0465098 249 116 100
0.069666 0.131833 -0.0353715 85 57 54
0.0866434 0.197649 -0.0388897 255 205 185
0.0665841 0.199266 -0.0387841 255 157 141
0.0856669 0.198251 -0.0389232 255 150 127
0.0870505 0.198191 -0.0355242 255 199 191
0.0790342 0.160259 -0.0281579 150 80 70
0.0579295 0.117355 -0.0655535 0 0 0
0.0876708 0.18455 -0.0283479 245 154 137
0.0877133 0.200952 -0.0354213 255 198 177
0.076171 0.162284 -0.028011 131 91 85
0.0558256 0.121542 -0.0553144 0 0 0
0.0661059 0.198518 -0.0343324 255 118 101
0.0729827 0.193991 -0.0265466 255 193 173
0.0660354 0.197116 -0.0385092 251 144 130
0.0627404 0.185362 -0.0433648 255 210 189
0.0645235 0.132198 -0.0383681 69 42 41
0.0636047 0.128064 -0.0382253 82 64 59
0.0616467 0.120779 -0.0386534 51 30 27
0.0778033 0.139202 -0.0437285 59 34 31
0.0674585 0.183774 -0.0468366 255 153 134
0.0722446 0.198202 -0.0447902 251 146 121
0.0597513 0.109809 -0.037169 11 0 0
0.0693033 0.182804 -0.047668 255 138 123
0.0579294 0.099067 -0.0542285 0 0 0
0.0570272 0.117239 -0.0449569 85 75 72
0.0753226 0.194589 -0.0475042 193 97 87
0.0803136 0.181668 -0.047432 224 114 104
0.0713416 0.111537 -0.0395061 35 33 31
0.065736 0.197013 -0.036662 212 106 99
0.0648612 0.193636 -0.0384451 138 60 55
0.0873488 0.19953 -0.0388806 255 219 199
0.0603482 0.116414 -0.0611982 0 0 0
0.0675366 0.199824 -0.0403541 255 116 105
0.0872872 0.203274 -0.0353303 255 193 171
0.0798184 0.196795 -0.0477728 253 149 134
0.0646304 0.112504 -0.0606511 27 23 21
0.0876312 0.198589 -0.0375172 255 192 181
0.0874075 0.198629 -0.0364264 255 209 188
0.0863949 0.15544 -0.0323474 172 94 87
0.0836932 0.167762 -0.0399814 247 91 69
0.0593211 0.111605 -0.0627879 0 0 0
0.0694911 0.172552 -0.0280845 175 102 89
0.0770544 0.161623 -0.0268659 141 78 68
0.0731516 0.167299 -0.027526 34 0 0
0.0888881 0.193627 -0.0364289 144 73 58
0.0684979 0.193231 -0.0447626 190 95 82
0.0898044 0.19113 -0.0350979 255 189 169
0.0761085 0.134835 -0.0499901 0 0 0
0.0688497 0.109123 -0.0360194 22 37 33
0.0888203 0.188572 -0.0318895 255 215 201
0.0886457 0.188808 -0.0352391 238 180 164
0.0768335 0.193734 -0.0241885 255 214 209
0.0712118 0.188092 -0.0238306 255 160 144
0.065768 0.0523273 -0.0404944 0 0 0
0.0742573 0.178291 -0.0232892 225 127 116
0.0753405 0.188974 -0.0236402 241 140 134
0.0746403 0.176081 -0.0275134 130 30 20
0.0738622 0.187615 -0.0248772 255 208 189
0.0798086 0.179801 -0.0488986 255 149 124
0.0596838 0.17733 -0.0368592 255 152 150
0.0850462 0.167274 -0.036091 144 67 58
0.0600911 0.176795 -0.0334359 196 86 75
0.074804 0.189071 -0.0505424 148 63 52
0.0610393 0.180606 -0.0380143 170 108 101
0.0702081 0.196872 -0.0447071 184 88 85
0.0832338 0.176144 -0.0437075 161 86 80
0.0698916 0.110098 -0.0421831 43 33 32
0.081686 0.194274 -0.0253807 239 151 137
0.0798016 0.180528 -0.0484543 233 157 147
0.0741042 0.189879 -0.0244325 255 244 222
0.0899332 0.188227 -0.0360178 255 167 150
0.0651305 0.196177 -0.0352707 255 125 119
0.0632842 0.113404 -0.059873 31 22 20
0.0866933 0.194785 -0.0383429 255 189 171
0.0656479 0.196824 -0.0387401 255 173 157
0.07865 0.197371 -0.0482189 255 194 174
0.0883641 0.180575 -0.0369438 202 90 78
0.0816055 0.179881 -0.0460182 143 86 79
0.0783206 0.134037 -0.0409285 58 33 26
0.0717902 0.148202 -0.0575655 11 0 0
0.0583975 0.177209 -0.0388103 231 110 97
0.071129 0.167538 -0.0277042 114 38 31
0.0725681 0.193353 -0.0459408 243 122 110
0.0733849 0.177429 -0.0243124 255 146 133
0.0658219 0.111263 -0.0530055 44 37 36
0.0826559 0.180002 -0.0438121 255 255 255
0.0839196 0.182947 -0.0406041 222 149 129
0.0754859 0.186559 -0.0231078 255 204 192
0.0704161 0.0996017 -0.0697054 0 0 0
0.0787911 0.182839 -0.048613 212 139 125
0.0671722 0.0938063 -0.0574131 0 0 0
0.0719708 0.190369 -0.0233442 198 40 25
0.0885594 0.188423 -0.0335233 255 211 194
0.0720317 0.19043 -0.0261228 255 166 149
0.0687031 0.153117 -0.0346885 129 77 70
0.069109 0.110838 -0.046233 40 34 33
0.0890582 0.193392 -0.03396 223 119 104
0.0815459 0.158521 -0.0285311 97 50 38
0.0746712 0.189813 -0.0509757 152 63 56
0.0748781 0.159807 -0.0227392 146 89 84
0.0726567 0.109834 -0.0628159 39 0 0
0.0725143 0.0587184 -0.0446741 0 0 0
0.0837704 0.155147 -0.038806 83 38 30
0.0738852 0.17987 -0.0249788 255 150 135
0.0844777 0.162383 -0.029511 118 72 65
0.0873635 0.198207 -0.0321873 255 211 176
0.0665961 0.200317 -0.0363941 255 141 118
0.0581707 0.116262 -0.0472594 40 24 22
0.0846502 0.169763 -0.0319332 163 99 92
0.071982 0.172351 -0.0278508 202 120 108
0.0610525 0.112253 -0.0416304 35 36 32
0.0674947 0.199277 -0.0407772 255 155 144
0.0863325 0.196957 -0.0371314 255 104 75
0.0693156 0.105293 -0.0684465 0 0 0
0.0733368 0.19216 -0.0473153 164 80 64
0.0728521 0.100136 -0.0632339 0 0 0
0.0829781 0.158761 -0.0286379 211 156 140
0.065512 0.190815 -0.0307852 189 92 85
0.0859366 0.192254 -0.0427331 255 200 181
0.0551112 0.179356 -0.0367487 255 153 142
0.0664747 0.163135 -0.0321069 255 103 94
0.0642171 0.172405 -0.0299219 163 93 84
0.0813259 0.190786 -0.0501787 255 173 160
0.065662 0.111922 -0.0490247 31 22 26
0.0692084 0.183309 -0.0286954 237 140 119
0.0577638 0.121941 -0.0572868 42 33 30
0.0583534 0.120256 -0.0529416 49 39 34
0.0784718 0.193741 -0.0496291 167 55 41
0.0846827 0.16303 -0.0371531 191 91 79
0.0908596 0.185649 -0.0360915 255 162 141
0.0808952 0.155746 -0.0415546 101 44 32
0.0658022 0.164009 -0.031937 226 98 78
0.0639815 0.11521 -0.0441097 59 47 45
0.0615521 0.164908 -0.0345501 113 71 64
0.0843856 0.158744 -0.0363662 140 74 67
0.0527631 0.11022 -0.0628333 0 0 0
0.0690667 0.163036 -0.0309186 172 86 78
0.0581056 0.12119 -0.0577898 33 30 28
0.0779479 0.139166 -0.0503023 0 0 0
0.081048 0.181024 -0.0464256 255 134 124
0.0873618 0.199562 -0.0337925 255 126 113
0.0867896 0.193072 -0.0288153 236 137 124
0.0802314 0.179832 -0.0472541 239 138 132
0.0824602 0.156587 -0.0294829 156 110 102
0.066494 0.1673 -0.0548111 173 103 91
0.0924177 0.181541 -0.0351412 174 68 56
0.0739525 0.196854 -0.026224 255 164 145
0.063354 0.181216 -0.0337944 255 163 145
0.0677255 0.182048 -0.0297446 247 168 154
0.0757341 0.141152 -0.0299724 91 225 251
0.0790503 0.18104 -0.0487182 219 142 138
0.0648256 0.102851 -0.0297641 0 0 0
0.0862828 0.193913 -0.0388396 255 162 143
0.0734166 0.197547 -0.0263486 255 255 255
0.073291 0.194035 -0.0254566 255 159 143
0.0633339 0.101057 -0.0277405 0 0 0
0.0635262 0.0915773 -0.0301843 0 0 0
0.0792182 0.154416 -0.0305484 165 105 98
0.06482 0.182533 -0.0326355 255 162 143
0.0853483 0.160046 -0.0344525 136 84 76
0.0701349 0.18936 -0.0249427 199 83 69
0.0742631 0.19664 -0.0248793 255 71 64
0.0888592 0.198708 -0.034904 255 183 168
0.0640145 0.192586 -0.0392465 255 229 206
0.0735619 0.197063 -0.0266522 255 193 169
0.0777223 0.197204 -0.0479523 255 183 179
0.0734836 0.182804 -0.024829 255 255 255
0.0765674 0.19485 -0.0245737 255 154 138
0.0639895 0.181648 -0.0327629 255 191 169
0.0909006 0.186089 -0.0363118 240 136 121
0.0606809 0.14195 -0.0549221 24 0 0
0.0627699 0.18294 -0.0433374 255 163 139
0.0887673 0.188176 -0.0340757 255 223 207
0.0712603 0.186523 -0.0236312 197 88 78
0.0858745 0.19602 -0.0425454 255 145 128
0.0638072 0.0892457 -0.0292496 0 0 0
0.073915 0.168247 -0.0261269 255 255 255
0.0694859 0.186523 -0.0265389 252 97 82
0.0872305 0.20089 -0.0345289 255 173 150
0.0760604 0.19021 -0.0509002 130 11 0
0.0847604 0.162299 -0.031274 162 82 77
0.0747116 0.198847 -0.025888 255 255 242
0.0750775 0.183917 -0.0208826 166 89 89
0.0871525 0.201858 -0.0344599 255 174 160
0.0625504 0.16303 -0.0353987 130 84 75
0.081544 0.17913 -0.0470022 136 85 77
0.0817001 0.130734 -0.0509625 255 139 102
0.0709422 0.154518 -0.0291957 183 98 87
0.0696945 0.190589 -0.0457082 96 29 30
0.074195 0.160258 -0.0291333 112 76 68
0.0631186 0.114642 -0.0609696 30 29 26
0.0747993 0.187581 -0.0226124 255 173 153
0.062657 0.106269 -0.0703905 0 0 0
0.0710211 0.156507 -0.0296657 138 24 18
0.0765822 0.183743 -0.049695 180 118 115
0.0741312 0.189246 -0.0516635 238 142 129
0.0693941 0.0928441 -0.0637933 0 0 0
0.0689161 0.186839 -0.024776 201 132 114
0.0718952 0.172269 -0.0281107 206 127 115
0.0837099 0.183513 -0.0415339 232 128 115
0.087958 0.189547 -0.0337779 255 224 204
0.0695467 0.178402 -0.0263456 255 255 255
0.0657666 0.188071 -0.0446658 196 102 88
0.0839979 0.174713 -0.0431133 227 124 116
0.0644951 0.0987371 -0.0540618 0 0 0
0.0647698 0.112311 -0.0476694 52 36 32
0.0878981 0.193199 -0.0316881 255 169 159
0.0848667 0.162597 -0.0314272 147 84 79
0.0733507 0.165909 -0.0254685 167 110 100
0.0638534 0.165231 -0.0337034 129 78 67
0.0696111 0.185628 -0.0473866 238 136 123
0.0839069 0.169173 -0.0414787 254 144 130
0.0743104 0.189294 -0.0497912 165 76 70
0.0692634 0.166582 -0.0307234 159 94 87
0.0766584 0.173317 -0.0265556 229 118 104
0.0688289 0.111915 -0.0545669 31 26 24
0.0629235 0.174141 -0.0302754 215 127 113
0.0738086 0.195285 -0.0260482 255 198 174
0.0789033 0.160505 -0.028381 123 77 67
0.0616966 0.16855 -0.0335638 138 70 62
0.0580735 0.124976 -0.0557573 31 28 27
0.0577324 0.173563 -0.0340854 239 173 164
0.0874141 0.19738 -0.033556 255 221 195
0.0900799 0.172478 -0.0403502 201 68 61
0.0642706 0.108044 -0.040585 64 56 51
0.0644403 0.162029 -0.0336828 166 88 77
0.0738262 0.178456 -0.0238331 188 95 84
0.0803602 0.180635 -0.0472523 240 139 139
0.0637724 0.163522 -0.0337043 155 86 74
0.0814082 0.183202 -0.0451658 225 123 109
0.0794429 0.182496 -0.0478044 221 119 113
0.0665359 0.164199 -0.03191 154 87 77
0.0730801 0.0725833 -0.0469622 0 0 0
0.0862352 0.195991 -0.038005 255 126 118
0.0745793 0.137858 -0.0552994 76 47 44
0.0693188 0.104555 -0.0686196 0 0 0
0.0875879 0.185313 -0.0274219 213 113 100
0.0830753 0.159679 -0.0282309 185 126 118
0.073872 0.195959 -0.0256376 255 146 125
0.0580706 0.120807 -0.0577196 50 29 27
0.0605405 0.164826 -0.0367515 255 95 71
0.0786305 0.189881 -0.0508953 255 235 218
0.0648328 0.194722 -0.0400566 149 65 61
0.0691748 0.199094 -0.0305634 255 139 125
0.0597963 0.161954 -0.0379652 154 94 84
0.0688082 0.110282 -0.0470308 25 19 19
0.0526137 0.122759 -0.0534626 38 30 25
0.0729517 0.154211 -0.0336547 154 99 90
0.0731245 0.13888 -0.0564817 57 17 17
0.0807367 0.191693 -0.0495473 91 0 0
0.0847981 0.166477 -0.0379727 191 95 87
0.0865265 0.188443 -0.0394504 255 166 147
0.0704489 0.196737 -0.0281769 255 186 167
0.0606036 0.117696 -0.0596407 37 28 26
0.0765244 0.189892 -0.0494946 249 162 140
0.0674082 0.166838 -0.0305688 255 137 119
0.0596736 0.120885 -0.0641825 14 13 10
0.073097 0.194016 -0.0267328 255 153 140
0.0629975 0.123139 -0.064499 52 17 0
0.0649014 0.142431 -0.0571596 36 0 0
0.0805368 0.193518 -0.0495023 255 169 153
0.0688789 0.169458 -0.0300423 175 79 72
0.0623937 0.181373 -0.0369405 255 154 138
0.0741219 0.171958 -0.0274781 188 115 105
0.0808749 0.181802 -0.0476339 225 126 119
0.0770209 0.183426 -0.0499414 231 160 152
0.0849408 0.185953 -0.0424436 207 95 76
0.0691716 0.181826 -0.0280107 255 231 208
0.0727746 0.190337 -0.0260738 255 183 163
0.0619479 0.18828 -0.0374365 248 158 142
0.0873597 0.19684 -0.0343877 218 255 255
0.0598458 0.179915 -0.0402595 187 109 99
0.0605805 0.120066 -0.0644842 20 0 0
0.0738435 0.179931 -0.0254798 176 84 77
0.0888755 0.178679 -0.03706 211 120 108
0.0912562 0.17227 -0.0367058 255 255 255
0.0876424 0.198157 -0.0332868 255 176 150
0.0618325 0.142934 -0.0534362 75 44 40
0.0743044 0.180104 -0.0254004 217 125 109
0.0823933 0.187484 -0.0249497 183 106 95
0.0699761 0.177539 -0.0265031 255 255 255
0.0728002 0.194695 -0.026046 255 167 147
0.0621855 0.183474 -0.0420038 255 204 179
0.0745292 0.200524 -0.0247312 255 224 213
0.0459476 0.113431 -0.052868 0 0 0
0.0627056 0.18344 -0.0414785 255 162 140
0.0620938 0.186334 -0.0297242 255 188 163
0.0625605 0.11436 -0.0610525 62 43 40
0.0627303 0.182575 -0.0343968 164 83 89
0.0628272 0.116673 -0.0626257 20 17 15
0.0823468 0.178495 -0.0455799 255 179 160
0.0896965 0.192383 -0.0366198 255 189 164
0.0884667 0.190974 -0.0317661 255 179 171
0.0760693 0.186203 -0.0233566 255 153 138
0.0737946 0.195926 -0.0265858 255 188 166
0.0642698 0.191185 -0.0361175 182 97 86
0.0856457 0.188533 -0.0388862 236 149 134
0.0776881 0.183438 -0.0230203 198 120 110
0.0833643 0.173514 -0.0425543 186 49 38
0.0617919 0.0883617 -0.031067 0 0 0
0.0660751 0.197419 -0.0399262 245 156 144
0.0653792 0.194079 -0.0320424 239 113 97
0.0789802 0.181536 -0.0484259 240 152 141
0.0719451 0.187787 -0.0245945 239 122 108
0.0723256 0.192244 -0.0260851 255 133 112
0.0829305 0.161659 -0.028893 146 82 75
0.0865804 0.185866 -0.0378145 255 221 202
0.0643952 0.193356 -0.0360377 255 185 169
0.074048 0.180594 -0.0257889 184 77 67
0.0891149 0.182129 -0.0368844 255 255 255
0.0637337 0.181782 -0.0324241 248 210 184
0.0561886 0.155817 -0.0558156 127 0 0
0.0627107 0.165511 -0.0335231 127 74 65
0.0752355 0.129966 -0.0415359 55 42 38
0.0773478 0.169463 -0.0528716 174 130 120
0.0697597 0.162001 -0.0318641 142 86 78
0.0723689 0.156724 -0.0308467 144 93 85
0.0625713 0.182362 -0.0369979 229 155 141
0.0699942 0.157028 -0.0302926 117 70 63
0.068953 0.161267 -0.0278088 130 74 64
0.0693872 0.131755 -0.0355908 95 57 56
0.0667462 0.170478 -0.0517059 218 154 140
0.0626982 0.157131 -0.0367194 144 86 80
0.0810906 0.154462 -0.0411272 146 96 85
0.068089 0.12843 -0.0359866 69 46 46
0.0812441 0.182917 -0.0454128 196 83 70
0.0633294 0.162839 -0.033327 116 76 67
0.0700467 0.135146 -0.0350961 94 65 59
0.0695193 0.149945 -0.0338179 72 49 44
0.0685506 0.14745 -0.0343833 99 59 55
0.0680908 0.147623 -0.0354702 93 55 44
0.0672286 0.135626 -0.0340068 26 26 38
0.0723603 0.13077 -0.0373883 77 53 51
0.0696017 0.14827 -0.033652 63 13 11
0.0685452 0.145936 -0.0340241 72 38 38
0.0648197 0.156349 -0.0359663 134 86 76
0.0708753 0.13191 -0.0367489 67 49 45
0.0758668 0.17937 -0.0502654 217 153 168
0.0590174 0.119374 -0.0511543 45 34 32
0.0641406 0.181541 -0.0466334 180 108 90
0.0798804 0.143336 -0.0345893 26 8 4
0.0607377 0.168377 -0.0488662 173 53 47
0.0681167 0.147105 -0.0348653 107 62 55
0.0692986 0.159346 -0.0307022 136 86 75
0.0707874 0.180952 -0.0492003 255 169 154
0.080235 0.185809 -0.047167 211 131 126
0.0737115 0.180461 -0.0494598 236 159 147
0.0643086 0.186108 -0.042302 219 150 143
0.0757588 0.196373 -0.0472361 230 129 118
0.0728629 0.147527 -0.057327 14 0 0
0.064634 0.177181 -0.0471034 106 55 53
0.0598211 0.116728 -0.0597194 29 26 24
0.0753612 0.179771 -0.049958 248 179 166
0.0722724 0.179534 -0.0503333 255 183 168
0.0808682 0.156076 -0.0427999 103 58 51
0.0631786 0.162568 -0.04548 147 83 75
0.075571 0.179313 -0.0501849 221 146 131
0.0602842 0.126181 -0.0368127 61 47 51
0.0701323 0.16808 -0.0303045 153 92 85
0.0650593 0.179973 -0.0470887 123 8 0
0.0712808 0.131892 -0.0361037 85 56 52
0.0701433 0.159673 -0.0315775 125 69 59
0.0580952 0.143105 -0.0421905 73 43 39
0.084677 0.168234 -0.0316679 163 97 86
0.0713166 0.131997 -0.0361915 86 56 55
0.0886952 0.189538 -0.0333903 255 209 177
0.0708477 0.159113 -0.02934 123 70 60
0.0660309 0.183989 -0.0456562 237 133 118
0.0731476 0.13077 -0.037211 95 62 58
0.0689993 0.157456 -0.0309543 124 77 68
0.0672522 0.0955226 -0.0571957 0 0 0
0.0713814 0.161498 -0.0520956 98 70 67
0.0706206 0.153466 -0.0335176 143 95 87
0.0612556 0.136937 -0.0403986 89 61 56
0.0653788 0.158443 -0.0345363 134 83 76
0.0680558 0.151154 -0.0354237 113 65 58
0.0717427 0.111859 -0.0417152 44 37 34
0.071452 0.132013 -0.0361722 86 56 53
0.0717442 0.155666 -0.0313956 184 103 91
0.0788817 0.135438 -0.0393199 46 30 25
0.0744954 0.179511 -0.0503194 231 165 154
0.0626947 0.183139 -0.0430922 229 155 144
0.0685843 0.128309 -0.0358131 37 42 30
0.0683276 0.146044 -0.0343104 73 45 35
0.0641521 0.188464 -0.0421816 229 122 108
0.0808774 0.183732 -0.0473771 211 124 113
0.0781959 0.138269 -0.0426212 58 38 36
0.0693053 0.186809 -0.0465601 230 127 112
0.0769694 0.180306 -0.0495188 205 130 108
0.0609749 0.16765 -0.0357499 89 50 44
0.0752282 0.162675 -0.0552133 95 33 26
0.071976 0.0900097 -0.034378 255 255 255
0.0645947 0.158246 -0.0350926 141 91 82
0.0687234 0.180631 -0.0475394 255 199 173
0.062954 0.183016 -0.0339027 197 136 122
0.0700873 0.129317 -0.03524 53 47 49
0.0793559 0.179722 -0.049443 150 80 72
0.0677978 0.130478 -0.0360778 82 53 50
0.0815267 0.183548 -0.0439096 217 118 102
0.0727535 0.163531 -0.0531271 176 97 84
0.0619963 0.1351 -0.0370095 81 92 87
0.0628647 0.0748737 -0.0325408 91 104 170
0.0631091 0.182159 -0.0344442 251 173 152
0.0632078 0.185419 -0.0420241 170 100 92
0.0678795 0.121658 -0.0358868 44 22 22
0.0628342 0.119635 -0.0356573 47 39 35
0.069585 0.149987 -0.0343166 82 46 41
0.0760455 0.145194 -0.0542483 0 0 0
0.0697058 0.094579 -0.0572036 0 0 0
0.0771483 0.198185 -0.0485888 181 79 65
0.0683429 0.196291 -0.0434384 201 104 97
0.080776 0.139949 -0.0305326 0 0 0
0.0838731 0.159018 -0.0328724 100 65 60
0.0807866 0.182448 -0.0465347 208 111 103
0.0789762 0.163013 -0.0273659 148 91 79
0.0886725 0.189846 -0.0339713 255 168 155
0.0713146 0.195882 -0.0458512 255 143 126
0.0875082 0.197569 -0.0354941 232 176 153
0.0711699 0.161127 -0.0526407 214 137 122
0.069141 0.156208 -0.0304957 128 69 56
0.0802963 0.147634 -0.0319155 75 49 44
0.0681914 0.15224 -0.0351556 118 76 68
0.0627059 0.183714 -0.0416904 211 127 112
0.078776 0.197419 -0.048169 190 78 67
0.0634406 0.182972 -0.0430466 236 130 111
0.0644465 0.184824 -0.0449544 247 140 126
0.0688634 0.193294 -0.0446617 158 62 55
0.0751065 0.129606 -0.037274 78 43 42
0.0697638 0.130356 -0.0354838 72 44 43
0.0835858 0.168095 -0.0401806 236 101 81
0.0674367 0.117684 -0.0359452 43 40 37
0.075969 0.194349 -0.0484145 186 101 95
0.0714637 0.0868367 -0.0501603 0 0 0
0.061597 0.187838 -0.0352987 249 159 142
0.0777543 0.192104 -0.0500921 229 129 116
0.065424 0.184326 -0.0455952 223 128 114
0.0644203 0.124557 -0.03793 85 56 51
0.0632639 0.183226 -0.043033 248 127 116
0.0775237 0.146498 -0.0543962 5 0 0
0.0792154 0.19037 -0.0506658 255 179 169
0.0847095 0.163378 -0.0313066 157 95 88
0.0613987 0.168523 -0.0357447 147 84 78
0.0703676 0.0856975 -0.0535814 0 0 0
0.0609784 0.112268 -0.0416754 23 18 14
0.0560041 0.122229 -0.0478659 0 18 19
0.0879059 0.19995 -0.0332351 255 186 165
0.0679945 0.1858 -0.045752 254 152 139
0.0605369 0.184396 -0.0356507 219 154 137
0.0468122 0.101378 -0.0502275 0 0 0
0.0666849 0.198454 -0.0339352 255 149 134
0.0839488 0.162395 -0.0293881 146 92 83
0.0716953 0.107439 -0.0449862 41 41 39
0.0625114 0.183714 -0.0419435 246 151 132
0.0816436 0.194115 -0.0494939 255 204 192
0.0640687 0.171858 -0.0282777 156 96 88
0.0735185 0.178264 -0.0239077 171 97 88
0.0673991 0.117266 -0.0362229 71 52 48
0.0683428 0.123914 -0.0358009 63 63 53
0.0615903 0.16662 -0.0343719 120 74 65
0.0563364 0.143213 -0.0470338 0 0 0
0.0595061 0.161551 -0.0380242 166 104 95
0.0686832 0.128825 -0.0359235 68 60 60
0.0728895 0.194189 -0.0459797 226 120 103
0.0635861 0.13202 -0.0356817 60 39 38
0.0709133 0.13191 -0.0367594 66 50 46
0.0721723 0.186327 -0.0504277 255 225 203
0.0800851 0.134897 -0.0357413 0 0 0
0.0672913 0.125976 -0.0361223 103 77 72
0.072854 0.191845 -0.0476611 189 107 97
0.0668798 0.112683 -0.0360833 66 42 42
0.078147 0.139438 -0.0351684 60 38 36
0.0673226 0.193269 -0.0438652 179 92 80
0.0718313 0.155264 -0.0307277 177 101 89
0.0844873 0.163436 -0.0298606 114 49 43
0.083011 0.154542 -0.0363761 144 80 69
0.0727501 0.110301 -0.0419788 44 37 35
0.0644842 0.185333 -0.0434559 245 146 138
0.0819271 0.182768 -0.0436892 250 152 133
0.0840743 0.164087 -0.0295814 131 67 58
0.0873914 0.201724 -0.0336682 255 224 190
0.0797274 0.183299 -0.0479088 230 138 136
0.0646244 0.185224 -0.0449751 235 132 118
0.0623142 0.183596 -0.041758 255 189 173
0.0607319 0.176504 -0.0420635 164 19 14
0.0824126 0.158158 -0.0292582 134 70 62
0.0675768 0.116349 -0.0353804 89 68 67
0.0726559 0.195884 -0.0464113 249 144 118
0.0885969 0.191145 -0.0318777 255 159 146
0.0672496 0.200326 -0.0351729 229 155 139
0.0611216 0.113124 -0.0442483 56 41 37
0.0868354 0.195766 -0.0379227 228 157 142
0.0866613 0.197576 -0.0387837 255 202 180
0.0668516 0.19997 -0.0393581 240 153 147
0.086936 0.198443 -0.0365555 255 218 196
0.0801048 0.16309 -0.0278306 121 81 75
0.0614475 0.113161 -0.0452042 48 44 41
0.0837088 0.17561 -0.0262101 121 68 60
0.0631855 0.163063 -0.0464822 164 88 79
0.0741724 0.129032 -0.0466947 105 63 60
0.0722318 0.135943 -0.0314675 68 37 31
0.061656 0.171413 -0.0304977 184 122 110
0.0591767 0.100675 -0.0509696 0 0 0
0.0674488 0.11145 -0.0347266 39 27 25
0.0585006 0.115527 -0.0611096 0 0 0
0.065947 0.198403 -0.0347134 255 122 111
0.05572 0.105483 -0.069962 0 0 0
0.0617145 0.113454 -0.0383157 29 24 22
0.0871806 0.198293 -0.0383032 255 233 205
0.0647859 0.193985 -0.0397335 159 91 86
0.061267 0.164894 -0.0341791 136 72 65
0.0752215 0.130928 -0.037567 98 67 65
0.0650534 0.184508 -0.0452972 232 128 115
0.0714753 0.131995 -0.0362088 77 54 53
0.0742701 0.198422 -0.0461095 255 165 152
0.0619736 0.119501 -0.035839 30 34 31
0.0618362 0.122527 -0.0387784 65 45 42
0.082701 0.162122 -0.0285301 140 81 75
0.0638491 0.0735422 -0.0320838 0 0 44
0.0672209 0.165719 -0.0317798 138 83 73
0.0843609 0.164287 -0.0300271 133 67 58
0.0675797 0.118944 -0.0358368 44 27 27
0.0812134 0.181662 -0.0466569 217 118 110
0.0726675 0.194448 -0.0464616 148 66 53
0.0672574 0.202141 -0.0376393 255 151 140
0.0871516 0.203914 -0.0362729 255 213 191
0.0571211 0.0939727 -0.0447272 0 0 0
0.0702656 0.179904 -0.0300916 127 16 0
0.0873667 0.200271 -0.0360802 255 225 210
0.0812045 0.19639 -0.0491517 191 89 79
0.0670295 0.194623 -0.0430776 189 66 95
0.0680788 0.177863 -0.0293313 188 76 64
0.0888115 0.188637 -0.0319449 255 211 198
0.0888551 0.189271 -0.032298 255 205 191
0.0764461 0.188763 -0.0231988 230 124 114
0.0828682 0.195192 -0.0482179 167 71 62
0.0651258 0.110156 -0.0434621 43 35 32
0.0757079 0.184974 -0.021977 214 115 100
0.0721914 0.185396 -0.0477875 246 142 129
0.0731304 0.196218 -0.0457248 160 74 66
0.06503 0.19608 -0.0366672 255 96 91
0.0628146 0.163282 -0.0464979 177 88 78
0.0674877 0.201739 -0.0363068 255 152 136
0.0814081 0.190811 -0.0491039 240 130 120
0.0585416 0.12158 -0.0585797 42 31 30
0.0724374 0.137533 -0.0579259 72 32 28
0.0656047 0.196891 -0.0367309 235 100 89
0.0655326 0.196515 -0.0398836 255 166 152
0.0763976 0.16125 -0.0281216 148 99 91
0.0799736 0.1375 -0.0398059 0 0 0
0.0782292 0.152694 -0.0433447 130 80 72
0.0643869 0.179162 -0.0463686 145 76 65
0.0749856 0.172439 -0.0272299 255 154 138
0.0631702 0.113484 -0.0604951 21 22 19
0.073644 0.180503 -0.0249199 200 103 88
0.0688807 0.121072 -0.0351573 46 31 29
0.0637226 0.185684 -0.0401435 222 146 130
0.0715114 0.132807 -0.034097 81 46 35
0.0788524 0.136067 -0.0384176 70 50 47
0.0815373 0.161358 -0.0273327 166 84 78
0.0799199 0.143396 -0.0345969 31 18 16
0.0618666 0.186617 -0.0314015 237 124 114
0.0590409 0.161848 -0.0457883 143 77 70
0.0702045 0.165391 -0.028507 169 74 62
0.0658284 0.186316 -0.0439212 198 107 96
0.0703611 0.183669 -0.0469467 150 100 90
0.0691169 0.131282 -0.0355735 60 40 32
0.0711785 0.183643 -0.0481288 255 155 141
0.0609006 0.12827 -0.0366186 0 0 0
0.0704515 0.10943 -0.0454863 56 52 46
0.0612395 0.116632 -0.0596638 25 27 25
0.0848145 0.165695 -0.0311246 162 65 59
0.0666676 0.162588 -0.0325788 140 80 72
0.0581808 0.122778 -0.0578943 11 12 12
0.0773199 0.158233 -0.05031 128 83 76
0.0638097 0.128236 -0.0379702 22 0 0
0.0771891 0.180532 -0.0495306 245 172 159
0.0636683 0.107694 -0.039547 31 27 25
0.0717315 0.137495 -0.0584849 70 37 35
0.0853434 0.167893 -0.0330411 149 81 73
0.0614536 0.14299 -0.0549236 67 39 37
0.0649088 0.196152 -0.0381631 241 150 133
0.062794 0.135991 -0.0383749 76 55 50
0.0638366 0.092584 -0.0543307 0 0 0
0.0697715 0.119153 -0.0363329 21 35 36
0.0900843 0.182435 -0.0388855 181 66 63
0.0838392 0.15939 -0.0311893 106 65 60
0.0887233 0.198119 -0.0346788 255 189 168
0.0740417 0.191286 -0.0246709 255 192 178
0.0784572 0.182371 -0.049277 255 151 129
0.0836961 0.167884 -0.0401429 219 116 108
0.0623577 0.111095 -0.0430593 69 49 47
0.0869609 0.19682 -0.040468 255 135 118
0.0826108 0.156067 -0.0280792 152 95 83
0.0729767 0.161575 -0.0282445 136 84 71
0.0580089 0.142782 -0.0487124 68 42 39
0.0626379 0.18039 -0.0329945 157 90 89
0.0812812 0.156211 -0.045428 160 79 61
0.0829555 0.154756 -0.0298461 130 76 67
0.0829205 0.182122 -0.0417323 255 179 162
0.0802317 0.183941 -0.0469963 240 141 129
0.0850436 0.195908 -0.0407101 250 144 131
0.0843881 0.173655 -0.0328593 129 69 64
0.0837805 0.186033 -0.025178 202 125 109
0.087486 0.197964 -0.0329001 240 159 136
0.072572 0.191304 -0.0241906 255 191 177
0.0855482 0.196234 -0.0399308 255 140 130
0.063296 0.182097 -0.0333393 255 156 137
0.0796324 0.17901 -0.0487963 251 194 183
0.0738874 0.180147 -0.0252542 213 108 93
0.0758698 0.186234 -0.0237496 255 165 150
0.0633379 0.192639 -0.0376465 212 122 110
0.0696415 0.192022 -0.0451587 145 11 22
0.0644303 0.179728 -0.0310069 166 101 92
0.0811092 0.157955 -0.0467594 141 62 46
0.0839616 0.156159 -0.037223 107 54 43
0.0845284 0.170266 -0.0371896 122 80 75
0.0867984 0.195948 -0.0371321 185 90 74
0.0796158 0.180812 -0.0488096 0 0 0
0.0623149 0.142829 -0.0538405 58 41 38
0.0671445 0.186264 -0.0446939 160 96 95
0.0923266 0.182044 -0.0309827 255 146 147
0.0756159 0.187182 -0.0236464 255 125 111
0.0744424 0.190971 -0.0236779 255 86 66
0.0685716 0.0855448 -0.0278161 0 0 0
0.064163 0.193292 -0.0389962 255 169 149
0.0706237 0.164697 -0.0293707 235 114 97
0.0778188 0.160794 -0.0284424 111 70 64
0.0751684 0.167106 -0.0274215 161 99 93
0.0625357 0.162652 -0.0338031 240 122 109
0.0757977 0.153907 -0.0317075 172 101 92
0.0730058 0.162983 -0.026773 118 70 57
0.0765762 0.107089 -0.0651998 0 0 0
0.0810988 0.193299 -0.0253365 149 53 45
0.0813391 0.183704 -0.0461459 231 124 116
0.0644805 0.155586 -0.0349669 150 102 91
0.0691062 0.149371 -0.0349093 98 60 55
0.078321 0.182804 -0.0490503 226 158 149
0.0772029 0.191982 -0.0510502 188 83 73
0.0814414 0.162337 -0.0278815 135 76 67
0.0616502 0.140461 -0.0557724 109 59 58
0.0686326 0.187908 -0.0458737 180 110 99
0.0602926 0.161899 -0.0351147 173 102 87
0.0707176 0.172459 -0.0287566 202 110 97
0.0684858 0.196594 -0.0432588 254 142 127
0.0662845 0.191274 -0.0433533 207 112 103
0.0708695 0.194797 -0.0269284 209 145 130
0.0634764 0.18605 -0.0406849 198 130 123
0.0657485 0.168988 -0.053085 161 107 98
0.0632443 0.113642 -0.0676311 0 0 0
0.0619936 0.101379 -0.0601108 0 0 0
0.0798028 0.180406 -0.0482201 253 144 129
0.0668747 0.166135 -0.054588 190 147 133
0.0796827 0.180332 -0.0491232 255 158 145
