ply
format ascii 1.0
comment Created by Open3D
element vertex 1165
property double x
property double y
property double z
property uchar red
property uchar green
property uchar blue
end_header
0.0374086 0.0205298 -0.0713524 229 138 140
0.0407567 0.0713079 -0.058116 178 88 82
0.0291224 0.069189 -0.0565017 126 66 63
0.0387402 0.0454271 -0.0717798 255 181 178
0.0401494 0.0243546 -0.0480241 84 45 42
0.0396955 0.0199911 -0.0702883 255 205 204
0.0302 0.00571851 -0.0424242 255 255 255
0.0142638 0.0325531 -0.0828619 255 177 168
0.036814 0.0327673 -0.0454376 164 94 90
0.0288735 0.0491331 -0.0772132 168 59 54
0.0384974 0.0466341 -0.0244706 130 61 59
0.0403828 0.0221165 -0.0426921 99 57 54
0.0268362 0.064468 -0.0579578 200 120 113
0.052422 0.0100138 -0.0618843 223 136 129
0.0232655 0.0369122 -0.0274611 0 0 0
0.0280628 0.0627134 -0.055056 127 47 41
0.0378361 0.0376233 -0.0638545 204 102 96
0.0351912 0.0401804 -0.078024 165 0 0
0.0323803 0.0409613 -0.0436902 248 145 152
0.0557272 0.0516962 -0.0626513 64 26 23
0.04025 0.0409642 -0.0405569 68 35 33
0.0544278 0.0467543 -0.0210331 29 0 0
0.0329725 0.0503979 -0.0496201 255 255 255
0.0594133 0.0171394 -0.0341808 137 109 103
0.03334 0.0503546 -0.0510544 141 59 55
0.0403907 0.0349119 -0.0839766 185 122 111
0.0331921 0.0311945 -0.0436865 132 66 61
0.0484144 0.0125126 -0.0493678 166 91 87
0.0340954 0.0395751 -0.0304902 255 255 255
0.0334472 0.0446824 -0.0676795 173 46 39
0.0351446 0.0410535 -0.0828369 243 147 138
0.0283657 0.0377429 -0.0754256 226 0 51
0.0386963 0.0289964 -0.0534783 255 255 255
0.0350174 0.034723 -0.0829865 255 179 171
0.0294906 0.0471512 -0.0688518 231 30 0
0.0236175 0.0463158 -0.0700805 255 255 255
0.0397346 0.0333122 -0.0716641 255 255 255
0.0445218 0.0344351 -0.063595 60 20 18
0.0114857 0.0512602 0.0210669 255 255 255
0.0327361 0.0370532 -0.0811104 250 156 148
0.0288624 0.0617878 -0.0508972 157 51 41
0.0303676 0.047926 -0.0793486 222 63 54
0.0285387 0.0565051 -0.069548 255 164 160
0.0288345 0.0480066 -0.0773919 231 45 40
0.0287724 0.0535111 -0.0715501 170 78 73
0.0297872 0.0485104 -0.0779368 254 100 103
0.0375538 0.0421286 -0.04592 53 0 0
0.0345013 0.0228112 -0.046443 219 143 135
0.0306787 0.0355547 -0.0168482 0 0 0
0.0451729 0.0402434 -0.0685749 198 80 68
0.031649 0.0413858 -0.059606 255 246 243
0.0287269 0.0577382 -0.0716387 133 56 53
0.0245278 0.0503436 -0.0634207 111 12 0
0.0357717 0.0484126 -0.0710773 255 140 133
0.0338703 0.0428559 -0.0803621 230 193 184
0.0471809 0.0508651 -0.0324911 86 42 38
0.0378549 0.0240823 -0.062276 95 16 3
0.0424519 0.0418955 -0.0516548 64 28 26
0.050702 0.0323597 -0.0404714 63 28 26
0.0515124 0.036417 -0.0298918 40 0 0
0.0430354 0.0537594 -0.0197545 187 37 0
0.0276754 0.0458081 -0.0361995 151 103 101
0.0396983 0.0511131 -0.0487295 62 17 0
0.0308392 0.0231139 -0.0311059 171 121 120
0.0343071 0.0435856 -0.0624286 255 177 172
0.0425864 0.057616 -0.0260246 255 255 255
0.0266184 0.0427388 -0.0603223 106 0 0
0.0258696 0.0620443 -0.0627653 199 104 97
0.0401371 0.0171728 -0.0567008 255 183 185
0.028473 0.0392276 -0.0592746 252 200 173
0.0436459 0.0138205 -0.0654627 227 153 146
0.0289275 0.0716234 -0.0572278 203 125 122
0.0444406 0.0186183 -0.0467452 215 175 176
0.026669 0.0397397 -0.0730779 255 255 255
0.0349198 0.0366871 -0.0825043 255 255 255
0.0322191 0.0331332 -0.0849736 255 239 233
0.031392 0.044131 -0.0784217 240 33 60
0.0316415 0.0409164 -0.0757787 255 0 0
0.0297351 0.0448001 -0.0719661 242 34 45
0.0360104 0.0395531 -0.0699264 255 255 255
0.0591086 0.0490484 -0.0591168 45 7 0
0.0588846 0.0543209 -0.0446789 41 24 24
0.0534205 0.0374906 -0.0364231 35 0 0
0.0543414 0.012592 -0.039887 135 111 106
0.0378335 0.0380727 -0.0639174 117 67 60
0.0420088 0.0429141 -0.0605711 253 255 255
0.0332675 0.0462025 -0.0666515 116 22 16
0.0465661 0.0527389 -0.026274 113 67 65
0.037781 0.034624 -0.0711096 255 170 169
0.032328 0.0373243 -0.0761225 202 96 66
0.0544687 0.0312218 -0.0555958 24 0 0
0.0415658 0.047695 -0.0460961 87 47 45
0.0506975 0.0309215 -0.0179404 149 109 105
0.0329851 0.0371451 -0.0617231 255 186 130
0.0602053 0.0368329 -0.0261291 255 255 255
0.0320258 0.0379819 -0.0772018 210 145 135
0.0330009 0.0539417 -0.0748155 200 76 73
0.0313963 0.0520822 -0.0754095 255 155 152
0.0293452 0.0485495 -0.0785212 192 33 26
0.0346708 0.0471175 -0.0349849 74 43 41
0.0592593 0.0503469 -0.0743355 80 39 36
0.0285828 0.0626576 -0.061159 255 207 200
0.0342152 0.0394844 -0.0829891 239 102 90
0.0305255 0.0500654 -0.0123893 255 255 255
0.0323987 0.0379478 -0.0809572 245 158 138
0.0179428 0.0598681 0.00108954 255 255 255
0.0329473 0.0406792 -0.0558568 255 209 210
0.0427865 0.0458014 -0.0301149 84 39 37
0.0328613 0.0426809 -0.0806527 249 149 146
0.0341364 0.0444782 -0.0669391 255 213 204
0.0345404 0.0587617 -0.0242812 255 191 190
0.0348943 0.0436157 -0.034723 78 41 36
0.0356243 0.0134394 -0.0430041 252 172 171
0.034408 0.0426748 -0.0345396 26 0 0
0.0367553 0.0287743 -0.0781403 255 246 235
0.0432159 0.0604747 -0.0789993 255 139 131
0.0311555 0.0434937 -0.0323218 67 28 23
0.0376706 0.0374717 -0.0667829 255 255 255
0.0446123 0.0364544 -0.0798394 255 202 198
0.0534622 0.0556569 -0.0501079 122 50 62
0.0391428 0.0363628 -0.0104831 255 255 255
0.0332472 0.05799 -0.0581787 187 83 75
0.0533027 0.0588407 -0.0555751 78 36 33
0.0550813 0.0503641 -0.0618272 102 55 54
0.0516935 0.0568116 -0.0590159 130 82 86
0.0461004 0.0399317 -0.0453184 79 38 36
0.0243742 0.0538185 -0.037608 0 0 0
0.0478407 0.0534823 -0.0154453 54 24 21
0.0570446 0.0347011 -0.0155041 0 0 0
0.0356113 0.0368736 -0.0652913 78 16 12
0.0324811 0.0195912 -0.0285682 255 255 255
0.0373579 0.0168099 -0.0483058 187 112 111
0.0521779 0.00892015 -0.0515568 214 130 116
0.0353641 0.0761218 -0.0440703 182 128 126
0.0535255 0.0347385 -0.0212899 255 255 255
0.0336084 0.0431698 -0.0645354 255 255 255
0.023148 0.0474894 -0.0770308 255 255 255
0.0186717 0.0478255 0.0176993 255 255 255
0.0229814 0.0508361 -0.020243 255 255 255
0.033977 0.0388262 -0.0502839 132 69 63
0.0589885 0.0494697 -0.0124855 255 255 255
0.0217144 0.0393742 0.00685948 255 255 255
0.0425937 0.0599805 -0.0831022 255 207 199
0.0482454 0.0488212 -0.0485018 50 12 12
0.05656 0.0414193 -0.0481214 79 37 34
0.0552854 0.0452899 -0.0554968 75 35 30
0.0351593 0.0455579 -0.057712 216 113 105
0.0366948 0.031362 -0.055312 163 71 66
0.0441496 0.0327748 -0.00818069 0 0 0
0.0350774 0.0203209 -0.0544825 156 65 59
0.0625827 0.0479588 -0.018119 88 35 33
0.0511228 0.0294409 -0.0121837 255 255 255
0.0156731 0.0680701 -0.0349928 255 249 247
0.0315416 0.0498276 -0.0597793 107 0 0
0.0251395 0.0399833 -0.0364649 255 240 255
0.0208872 0.0131504 -0.0177164 217 184 198
0.0400736 0.0490348 -0.0655593 169 72 62
0.0410499 0.0497694 -0.0185622 88 43 42
0.036867 0.0270057 -0.0603245 177 88 84
0.036362 0.0341692 -0.081214 255 255 255
0.0376261 0.0516087 -0.0331818 42 0 0
0.0265637 0.0570949 -0.0625269 229 184 185
0.0355152 0.0362429 -0.0545604 73 29 31
0.0396056 0.0212327 -0.0638332 158 81 78
0.0312288 0.0636663 -0.00676433 255 255 255
0.00240926 0.0305283 0.0515025 255 255 255
0.0333093 0.0477931 -0.0752948 255 0 0
0.0315493 0.0396578 -0.0829568 169 86 77
0.0503684 0.0552334 -0.0696497 80 38 33
0.045768 0.0416007 -0.0581556 88 45 36
0.0636635 0.0355927 -0.0493143 50 16 10
0.0358551 0.0414273 -0.0731582 193 78 68
0.040249 0.0640944 -0.0467577 153 112 111
0.0495006 0.0544059 -0.0575158 78 38 34
0.0494506 0.0416744 -0.0478265 115 81 79
0.0429249 0.0687985 -0.0229597 59 41 38
0.0294177 0.0394299 -0.0198511 255 255 255
0.0503399 0.0504724 -0.0402124 173 89 91
0.0323657 0.0528834 -0.0255538 255 255 255
0.0303917 0.0486648 -0.0701348 255 255 255
0.0322519 0.0585996 -0.0323324 255 255 255
0.0411479 0.0432781 -0.0732791 201 97 94
0.0345968 0.039355 -0.0819458 247 255 255
0.0465556 0.0554828 -0.013293 0 0 0
0.0511848 0.0146096 -0.0582527 149 83 81
0.0412659 0.0519055 -0.022115 255 255 255
0.0311927 0.055288 -0.04877 255 205 203
0.039462 0.0479273 -0.0352541 255 255 255
0.0475903 0.0346499 -0.0189226 255 255 255
0.0546235 0.0468244 0.005134 255 255 255
0.0310541 0.0314015 -0.0625596 255 211 198
0.0394804 0.0262199 -0.0788605 247 176 173
0.0452992 0.0330568 -0.0858912 229 143 139
0.0421289 0.0174959 -0.0499585 255 255 248
0.0440021 0.0464784 -0.0454449 83 40 37
0.0161872 0.0658931 -0.00221691 255 255 255
0.0567249 0.0484754 -0.0137315 255 211 212
0.0393737 0.0192383 -0.0736378 216 149 156
0.0506196 0.0469988 -0.0172008 255 191 187
0.0333777 0.050643 -0.0127585 255 255 255
0.0352159 0.053064 -0.0035404 171 153 150
0.0320075 0.0374043 -0.0836149 251 255 255
0.0199301 0.0413472 -0.073294 255 255 255
0.0339237 0.0623632 -0.03594 90 39 36
0.0436321 0.0340483 -0.0582212 117 65 62
0.03527 0.0393825 -0.0324822 13 0 0
0.0509314 0.0303 -0.035854 25 2 0
0.0276208 0.0595961 -0.016825 255 255 255
0.0534168 0.0387522 0.00361549 255 201 180
0.0485071 0.0323455 -0.00521438 255 255 255
0.049082 0.0389368 -0.00747721 255 255 255
0.0221966 0.0648255 -0.00122952 255 255 255
0.0397381 0.0289519 -0.0778048 255 255 255
0.0351538 0.0307952 -0.0691801 142 0 0
0.0725803 0.0552098 -0.0772467 78 39 37
0.0328307 0.0275369 -0.0385987 207 133 127
0.0469678 0.0165481 -0.0677351 240 156 151
0.0490985 0.0213766 -0.043596 92 47 45
0.0658344 0.0440585 -0.0304488 0 30 28
0.0301792 0.059379 -0.0420991 110 74 72
0.0254715 0.0334231 0.000199757 255 255 255
0.0336608 0.0455338 -0.0527921 255 255 255
0.033657 0.0378795 -0.0840169 255 255 255
0.0368161 0.0535413 -0.020274 123 83 83
0.0226486 0.0391566 -0.0683209 255 255 255
0.01542 0.03519 0.0390073 179 182 224
0.0552781 0.0165085 -0.0436616 40 0 0
0.0399119 0.0475566 -0.0580746 171 78 79
0.0481026 0.0572199 -0.0652614 80 38 35
0.0402556 0.0421764 -0.048071 66 29 26
0.0272295 0.0430598 0.00346512 224 200 165
0.0400122 0.0158676 -0.0425953 0 0 0
0.0342953 0.0243377 -0.0725324 188 103 108
0.0462046 0.0185796 -0.0190946 80 77 76
0.0589244 0.0427712 0.0138661 255 255 255
0.0425963 0.0534662 -0.0198687 255 255 255
0.0135991 0.0477574 0.00658184 255 255 255
0.0421713 0.0342793 -0.00479769 255 255 255
0.00431873 0.0433389 0.0257897 255 255 255
0.0604152 0.0358835 -0.0380489 117 84 72
0.0318528 0.065293 -0.0318168 255 255 255
0.038561 0.0341961 -0.0594085 160 76 70
0.0351407 0.0341388 -0.0575552 255 163 161
0.0584796 0.0206174 -0.0312504 44 25 24
0.0362725 0.0441006 -0.0576815 211 103 98
0.038905 0.0721872 -0.0412157 38 20 19
0.0436959 0.0112658 -0.0460726 218 177 173
0.0356126 0.058103 -0.0222726 0 0 0
0.0377598 0.0542239 -0.0239745 255 255 255
0.032857 0.0483527 -0.06753 216 108 105
0.0573532 0.0568064 -0.0364201 61 25 20
0.03677 0.0423462 -0.0456252 80 23 16
0.0413057 0.0634326 -0.0263472 80 50 45
0.0547714 0.0441921 0.00799028 255 255 255
0.0466142 0.0641806 -0.0595998 84 34 30
0.033713 0.0615397 -0.0431447 108 53 49
0.0551898 0.0144203 -0.0511098 255 167 156
0.0454189 0.0421852 -0.0192314 255 255 255
0.0375484 0.0365027 -0.0691245 84 0 0
0.0325077 0.0417368 -0.0804046 255 255 255
0.0430296 0.0506486 -0.0566493 71 30 27
0.0341984 0.0460052 -0.0644453 255 255 255
0.0275196 0.0580012 -0.018965 255 255 255
0.0684302 0.0454479 -0.0356739 67 29 26
0.0388574 0.0394748 -0.0660743 140 52 46
0.0366032 0.0477409 -0.0606024 255 238 207
0.0387482 0.0560553 -0.076675 72 25 21
0.0446451 0.0148544 -0.0590357 165 84 81
0.0539062 0.0386556 -0.0296726 77 36 32
0.063135 0.0529332 -0.0222479 107 68 64
0.0389427 0.0521873 -0.0463867 51 13 0
0.0328503 0.0379976 -0.0734546 233 14 16
0.0370119 0.0191232 -0.0631434 96 4 0
0.037552 0.059901 -0.02056 33 20 17
0.0364805 0.0384229 -0.0737377 184 40 26
0.0205599 0.0384788 -0.0112407 43 0 0
0.0355169 0.0345748 -0.0816635 206 67 67
0.032405 0.0498056 -0.0226951 82 43 36
0.0562661 0.056477 -0.0488739 61 29 27
0.0184922 0.0443106 -0.0131186 0 0 0
0.0593042 0.036487 0.00177269 255 255 255
0.0322325 0.0434623 -0.0807725 233 128 123
0.0440366 0.0173419 -0.045023 0 0 0
0.0303883 0.0557324 -0.0516353 103 0 0
0.035527 0.0205557 -0.0569336 84 0 0
0.0511367 0.0458875 -0.0154273 0 0 0
0.0350952 0.0547551 -0.0425708 104 58 55
0.0421742 0.0558912 -0.014447 255 255 255
0.0168064 0.0732363 -0.04802 0 0 0
0.0254337 0.0391886 -0.0153954 0 0 0
0.0391133 0.0337837 -0.0814442 224 143 138
0.0233764 0.0154237 -0.0201912 255 255 255
0.0358363 0.0331848 -0.0808274 255 255 255
0.0358128 0.0576836 -0.00748185 217 177 183
0.0269574 0.071222 -0.00370281 255 255 255
0.0372263 0.0642906 -0.0173124 16 0 0
0.0407724 0.04841 -0.0696578 172 75 68
0.0349909 0.0430839 -0.0673934 255 255 255
0.0310168 0.0471333 -0.0791842 250 161 151
0.0375079 0.0411266 -0.0660048 138 49 42
0.0389987 0.0314388 -0.0578545 231 138 134
0.0501602 0.0471182 -0.0478868 87 42 39
0.0535109 0.0343625 -0.0498296 67 28 28
0.0550667 0.0554223 -0.0400022 39 13 12
0.0375503 0.0266492 -0.0745551 146 52 50
0.048369 0.0520847 -0.0353197 103 47 49
0.0298766 0.0417623 -0.0644374 207 0 0
0.034911 0.0559029 -0.0253981 255 255 255
0.053893 0.0476463 -0.000514196 127 255 211
0.0252398 0.057849 0.00112479 255 255 255
0.0322229 0.0636876 -0.03387 255 246 233
0.0245137 0.065927 0.01841 255 255 255
0.0504947 0.0485532 -0.0406541 24 0 0
0.0505902 0.0618863 -0.0460278 60 29 27
0.0269393 0.047121 -0.0194264 95 65 64
0.0346749 0.0352466 -0.0581876 129 45 35
0.0289688 0.0406137 -0.0726325 255 138 135
0.0369651 0.0708503 -0.0218026 255 255 255
0.0446007 0.062076 -0.0262399 0 0 0
0.0398847 0.0391046 -0.048652 122 72 68
0.0411411 0.0532333 -0.0196604 110 86 95
0.0457536 0.0320847 -0.0408421 216 146 123
0.0355501 0.0597142 -0.0438143 52 3 3
0.0662978 0.0359254 -0.0279528 71 35 34
0.0307245 0.060918 -0.0237244 0 0 0
0.040829 0.0542692 -0.023344 119 102 95
0.0303845 0.0408632 -0.0747336 231 0 0
0.0448114 0.0337056 -0.012606 0 0 0
0.0296897 0.0418165 -0.0747681 255 0 0
0.0310307 0.0579732 -0.0529941 107 5 0
0.0311783 0.0515854 -0.0409816 107 54 51
0.0348465 0.0644624 -0.0240947 255 255 255
0.0263761 0.0624473 -0.0223229 255 255 255
0.0412614 0.0388104 -0.0232335 105 69 64
0.0326382 0.0354601 -0.0668304 82 60 43
0.0201634 0.067551 0.020428 255 255 255
0.0330315 0.036174 -0.0678549 254 175 170
0.0514244 0.0406732 -0.0280139 120 74 68
0.0335501 0.0193375 -0.0499209 124 0 0
0.0260767 0.0505468 -0.0675826 218 92 90
0.0233932 0.0227497 -0.0436496 255 255 255
0.0362296 0.0466255 -0.0580226 213 109 104
0.0477277 0.0254675 -0.0622283 247 255 255
0.0334397 0.0442978 -0.0791958 253 142 138
0.0464317 0.0637723 -0.0420131 91 55 52
0.0210527 0.0719886 -0.051403 158 72 65
0.0669874 0.0479232 -0.0804566 84 38 35
0.031413 0.0248653 -0.0222433 255 255 255
0.0544931 0.0376177 -0.0601899 37 0 0
0.0495676 0.0557273 -0.0451618 74 36 34
0.0514291 0.0316009 -0.0498561 231 188 186
0.0356827 0.0547599 -0.0568071 140 52 45
0.0508524 0.018288 -0.069773 121 63 57
0.0350514 0.0497688 -0.0214046 42 0 0
0.0452605 0.0427979 -0.0469989 74 36 33
0.0387249 0.030271 -0.0707007 101 28 21
0.0514181 0.0505486 -0.0454268 64 25 21
0.00518245 0.0433675 0.0302773 255 255 255
0.0367781 0.0744962 -0.0379117 134 120 124
0.0253369 0.0529353 -0.0675721 237 0 0
0.0376606 0.047467 -0.063812 150 21 0
0.0382196 0.0501805 -0.0355506 77 42 40
0.047185 0.0490793 -0.078269 181 0 0
0.0261954 0.0700196 -0.0281375 0 0 0
0.0330526 0.0527526 -0.0484775 0 0 0
0.0288305 0.0678233 -0.0140817 255 255 255
0.0396338 0.0405858 -0.0670008 255 255 255
0.0447197 0.0344268 -0.0804919 228 162 157
0.0416562 0.0309562 -0.0593654 114 5 0
0.0359962 0.0223667 -0.0595866 0 0 0
0.0394823 0.0340475 -0.0584301 181 167 174
0.0352271 0.0460967 -0.087837 164 106 103
-0.00593127 0.0334255 0.0660873 255 255 255
0.0404588 0.0452069 -0.0694948 128 0 0
0.0383544 0.0330303 -0.0803109 194 149 145
0.0143967 0.0498272 -0.0651315 255 255 255
0.0294307 0.00162171 -0.0258394 255 255 255
0.0304232 0.00593192 -0.0390368 255 255 255
4.16076e-05 0.0371077 -0.0496757 255 212 209
0.0633057 0.0525848 -0.0449889 141 84 79
0.0427304 0.0609883 -0.0796724 255 140 132
0.0427759 0.0589015 -0.0831657 255 208 200
0.062002 0.0516908 -0.063221 70 27 24
0.0168436 0.0345286 0.0255694 102 106 109
0.0235961 0.0258202 0.011626 255 255 255
0.0486362 0.028853 -0.0846309 255 118 111
0.0354364 0.0305355 -0.0836501 255 255 255
0.0389054 0.0389716 -0.072659 250 144 135
0.0206676 0.0663048 0.0200267 255 255 255
0.0454451 0.035123 -0.0513758 54 37 33
0.0375003 0.0313969 -0.0829424 215 135 135
0.022544 0.010155 -0.0315324 255 255 255
0.0374394 0.0105702 -0.0256219 107 118 124
0.0291356 0.078732 -0.0388052 138 135 139
0.0408902 0.0179415 -0.0202951 179 160 163
0.0480332 0.00286475 -0.0319947 200 154 152
0.0479603 0.0122191 -0.0269418 82 75 73
0.0297776 0.0334339 -0.0949061 255 106 95
0.0377791 0.0365806 -0.0648745 144 54 49
0.0461992 0.0312051 -0.0680971 64 49 38
0.0324507 0.0474092 -0.0734583 254 65 51
0.0338318 0.0403138 -0.0717115 255 214 218
0.00291747 0.0498773 -0.0377874 255 174 111
0.0442544 0.0625156 -0.0742461 255 139 127
0.0438156 0.0124031 -0.025114 242 208 208
0.0784907 0.0367844 -0.0830427 85 47 43
0.0201356 0.0164533 -0.062735 193 107 101
0.0293282 0.0118614 -0.0262462 217 165 172
0.036267 0.0394597 -0.0782304 255 255 255
0.015205 0.059111 -0.0424403 202 105 95
0.0511318 0.0190166 -0.0899009 92 15 5
0.0472104 0.0259617 -0.0768134 255 130 124
0.0537326 0.0294134 -0.0719192 109 55 51
0.0401952 0.0302996 -0.0714532 178 92 88
0.0525162 0.04677 -0.0833907 255 199 189
0.0427627 0.0127356 -0.00710521 65 58 54
0.03072 0.040991 -0.0655564 170 255 255
0.0072961 0.027351 -0.0605909 255 255 255
0.040787 0.0165947 -0.0178387 168 138 136
0.0311553 0.0545143 -0.0724546 198 111 109
0.0322497 0.0550402 -0.0514695 161 53 40
0.0207141 0.0614195 -0.0575044 179 91 86
0.0257586 0.0496911 -0.0733695 179 92 86
0.0312263 0.0630526 -0.0249754 46 0 0
0.0341586 0.0532818 -0.053735 230 129 123
0.0253566 0.0587475 -0.0351888 212 196 185
0.0395823 0.0729979 -0.0345812 86 52 54
0.0366029 0.0518307 -0.0142525 0 0 0
0.0335854 0.0388404 -0.0765636 255 255 255
0.0258904 0.050221 -0.0428744 135 54 48
0.0339936 0.0371556 -0.0479327 76 0 0
0.0307853 0.0567175 -0.0279346 0 0 0
0.0241149 0.0366137 -0.036086 143 75 70
0.0393389 0.034909 -0.0579406 119 44 31
0.0435748 0.056167 -0.027591 59 25 25
0.0408448 0.0178532 -0.0681412 155 75 68
0.0352016 0.0531758 -0.027132 0 0 0
0.0405006 0.0430023 -0.0203177 77 26 23
0.0469765 0.0259493 -0.0651498 167 93 89
0.0408506 0.0202746 -0.0578789 249 161 159
0.0427939 0.0444122 -0.0111302 0 0 0
0.0315621 0.0210957 0.0192454 141 131 133
0.0245873 0.0157561 -0.0435441 255 255 255
0.0341389 0.0301688 -0.0464404 138 78 74
0.0364688 0.0270181 -0.0408639 102 37 31
0.0340319 0.0268893 -0.0751689 224 152 151
0.0362636 0.0265009 -0.0554011 183 84 76
0.0360086 0.0214677 -0.0723557 172 86 82
0.0397436 0.0167295 -0.0685511 147 75 72
0.0417325 0.0458915 -0.0278656 93 48 45
0.0362042 0.0426062 -0.02936 111 67 64
0.03606 0.0407294 -0.00871389 220 182 188
0.036115 0.0369311 -0.0546213 191 101 92
0.0520158 0.0303357 -0.0473762 101 61 59
0.0382282 0.0208863 -0.0610545 255 154 154
0.0551125 0.0168703 -0.0521571 43 24 17
0.048147 0.0514464 -0.010295 68 40 34
0.0507202 0.0354139 -0.0222882 27 0 0
0.0551243 0.0133877 -0.0568864 173 99 95
0.0591006 0.0368992 -0.0282164 53 0 0
0.057581 0.0220474 -0.0406023 191 127 131
0.0530835 0.029626 -0.014173 0 0 0
0.0439766 0.0160159 -0.066784 102 44 42
0.0401972 0.025148 -0.0540793 158 75 69
0.0645933 0.0364649 -0.0436349 78 38 34
0.0498039 0.00648887 -0.039096 218 140 134
0.042278 0.0183351 -0.0320347 243 170 169
0.0655109 0.0433312 -0.0168041 255 255 255
0.0484781 0.0286672 -0.0206661 106 66 65
0.0446089 0.0377285 -0.00439906 27 0 0
0.0444514 0.0581996 -0.0273591 68 34 32
0.0342151 0.0710641 -0.0493584 201 129 145
0.0282421 0.0642253 -0.060703 193 115 108
0.0274739 0.0570625 -0.0597395 224 139 134
0.0357298 0.0482179 -0.0528517 53 0 0
0.0264061 0.0699102 -0.0535897 127 49 42
0.0322658 0.0493107 -0.0486618 255 255 255
0.0291722 0.0474254 -0.0505282 82 0 0
0.0360693 0.0502587 -0.0580156 197 44 28
0.0372642 0.0476784 -0.0642219 196 102 97
0.0441354 0.0588462 -0.0320717 152 97 95
0.0310708 0.0340178 -0.0190733 101 76 71
0.032395 0.0315293 -0.0708178 255 130 123
0.032096 0.0555607 -0.0286406 255 255 255
0.0287892 0.050971 -0.00258557 255 255 255
0.0349224 0.0421647 -0.0538842 76 0 0
0.0280339 0.0545072 -0.0336588 0 0 0
0.0395648 0.0434727 -0.0382875 255 255 255
0.0300466 0.0293299 -0.0521047 255 255 255
0.0385435 0.0581454 -0.0262019 255 255 255
0.034321 0.0344171 -0.06082 189 106 105
0.0305648 0.0295987 -0.0783393 178 103 103
0.0371123 0.0279417 -0.0396675 164 91 89
0.029371 0.0250844 -0.0750403 170 100 98
0.0348538 0.0339441 -0.0562374 224 119 115
0.0379676 0.0379945 -0.0402035 166 128 124
0.0303495 0.0419068 -0.00142634 112 0 0
0.0573549 0.0186716 -0.0620025 167 88 83
0.0341392 0.0271066 -0.0379676 95 34 34
0.0353539 0.0215877 -0.0563255 190 103 103
0.0393987 0.0300101 -0.0506549 133 87 89
0.0394925 0.019617 -0.0711976 177 89 89
0.0418909 0.0201732 -0.0571837 168 79 74
0.0333099 0.0230342 -0.0302357 125 0 0
0.0387024 0.0230057 -0.0506721 157 74 73
0.0496954 0.00980812 -0.0595889 255 182 174
0.0525921 0.00989433 -0.0573878 213 134 129
0.0584264 0.0169154 -0.0369617 125 100 99
0.0301921 0.0398509 -0.00736703 136 112 112
0.0328232 0.0302771 -0.0598174 190 98 94
0.0382034 0.0104296 -0.0445646 191 133 128
0.0396246 0.0369006 -0.0300502 92 48 45
0.0343219 0.0462663 -0.0775518 255 223 215
0.0334091 0.0467283 -0.0646731 255 176 172
0.0210647 0.0494665 -0.0415101 81 0 0
0.038699 0.0232749 -0.0554961 173 83 77
0.0461592 0.0396961 -0.0497705 68 29 25
0.0553563 0.0351856 -0.0172828 255 255 255
0.0260197 0.0525566 -0.0526873 249 107 90
0.0289624 0.0453389 -0.0744461 246 18 4
0.038006 0.0262821 -0.0626807 205 106 102
0.0443692 0.0142423 -0.0578924 79 2 0
0.0358552 0.0192727 -0.0511494 206 124 118
0.0278768 0.0511209 -0.0740903 255 149 145
0.0271345 0.0694472 -0.0559065 84 32 28
0.0336373 0.0514971 -0.0466204 72 28 26
0.0378396 0.0565522 -0.0177014 96 64 54
0.0413438 0.0331589 -0.0552987 118 63 60
0.0532155 0.0390519 -0.0191005 67 23 21
0.0269174 0.0649143 -0.0465192 200 106 104
0.0380348 0.0443517 0.00208028 212 206 202
0.0220541 0.0601453 -0.0591985 181 109 109
0.0337261 0.0390005 -0.0830833 255 149 132
0.0358231 0.04311 -0.0504771 83 0 6
0.0333201 0.0536586 -0.0611872 193 104 99
0.0247119 0.0505457 -0.0707608 255 255 255
0.0368168 0.0408614 -0.0794131 198 140 135
0.0396072 0.0211864 -0.0725278 236 114 109
0.0432849 0.0517403 -0.0144646 82 45 49
0.0343789 0.0349589 -0.0586286 129 50 42
0.0546115 0.0145684 -0.0487872 72 30 26
0.0366597 0.0408395 -0.0793991 222 163 149
0.0388316 0.0209843 -0.0593046 255 193 183
0.0354627 0.0291902 -0.0639013 248 170 167
0.0567291 0.0116176 -0.0588603 249 176 167
0.0318104 0.0647462 -0.0478691 161 68 65
0.0500374 0.0469134 -0.082516 255 86 82
0.0334121 0.0617074 -0.0158146 255 255 255
0.0507699 0.026578 -0.0339807 193 125 120
0.0122584 0.0488495 -0.0389834 255 152 107
0.0377795 0.0216075 -0.0468549 236 160 162
0.0196835 0.0439712 -0.0179246 212 218 220
0.053718 0.0143726 -0.0557107 251 162 155
0.0438251 0.0350816 -0.0492564 28 0 0
0.0383328 0.0583623 -0.0158676 52 25 21
0.033746 0.0315651 -0.0616882 254 138 137
0.0366851 0.0674397 -0.0531093 214 125 130
0.0433969 0.0145446 -0.0653454 173 62 65
0.0316013 0.0389742 -0.0324629 159 113 114
0.0313342 0.00728048 -0.0365291 255 255 255
0.0248856 0.0544738 -0.0677912 235 134 130
0.0324969 0.0371063 -0.0701258 186 0 0
0.0564464 0.0142286 -0.0438073 186 123 114
0.0450316 0.0206643 -0.0421042 145 109 104
0.0280756 0.0364025 -0.0133959 36 0 0
0.0203481 0.0540725 -0.0682752 201 168 182
0.015424 0.0577953 -0.0554333 135 29 20
0.0310735 0.059292 -0.0669246 238 142 137
0.039739 0.0369295 -0.0594009 192 105 101
0.0362061 0.0384813 -0.0722566 211 78 72
0.0362458 0.0323104 -0.0831195 248 119 114
0.0557375 0.0590288 -0.0697854 75 31 27
0.0586211 0.0571987 -0.044828 95 56 54
0.0548716 0.0435136 -0.0214507 30 0 0
0.031896 0.0630367 -0.0497711 240 155 149
0.0524783 0.00971019 -0.0601451 71 31 29
0.0358286 0.071124 -0.0472414 142 115 112
0.0564232 0.0167743 -0.0492838 160 86 83
0.0315596 0.0361605 -0.0841031 255 241 234
0.0386211 0.0408884 -0.0259337 255 255 255
0.0335119 0.043234 -0.0648541 255 158 151
0.0303408 0.034773 -0.0745783 121 25 14
0.033632 0.0260007 -0.0507429 245 195 205
0.0592811 0.0194958 -0.0274048 75 65 69
0.0396046 0.0229343 -0.0719106 240 142 144
0.0425139 0.0658711 -0.0369236 255 255 255
0.0294238 0.0419647 -0.0715187 255 144 138
0.0340072 0.0466462 -0.0648558 198 87 82
0.0282475 0.0543725 -0.0763997 255 255 255
0.0323815 0.0405053 -0.0805838 255 255 255
0.0240746 0.0413078 0.0230558 255 255 255
0.0267226 0.068756 -0.0554018 192 81 76
0.0330041 0.0453941 -0.080775 192 86 87
0.0453443 0.0443543 -0.0529547 178 95 87
0.039269 0.0137992 -0.0639829 190 111 102
0.0300808 0.0358011 -0.0574062 255 255 255
0.047431 0.0156732 -0.0408211 248 187 183
0.030291 0.0588888 -0.0690527 122 52 49
0.0264115 0.0614285 -0.0615174 91 11 0
0.0309056 0.0485426 -0.0793418 255 140 135
0.042849 0.0415756 -0.0385058 87 42 39
0.0325343 0.0425205 -0.0297462 131 97 98
0.0347602 0.0306879 -0.0665573 94 33 36
0.044285 0.0251793 -0.0386794 68 34 32
0.0554743 0.0582121 -0.0414233 101 66 63
0.0336121 0.0452372 -0.0809824 163 12 4
0.0367207 0.0558572 -0.046849 189 126 118
0.0404957 0.0519372 -0.0152535 15 0 0
0.045995 0.0351319 -0.0343888 147 92 96
0.0411928 0.0377124 -0.0188749 49 7 0
0.0371658 0.0514269 -0.0472703 122 74 74
0.0307744 0.0242142 -0.0171779 151 114 109
0.0418961 0.0558643 -0.0244917 255 255 255
0.0327069 0.0243023 -0.0563819 255 241 247
0.0339227 0.0551776 -0.0737554 220 111 104
0.0422322 0.0258066 -0.0469862 202 152 142
0.0397051 0.0553987 -0.0210578 255 255 255
0.043578 0.0234261 -0.050334 238 155 149
0.0382687 0.0297635 -0.0769725 255 255 255
0.03453 0.0298938 -0.0828372 254 233 227
0.0288196 0.0432031 -0.0756163 255 202 179
0.0312425 0.0429362 -0.0673089 97 6 0
0.0329904 0.0472762 -0.0802356 249 104 105
0.0343034 0.0368603 -0.0831626 217 111 106
0.0331745 0.0560262 -0.0721343 112 36 29
0.0369824 0.0452355 -0.0545882 90 42 40
0.0417712 0.0458461 -0.0529117 87 7 0
0.0522453 0.0420869 -0.0559779 28 0 0
0.0440341 0.0401272 -0.0180184 0 0 0
0.0535075 0.0438236 -0.0242667 80 34 31
0.0342467 0.0380598 -0.0707127 218 0 0
0.0371183 0.0376351 -0.0553399 49 0 0
0.0446075 0.018422 -0.0238459 62 56 56
0.0309707 0.0490136 -0.0777033 250 255 255
0.0360655 0.0508415 -0.0304545 234 176 185
0.0507188 0.0518753 -0.0499309 62 26 26
0.0340215 0.031512 -0.0378326 72 0 0
0.0363846 0.0374394 -0.0749507 239 79 71
0.0364495 0.0552064 -0.0651392 203 114 108
0.0331393 0.0627577 -0.0494348 78 0 0
0.0595236 0.0490714 -0.0627858 74 34 31
0.0465828 0.0192041 -0.0502121 144 66 62
0.0311454 0.0242169 -0.0574377 92 0 0
0.0494352 0.0555755 -0.00536095 45 31 29
0.0365136 0.0580674 -0.0504364 255 218 208
0.0329955 0.0392516 -0.0807763 250 164 154
0.0271134 0.0636393 -0.0213329 255 255 255
0.0226426 0.046352 0.0100847 255 255 255
0.0338926 0.0440984 -0.051825 255 255 255
0.0374931 0.0511536 -0.0448293 87 39 34
0.0394469 0.0474985 -0.0617673 248 150 138
0.0430044 0.0686771 -0.0564181 60 22 20
0.0302005 0.0515603 -0.0775859 246 161 153
0.0294396 0.0434546 -0.0713867 255 255 255
0.0613654 0.0522611 -0.0597113 78 34 31
0.0421298 0.0472449 -0.0285083 109 58 64
0.0382173 0.0386804 -0.0209842 29 0 0
0.0432827 0.0603998 -0.0789465 255 139 131
0.0322004 0.0612083 -0.0367944 68 22 20
0.026171 0.0475364 -0.0784234 255 255 255
0.0364531 0.0437545 -0.0718175 200 95 94
0.0352492 0.0429141 -0.0536163 157 104 98
0.0388168 0.0410441 -0.0737895 215 201 201
0.0411076 0.0521975 -0.0407989 83 45 42
0.0454263 0.0565422 -0.0604716 89 45 42
0.0573868 0.0569458 -0.0619779 34 0 0
0.0505111 0.0475135 -0.0453388 81 38 35
0.0454456 0.0355614 -0.0529715 40 0 0
0.0226051 0.0694829 -0.0414778 61 0 0
0.0638339 0.0359672 -0.0365515 37 0 0
0.0555752 0.0568172 -0.0209161 0 0 0
0.0391952 0.0400308 -0.0602069 129 2 0
0.0394744 0.0229497 -0.0709965 207 98 91
0.0388507 0.0136195 -0.0269501 255 255 255
0.0356957 0.0221782 -0.0590099 255 255 255
0.0487138 0.00552363 -0.0584423 190 163 164
0.0214506 0.0620046 -0.0414811 255 200 199
0.0287757 0.0367315 -0.0730483 255 255 255
0.018674 0.0509493 0.00939837 255 255 255
0.0425649 0.0642109 -0.0563472 122 91 92
0.0509799 0.0401062 -0.0516458 77 37 34
0.0416982 0.0350134 -0.0463147 58 21 20
0.0184902 0.0490892 -0.012818 255 176 190
0.0426191 0.0598265 -0.0830723 255 207 199
0.037944 0.0617349 -0.0691099 77 32 26
0.0385071 0.0523163 -0.049199 55 12 9
0.0633001 0.0351445 -0.0608746 49 20 16
0.0607127 0.0378229 -0.044165 86 49 39
0.0321926 0.0405737 -0.0580291 255 138 134
0.0342263 0.046211 -0.0520828 35 0 0
0.0412505 0.0153101 -0.0482398 191 143 136
0.0609951 0.0290912 -0.0185719 255 255 255
0.0298815 0.0828373 -0.0422835 175 103 102
0.0341012 0.0535706 -0.0513598 43 0 0
0.0437198 0.0371711 -0.0683974 255 157 154
0.0405278 0.041851 -0.0257808 75 29 25
0.0355384 0.0338526 -0.0810231 252 255 255
0.0350749 0.0181992 -0.0550507 255 216 211
0.0337172 0.051048 -0.0532829 116 0 0
0.0404154 0.0388611 -0.070723 249 114 108
0.033021 0.051669 -0.0424146 130 76 73
0.0325966 0.0391419 -0.0565358 92 25 0
0.0316975 0.0443467 -0.0641383 201 55 58
0.0249686 0.0562018 -0.0152015 255 255 255
0.0336432 0.0627126 -0.00377618 255 255 255
0.035977 0.0205709 -0.0563134 255 255 255
0.000551682 0.0294046 0.0575228 255 255 255
0.0397353 0.04126 -0.0739051 126 0 0
0.0510909 0.0606515 -0.0629337 68 29 27
0.0489963 0.0512255 -0.0464722 67 30 27
0.0414209 0.0382591 -0.022008 54 0 0
0.0631703 0.0343224 -0.0435939 52 16 12
0.0431118 0.0381629 -0.0708616 197 81 76
0.039375 0.0557054 -0.0404494 142 97 101
0.035154 0.039091 -0.0129843 255 255 255
0.0339554 0.02236 -0.0447653 222 148 126
0.0584831 0.034799 -0.0317497 82 42 41
0.0406918 0.0576287 -0.0237484 255 255 255
0.0315979 0.0477769 -0.0683255 255 175 171
0.0486055 0.0377031 -0.0704483 188 150 149
0.0338215 0.0459007 -0.0119251 0 0 0
0.0406103 0.0505693 -0.0491303 121 77 69
0.0418661 0.0575949 -0.0173608 255 255 255
0.0373509 0.0578061 -0.0490771 217 139 132
0.0412454 0.0522675 -0.0354179 255 255 255
0.0335687 0.0376026 -0.080835 194 39 14
0.0532711 0.03191 -0.0217315 255 255 255
0.0302132 0.0727116 -0.0557842 35 0 0
0.0303138 0.0517913 -0.0783961 255 193 202
0.0177308 0.0315105 0.00451394 255 255 255
0.0442193 0.0426034 -0.0510189 56 20 20
0.0646771 0.0422255 -0.0249228 255 216 185
0.0399923 0.0198543 -0.0724988 219 151 159
0.0437876 0.0425094 -0.00821672 255 182 153
0.0370162 0.0513101 -0.019731 255 255 255
0.0292132 0.0530811 -0.0568984 255 163 160
0.023135 0.0543136 -0.0457803 141 47 41
0.0348316 0.0333037 -0.0820313 250 222 214
0.0248068 0.0419105 -0.0692769 145 255 255
0.0269327 0.0378632 -0.0667994 255 255 255
-0.0409437 0.0261012 0.119912 255 255 255
0.0295772 0.0511251 -0.0600099 148 53 48
0.0665549 0.0386741 -0.028167 69 39 37
0.0363706 0.0256286 -0.0610433 168 0 11
0.0661247 0.0362547 -0.0682741 79 38 35
0.0339076 0.0258554 -0.0412678 201 136 130
0.0392551 0.0265504 -0.0564032 136 30 16
0.0533341 0.0430272 -0.0156218 0 0 0
0.0324706 0.048549 -0.046363 96 56 54
0.0306558 0.0341176 -0.00983207 255 255 255
0.0403979 0.00931985 -0.0558267 213 141 138
0.0397537 0.0718273 -0.0410032 130 96 102
0.0410956 0.0493 -0.0480478 202 110 105
0.0527651 0.021295 -0.0502633 255 157 160
0.0314836 0.0512006 -0.0759012 211 89 82
0.0328529 0.0372285 -0.0819407 248 184 187
0.0363076 0.0501322 -0.0217356 0 0 0
0.024494 0.0636221 -0.0201902 255 255 255
0.011875 0.0458406 0.0207964 255 255 255
0.0493568 0.0300895 -0.082828 255 124 114
0.0311127 0.0565449 -0.0701144 157 69 64
0.0372491 0.0488886 -0.065079 110 49 46
0.0514585 0.059989 -0.0594623 81 40 38
0.0351383 0.0484271 -0.0439177 60 0 0
0.0471189 0.0495737 -0.0466618 91 43 42
0.0351887 0.0282248 -0.0589746 140 53 45
0.0230405 0.0435039 -0.0076595 33 0 0
0.036691 0.0295335 -0.0570259 188 99 92
0.0441934 0.00758886 -0.0639374 255 167 155
0.0309126 0.0604906 -0.0284922 0 0 0
0.0385844 0.0175107 -0.0315828 24 14 12
0.0566107 0.0366691 0.0180976 255 240 238
0.0171983 0.0256434 0.0105 255 255 255
0.0266756 0.0476633 -0.075679 212 0 0
0.0308064 0.0401356 -0.0735153 179 0 44
0.0514018 0.0465407 -0.0107608 255 255 255
0.0113744 0.0404835 0.0405767 255 225 209
0.0320341 0.0684469 -0.0340353 255 255 255
0.0344189 0.0154859 -0.0419753 255 233 233
0.0401156 0.0285406 -0.0623665 195 115 114
0.0533779 0.05474 -0.0448216 65 31 30
0.0603891 0.0396285 -0.0535394 73 36 34
0.0498552 0.0204813 -0.0272384 116 98 107
0.0320886 0.0428502 -0.0609705 212 111 106
0.0288407 0.0761124 -0.0504597 73 41 39
0.0470026 0.00736059 -0.0415984 206 172 164
0.030937 0.0478772 -0.0759755 255 184 181
0.0327813 0.0363071 -0.0697788 255 255 255
0.0147663 0.0431208 0.0102785 255 220 226
0.0419873 0.0192611 -0.055125 101 0 0
0.028926 0.0504032 -0.0578658 255 213 214
0.0524562 0.0600487 -0.0474639 87 49 46
0.0327334 0.0578203 -0.00950037 255 255 255
0.0524075 0.0381741 0.00658544 255 255 255
0.0549398 0.0574449 -0.0529565 93 51 48
0.0617379 0.043303 -0.0198169 255 255 255
0.041266 0.0423983 -0.0591259 81 43 40
0.0302988 0.0616152 -0.0430177 90 45 43
0.0338312 0.0544597 -0.0482282 113 63 60
0.0502536 0.0105885 -0.0624195 255 162 155
0.0450246 0.0411087 -0.0163749 255 227 213
0.033096 0.0374842 -0.0745514 255 255 255
0.0314884 0.0518541 -0.0757423 220 111 106
0.041449 0.0471698 -0.0608379 79 0 0
0.0407737 0.0204225 -0.0622132 255 181 175
0.0507591 0.02933 -0.0731375 68 0 0
0.0460026 0.0329965 -0.0108919 52 31 29
0.0310869 0.0420056 -0.0570008 112 5 4
0.0367646 0.0201853 -0.0506247 73 0 0
0.0286706 0.0573287 -0.0312123 191 148 144
0.0398854 0.0566727 -0.0245204 100 56 53
0.0324566 0.0427737 -0.0467899 139 93 91
0.0433172 0.0689826 -0.0293157 23 0 0
0.0363126 0.03779 -0.0711619 231 0 0
0.0155965 0.048966 0.00468055 0 0 0
0.0605949 0.0444571 0.00430121 255 255 255
0.030156 0.0528368 -0.0754391 244 114 109
0.0571802 0.0151255 -0.0478236 90 41 38
0.0469779 0.0497838 -0.0645753 250 185 180
0.0639181 0.0527297 -0.0185957 0 0 0
0.0447765 0.0680499 -0.0443683 82 43 39
0.0345128 0.059692 -0.0335679 76 31 27
0.0384338 0.0589063 -0.0149282 255 255 255
0.0259782 0.0629388 -0.0256887 255 0 0
0.0308691 0.0449732 -0.08698 186 121 121
0.0511243 0.0378834 -0.0903714 255 154 144
0.0508444 0.00530472 -0.045087 189 123 122
0.0276906 0.0174243 -0.0180671 255 255 255
0.0355334 0.0239133 -0.0445966 87 51 49
0.0320342 0.0442785 -0.0799313 255 255 255
0.0186252 0.0660917 -0.0319661 255 229 231
0.0224381 0.0700755 -0.00421601 255 255 255
0.0296674 0.0393277 -0.0713637 255 255 255
0.0254903 0.0701614 -0.0101919 255 255 255
0.0195632 0.069245 0.00855987 255 255 255
0.0358578 0.056581 -0.0740853 255 149 143
0.0339496 0.0423025 -0.0668246 230 96 88
0.0376886 0.0400083 -0.0732466 200 74 71
0.0503078 0.0201525 -0.0517536 151 73 68
0.0374701 0.0253766 -0.0618695 164 76 70
0.0609787 0.0287644 -0.0619124 67 31 28
0.0486397 0.050946 -0.0346462 83 44 42
0.032192 0.0354848 -0.0763871 171 137 143
0.0379547 0.0507448 -0.047096 99 48 46
0.0492446 0.00961465 -0.0622041 139 80 77
0.0514007 0.0392436 -0.0113263 255 255 255
0.0377698 0.0529052 -0.0428685 70 34 31
0.0344105 0.0327388 -0.0666255 223 131 126
0.0286773 0.0366598 -0.0683933 243 87 77
0.0188814 0.0469999 -0.0738597 255 255 255
0.0325917 0.0295399 -0.0738913 0 0 0
0.0365857 0.0374692 -0.0693274 209 68 57
0.0426633 0.0438831 -0.0209549 255 255 255
0.0508166 0.0453001 -0.000720302 210 170 164
0.0478086 0.0381569 -0.0119128 255 255 255
0.0564523 0.0567838 -0.0421774 66 29 26
0.0358802 0.0499941 -0.0175567 255 255 228
0.0342312 0.050009 -0.0810721 250 166 163
0.0312156 0.0583343 -0.0200805 0 0 0
0.0323964 0.0426684 -0.0628789 157 58 56
0.0321067 0.051957 -0.0468651 91 39 36
0.0345364 0.066168 -0.0182138 255 255 255
0.036373 0.0735889 -0.0406359 0 0 0
0.0289394 0.0443693 -0.0794622 169 46 34
0.0557781 0.0178237 -0.0442937 77 45 44
0.0331335 0.0293748 -0.062725 255 127 118
0.0391124 0.0625102 -0.0176889 0 0 0
0.0374223 0.0649066 -0.0447038 83 42 44
0.0367409 0.0318506 -0.061729 152 71 69
0.0400524 0.0642961 -0.0414588 83 40 39
0.0514031 0.0646282 -0.0703617 77 34 31
0.0482256 0.062158 -0.0631756 76 32 29
0.0424628 0.0468081 -0.00290062 255 255 255
0.0432869 0.0139125 -0.0680775 255 191 191
0.0656077 0.0317673 -0.0242292 66 33 32
0.0436359 0.0561722 -0.0275416 109 58 59
0.0213009 0.0821379 0.00467539 255 255 255
0.0317836 0.0793404 -0.0155564 255 255 255
0.0545357 0.0597357 -0.0234896 0 0 0
0.0305982 0.0419467 -0.0773535 244 0 0
0.038066 0.0742942 -0.0263023 115 115 114
0.0331218 0.0388959 -0.0428686 94 28 29
0.0360625 0.0368986 -0.0625137 206 113 108
0.0220224 0.069401 0.0234552 255 255 255
0.0353702 0.0481193 -0.0709508 255 145 139
0.0411136 0.0405372 -0.0341467 70 27 24
0.0351865 0.0201806 -0.0524463 76 0 0
0.0278479 0.0487818 -0.0603783 215 118 111
0.0203112 0.0339824 -0.063602 255 255 255
0.0307589 0.0174797 -0.0402392 255 255 255
0.0384004 0.0231883 -0.0567184 217 127 120
0.0386874 0.0375829 -0.0652971 171 73 67
0.0411819 0.0405362 -0.0656636 255 255 255
0.0339211 0.0391826 -0.0816103 238 167 162
0.0327482 0.0389101 -0.0625198 226 125 123
0.052294 0.0618307 -0.0405165 97 57 55
0.0566574 0.0474848 -0.0169723 255 255 255
0.0338938 0.0230761 -0.0214957 255 255 255
0.0394551 0.0299769 -0.0782128 255 255 255
0.0410293 0.00990039 -0.0511102 255 196 199
0.0203303 0.0705152 0.00814793 255 255 255
0.0443596 0.0371235 -0.0671504 88 0 0
0.0475062 0.0590092 -0.0482615 94 50 45
0.0386809 0.0317404 -0.0555105 97 0 0
0.0306635 0.042537 -0.0745725 233 63 27
0.04233 0.033737 -0.0441243 32 0 0
0.0339333 0.0439456 -0.0334192 34 0 0
0.0428224 0.0435878 -0.0541735 125 72 69
0.0316152 0.0369567 -0.0810187 190 79 64
0.0514706 0.0414218 -0.0565947 85 42 39
0.0498205 0.0539212 -0.0473129 50 17 14
0.00317878 0.0418798 0.0278433 255 255 255
0.0289934 0.0812972 -0.0523232 113 139 146
0.0303227 0.0449567 -0.0795662 208 117 117
0.0286639 0.0602807 -0.0458172 197 112 107
0.0345819 0.0442357 -0.064688 148 20 0
0.0362094 0.0503834 -0.0701823 146 46 42
0.0425337 0.0616962 -0.0474296 61 13 0
0.0521793 0.0444144 -0.00219619 255 255 255
0.0389236 0.0414155 -0.060601 195 84 76
0.0294583 0.0665687 -0.015301 255 255 255
0.0397687 0.0281385 -0.0515723 50 7 1
0.0353386 0.0389761 -0.0781278 255 255 255
0.0622125 0.0481559 -0.0853407 4 4 3
0.0345129 0.0257688 -0.0611882 244 69 72
0.054316 0.0593048 -0.0643554 57 25 23
0.033847 0.048595 -0.0729686 252 106 97
0.0424622 0.0330393 -0.0802895 167 109 103
0.0414156 0.0367381 -0.00336797 255 255 255
0.0376071 0.0432032 -0.0776731 107 0 0
0.0352171 0.05789 -0.00789339 255 255 255
0.0345797 0.0343095 -0.0857455 171 124 121
0.0367179 0.0584355 -0.0499283 119 75 72
0.038515 0.0352138 -0.0752585 253 162 156
0.0423704 0.0706089 -0.063963 210 103 94
0.0371099 -3.90482e-05 -0.0340455 165 196 203
0.0297598 0.004822 -0.0320175 255 255 255
0.0414879 0.0368996 -0.0532006 95 27 22
0.0221126 0.0228744 -0.0332074 255 234 217
0.0341053 0.0448952 -0.077897 255 67 67
0.0486648 0.0530854 -0.0531703 80 39 36
0.0238929 0.0314261 -0.00298083 255 255 255
0.0418118 0.0469854 -0.0732749 255 255 255
0.0297703 0.0613438 -0.0313795 0 0 0
0.0414226 0.0355298 -0.0692629 109 36 30
0.020857 0.0765502 0.0107363 255 255 255
0.0485088 0.0317486 -0.051975 103 67 64
0.0366095 0.0740849 -0.0350656 148 111 108
0.0414502 0.0339624 -0.072164 236 146 138
0.0348906 0.00360794 -0.0315651 255 255 255
0.0349198 0.0107024 -0.0358093 69 0 0
0.0424275 0.0178867 -0.0142961 127 111 112
0.0368401 0.00921944 -0.0248139 255 255 255
0.0428443 0.00967282 -0.0242017 91 77 79
0.0432159 0.0604747 -0.0789993 255 139 131
0.0425937 0.0599805 -0.0831022 255 207 199
0.0393737 0.0192383 -0.0736378 216 149 156
0.0303673 0.0298432 -0.00183664 255 255 255
0.0538988 0.01382 -0.0240596 46 85 73
0.0329437 0.050235 -0.0635226 213 123 117
0.0444794 0.0594324 -0.06553 215 122 119
0.0457206 0.0109002 -0.0234663 174 151 156
0.0371235 0.0183006 -0.0209676 140 129 131
0.041446 0.0077605 -0.0210135 171 161 162
0.0404227 0.0190115 -0.00996874 193 163 163
0.0573862 0.045363 -0.0822997 184 93 87
0.0611229 0.0328888 -0.0730114 38 22 15
0.0556048 0.0331238 -0.0758865 197 113 115
0.0658882 0.0516236 -0.0743703 104 49 46
0.0410566 0.0464807 -0.0727224 253 0 0
0.0055592 0.0226364 -0.058236 255 255 255
0.0102869 0.0195537 -0.0564879 255 131 130
0.0323099 0.0419417 -0.0668966 255 255 255
0.0477948 0.0386289 -0.0733778 124 98 89
0.00859231 0.0604951 -0.0532064 187 118 123
0.0561973 0.0464379 -0.080907 239 137 135
0.0263029 0.0480307 -0.0759795 186 6 14
0.0167695 0.0340464 -0.036084 255 178 182
0.0557693 0.0288516 -0.0729291 62 29 17
0.0425065 0.0483003 -0.0703815 169 76 68
0.00812833 0.0445969 -0.0488664 229 140 133
0.00393112 0.0228491 -0.0572746 255 255 255
0.031991 0.0587476 -0.0502625 255 146 120
0.0577187 0.0342948 -0.065732 77 35 31
0.012897 0.0581053 -0.0461319 236 145 144
0.0540922 0.0420039 -0.0842081 255 129 115
0.0404464 0.0386892 -0.0657923 144 25 18
0.0278729 0.0634629 -0.059793 220 118 111
0.0293414 0.0484187 -0.0780639 255 120 108
0.0290915 0.0607998 -0.0544866 198 112 107
0.0395098 0.0617089 -0.0517336 215 128 126
0.0245584 0.0602954 -0.0646025 229 135 127
0.0266813 0.0564816 -0.0665829 228 150 147
0.0313574 0.0582333 -0.0682562 222 145 139
0.0376059 0.0580465 -0.047895 223 140 136
0.0340247 0.0669164 -0.0614249 221 119 111
0.0373401 0.055286 -0.0510472 231 125 118
0.033313 0.0554843 -0.0731063 255 155 156
0.0325176 0.0634606 -0.064049 129 52 47
0.0362492 0.0619216 -0.0677775 115 66 61
0.0349365 0.0446489 -0.068085 255 174 167
0.0375824 0.0466562 -0.0572525 255 183 178
0.0494228 0.0657824 -0.0527502 96 49 47
0.0456906 0.0504238 -0.046625 225 127 124
0.0302226 0.0487471 -0.0495797 130 62 59
0.0321318 0.0555141 -0.0512887 247 134 129
0.0324985 0.0538108 -0.0584341 240 153 149
0.0414338 0.0689011 -0.058991 117 67 62
0.0354379 0.0492145 -0.0627889 236 168 167
0.0316535 0.066931 -0.0595838 216 132 125
0.0313626 0.0512214 -0.075905 229 122 118
0.0304273 0.057937 -0.0679756 234 133 128
0.0527631 0.0598207 -0.0465251 72 32 31
0.032431 0.0486075 -0.0604219 255 76 53
0.0365862 0.0519832 -0.0485762 170 117 113
0.0494241 0.0569393 -0.0438175 93 49 49
0.0333831 0.0344899 -0.0526646 255 161 158
0.0441441 0.0672235 -0.0547424 120 73 72
0.0321061 0.0557599 -0.0606025 255 201 205
0.0307143 0.0484747 -0.0527337 102 0 0
0.0456991 0.0426233 -0.0420197 85 41 37
0.0253802 0.0572502 -0.0664652 121 42 40
0.0536877 0.0528449 -0.0334489 123 93 101
0.0386646 0.0421087 -0.0498883 154 89 85
0.0505276 0.0561408 -0.0387887 106 69 69
0.0377666 0.0512565 -0.0538842 124 74 77
0.0360969 0.0592584 -0.0491146 34 1 0
0.0448364 0.065647 -0.0530571 105 47 42
0.0408374 0.0514921 -0.0508999 61 11 6
0.044822 0.0663808 -0.0477456 131 77 72
0.0493147 0.0538719 -0.0420027 73 36 35
0.0375766 0.053138 -0.0578135 196 90 83
0.0424718 0.067537 -0.058682 99 62 60
0.0329791 0.0554641 -0.0495876 255 211 209
0.0441935 0.0272218 -0.0540587 89 49 46
0.0356649 0.0691466 -0.050504 180 121 121
0.041728 0.0604795 -0.0475078 187 152 132
0.0401952 0.0631478 -0.0440878 117 69 69
0.0339994 0.0455017 -0.0405544 153 90 87
0.0350228 0.0468566 -0.0513754 88 40 38
0.0398969 0.0532256 -0.0379232 89 58 55
0.0481094 0.0428088 -0.0434898 109 61 57
0.0378508 0.0356345 -0.0600682 255 213 202
0.0462941 0.0651084 -0.0595681 107 55 51
0.0457215 0.0616045 -0.0374525 216 168 132
0.0478554 0.0563905 -0.0470171 104 83 72
0.0416071 0.0431586 -0.0509188 128 76 71
0.0350031 0.0385691 -0.0615565 246 167 167
0.0413527 0.0323148 -0.0635053 255 169 173
0.0468061 0.0646476 -0.0500518 100 54 56
0.0334034 0.0587903 -0.0538439 152 65 60
0.0442055 0.0537801 -0.0482847 75 35 34
0.0328624 0.0356423 -0.0508492 70 0 0
0.0456928 0.0295925 -0.0602855 134 46 39
0.0450034 0.0469957 -0.0354072 83 39 36
0.0525541 0.0441412 -0.0450787 144 81 75
0.044345 0.0498556 -0.0428364 99 59 54
0.0497274 0.0578841 -0.0358656 69 37 34
0.0367892 0.037512 -0.0580522 137 51 34
0.0441392 0.0423676 -0.0347172 96 57 55
0.0317086 0.0369034 -0.0552944 164 92 97
0.0424869 0.0536586 -0.0488251 75 28 24
0.0382622 0.0390202 -0.0539437 171 106 96
0.0529048 0.0601304 -0.0403368 108 66 62
0.0432502 0.0529583 -0.0411239 128 81 84
0.0383385 0.0427089 -0.0616405 141 28 22
0.0456467 0.0521589 -0.0552338 120 66 68
0.0349808 0.0468757 -0.0513207 78 32 28
0.0430682 0.0475918 -0.0364754 128 130 125
0.0501429 0.0593612 -0.0475646 126 100 104
0.0431281 0.0502367 -0.0463094 83 41 39
0.0406309 0.0485369 -0.0380923 86 46 41
0.0552112 0.0578258 -0.0505075 68 35 33
0.0367404 0.0390216 -0.0553828 191 134 136
0.0399454 0.0464452 -0.0442217 83 46 43
0.0292954 0.0561602 -0.0694306 151 67 64
0.0515133 0.0568309 -0.0493254 55 22 20
0.0477815 0.0519332 -0.0343008 70 34 32
0.042088 0.0477427 -0.0523044 72 32 30
0.0547362 0.0507233 -0.0536738 51 14 10
0.038595 0.0541381 -0.0481466 102 52 50
0.0436566 0.0496656 -0.0355156 90 42 39
0.0435901 0.0199472 -0.0698059 143 67 64
0.035815 0.0493775 -0.0516408 107 57 54
0.0417635 0.0527185 -0.0486864 142 79 76
0.0356932 0.0288511 -0.071913 119 42 53
0.0397456 0.0502893 -0.0427171 60 22 19
0.0335272 0.0526708 -0.0485015 105 55 56
0.0558521 0.057152 -0.0474442 96 57 58
0.0433952 0.0390937 -0.035314 96 56 52
0.0534076 0.0593162 -0.0454267 123 71 67
0.0488979 0.0488902 -0.0512626 162 122 130
0.0341062 0.0431898 -0.063282 238 134 124
0.0425026 0.0474401 -0.0534636 157 95 86
0.0382813 0.0200038 -0.0694267 139 61 59
0.0298973 0.0438731 -0.0473079 255 255 255
0.0424486 0.0490809 -0.0400014 75 31 29
0.0506217 0.0635336 -0.0517486 76 38 36
0.0335126 0.0412159 -0.0526011 255 172 170
0.0339951 0.0494754 -0.0571961 163 86 83
0.0371884 0.0383739 -0.0589659 176 79 67
0.056523 0.0591092 -0.0412063 93 53 50
0.0353934 0.034875 -0.0644732 255 153 149
0.0523294 0.0472213 -0.0507073 209 134 126
0.0469964 0.0405782 -0.0488909 49 2 0
0.0505425 0.0393517 -0.0428998 139 83 86
0.0388735 0.0396025 -0.0242741 68 24 21
0.0237312 0.0453522 -0.0728217 255 76 74
0.0375361 0.0341581 -0.0683167 114 0 0
0.0566711 0.0568294 -0.0472887 86 47 48
0.0484249 0.0456295 -0.0245569 158 103 96
0.0579237 0.022666 -0.0565034 105 62 61
0.0432178 0.0298027 -0.0393421 95 57 54
0.0464061 0.0372877 -0.0273633 60 19 19
0.0425713 0.0394678 -0.027319 111 74 72
0.0600268 0.053612 -0.0509741 95 53 52
0.0542439 0.0601397 -0.0363607 91 53 49
0.0506362 0.0328197 -0.0530917 100 60 60
0.0463025 0.0422867 -0.0536077 138 80 80
0.0504078 0.0296943 -0.0487516 142 82 79
0.0490448 0.0300255 -0.0407546 204 150 142
0.0529469 0.0555849 -0.0378423 91 51 49
0.0473016 0.0523623 -0.0580741 73 34 32
0.0416027 0.0312233 -0.0253083 116 66 62
0.0503929 0.0380499 -0.0410519 127 88 90
0.0529464 0.0329159 -0.0450718 117 94 92
0.0472697 0.0581398 -0.0388297 120 76 75
0.0390756 0.021289 -0.0703383 137 68 63
0.0513903 0.0339598 -0.0474434 133 79 74
0.0476789 0.0216386 -0.0712465 138 74 70
0.0573011 0.056141 -0.0466705 83 50 45
0.046704 0.0464566 -0.0438787 126 80 75
0.0511941 0.0373607 -0.049993 135 78 73
0.0491385 0.0398324 -0.0420647 85 40 37
0.0429698 0.0476922 -0.0498953 51 19 15
0.0373504 0.0334431 -0.0320375 243 170 167
0.0585427 0.0555351 -0.0443494 97 59 56
0.0527715 0.0366092 -0.0498575 158 101 95
0.0632698 0.0332243 -0.0494705 54 22 22
0.0484647 0.037507 -0.0507056 150 93 94
0.0522058 0.0376473 -0.0464277 123 103 105
0.0534203 0.0433979 -0.0449208 119 72 69
0.0539588 0.0487768 -0.0319817 117 70 49
0.0430437 0.0247234 -0.0418411 164 108 103
0.0401777 0.040516 -0.0239381 86 37 33
0.0466838 0.0382186 -0.0280785 129 85 79
0.058571 0.0201722 -0.0558376 80 38 37
0.0503206 0.0389414 -0.0413435 48 9 4
0.0532348 0.0294788 -0.0670971 93 52 51
0.0585251 0.0390883 -0.0481091 73 33 31
0.0470382 0.0365445 -0.0330273 96 55 50
0.0549694 0.0579583 -0.0433738 90 61 57
0.0283083 0.0385803 -0.0339676 65 0 0
0.0435358 0.0342555 -0.023338 102 59 57
0.0528468 0.03915 -0.0338785 80 37 35
0.042039 0.0245056 -0.058033 156 54 50
0.0486302 0.0391917 -0.0372943 86 41 39
0.0664634 0.0415237 -0.0479171 109 58 55
0.0464413 0.050214 -0.0270767 100 59 58
0.0452752 0.0367841 -0.0632923 97 54 49
0.0540563 0.0240653 -0.0477663 199 124 114
0.0550358 0.0140484 -0.0585677 101 55 52
0.0639183 0.0515065 -0.0446345 90 59 61
0.0544653 0.0508497 -0.0346428 83 47 46
0.0631047 0.0526845 -0.0399896 92 51 51
