ply
format ascii 1.0
comment Created by Open3D
element vertex 1176
property double x
property double y
property double z
property uchar red
property uchar green
property uchar blue
end_header
0.0757326 0.19223 -0.0373498 172 118 107
0.078906 0.191125 -0.0394532 202 118 104
0.0737991 0.193409 -0.036385 197 109 97
0.0720302 0.191828 -0.0396736 205 108 95
0.0787182 0.191349 -0.0433988 226 136 122
0.0781364 0.188635 -0.0394931 212 126 113
0.0761549 0.192821 -0.039073 216 126 111
0.0833807 0.188847 -0.0342324 196 105 92
0.0739972 0.188469 -0.0391561 189 110 98
0.0743208 0.190188 -0.0411381 255 213 199
0.0779558 0.190657 -0.0419687 255 175 159
0.080176 0.188818 -0.0394 255 174 159
0.0816795 0.192813 -0.0370165 226 132 119
0.0784454 0.188856 -0.0443515 235 134 120
0.0757788 0.19009 -0.0368964 197 114 101
0.0800087 0.190133 -0.0384485 245 143 130
0.0791189 0.191755 -0.036722 225 141 125
0.0745625 0.19265 -0.0402659 211 123 108
0.0767836 0.194944 -0.0363781 220 135 120
0.0741112 0.192535 -0.0408844 197 109 96
0.0773426 0.190485 -0.0393193 241 140 126
0.0725714 0.190878 -0.0335833 198 110 98
0.0768185 0.189654 -0.0413174 255 170 153
0.0752955 0.192825 -0.0368278 194 111 97
0.0819264 0.191064 -0.0420323 255 155 140
0.0825178 0.19055 -0.037194 166 92 81
0.0745004 0.192997 -0.0375527 203 122 109
0.0848632 0.188024 -0.0355575 207 124 110
0.0779167 0.191118 -0.0404446 215 116 104
0.0740811 0.189538 -0.039129 187 102 89
0.0800242 0.194678 -0.0394958 187 109 98
0.0745949 0.191005 -0.0385418 185 93 80
0.0771558 0.188768 -0.0406796 229 125 111
0.0789447 0.192064 -0.0369833 189 121 111
0.0760407 0.191206 -0.0382324 222 127 112
0.0772158 0.187489 -0.040888 179 106 95
0.0761498 0.192576 -0.0381333 190 105 95
0.0697467 0.18242 -0.0403838 82 54 48
0.0768261 0.191195 -0.0383374 174 102 90
0.0753744 0.191509 -0.0420349 193 107 93
0.0742742 0.188782 -0.0395258 183 97 87
0.0773245 0.189166 -0.0439831 167 99 89
0.0789238 0.185382 -0.0502503 184 107 97
0.0741357 0.193914 -0.041686 217 126 109
0.0741905 0.188304 -0.0375959 184 100 91
0.0775399 0.186283 -0.0425416 185 98 89
0.0694659 0.184138 -0.0374003 141 96 91
0.0667578 0.183527 -0.0432593 184 104 93
0.0684125 0.185795 -0.0416135 180 89 77
0.0763194 0.191838 -0.0387832 147 122 113
0.0804588 0.192626 -0.0409109 204 113 98
0.0723261 0.188526 -0.0384244 187 99 89
0.0791654 0.194786 -0.0403583 245 142 125
0.0789424 0.192274 -0.0450305 224 128 113
0.074806 0.194279 -0.0379058 239 147 131
0.0745213 0.192201 -0.0383775 199 120 106
0.0765588 0.193181 -0.0398632 255 178 162
0.0737638 0.190158 -0.0394725 192 104 93
0.0722207 0.189912 -0.0348124 255 146 128
0.0682511 0.183298 -0.0398491 164 91 83
0.0777617 0.188872 -0.0374633 189 101 91
0.0772594 0.187082 -0.0399371 198 107 94
0.071803 0.189135 -0.0354067 219 117 103
0.073304 0.194559 -0.0346353 223 133 120
0.0734125 0.192365 -0.0354963 255 171 156
0.0794738 0.182435 -0.0422442 157 98 89
0.0780362 0.188395 -0.0416617 198 118 107
0.0785027 0.189631 -0.0440634 192 116 105
0.0747054 0.187769 -0.0399959 222 137 122
0.0776485 0.193162 -0.0417816 226 130 114
0.0713246 0.189733 -0.0407836 164 89 78
0.0809737 0.183677 -0.0444019 62 28 24
0.0778091 0.19083 -0.0405222 146 78 66
0.0711817 0.182068 -0.0406398 49 34 30
0.0739157 0.19037 -0.034477 94 53 48
0.0780993 0.193485 -0.0436487 217 131 112
0.0764351 0.191484 -0.0409045 251 158 144
0.0745893 0.192783 -0.0443707 181 110 98
0.0696649 0.187592 -0.0327743 119 80 72
0.0781139 0.192763 -0.0388443 99 59 54
0.073387 0.191175 -0.040943 176 102 91
0.0750651 0.194758 -0.0378282 240 138 121
0.0824915 0.187235 -0.0369852 66 36 32
0.0863108 0.186854 -0.0315521 96 61 54
0.0739914 0.188608 -0.0444984 117 75 69
0.07655 0.192793 -0.0403769 162 124 118
0.0795542 0.191056 -0.0420365 124 79 73
0.0759381 0.190852 -0.0434001 211 124 109
0.0738474 0.188912 -0.0368737 203 103 92
0.0749864 0.190944 -0.0403441 191 124 112
0.0706341 0.191293 -0.0420613 255 159 142
0.0759184 0.191708 -0.0424391 255 154 136
0.0748765 0.191084 -0.037212 209 116 103
0.077889 0.193999 -0.0381304 221 133 118
0.0759859 0.191199 -0.0390013 235 132 117
0.0735662 0.193366 -0.0387037 227 124 109
0.0808449 0.193125 -0.0402111 255 196 180
0.0751597 0.188198 -0.0432497 191 110 99
0.0753063 0.195801 -0.0367376 119 96 90
0.0820603 0.188058 -0.0361321 189 105 92
0.0798809 0.191297 -0.0403937 255 157 140
0.0792483 0.191269 -0.0405526 185 112 104
0.0725521 0.196385 -0.0352966 147 87 79
0.0813046 0.191773 -0.0443943 162 107 96
0.0708994 0.193231 -0.0401538 207 126 112
0.0744215 0.190763 -0.0390476 190 135 122
0.0792071 0.190359 -0.0416091 182 115 106
0.0768316 0.189637 -0.0379949 195 159 149
0.0780698 0.193071 -0.0428866 237 144 127
0.0743411 0.192697 -0.0406667 136 87 77
0.0772665 0.188931 -0.0450125 225 150 135
0.0779133 0.193373 -0.0412174 232 150 136
0.0746377 0.192031 -0.0381405 228 158 143
0.0784735 0.192732 -0.0393865 219 137 122
0.0775761 0.192199 -0.0410631 185 104 90
0.073673 0.192925 -0.0403384 244 167 153
0.0786275 0.191129 -0.0395272 255 194 174
0.0812187 0.186847 -0.0471135 255 145 125
0.0811984 0.179368 -0.0447674 84 39 31
0.0721919 0.194431 -0.0361345 160 109 100
0.077322 0.190268 -0.0402748 173 111 101
0.0761156 0.195744 -0.0369518 98 58 50
0.0783367 0.193796 -0.040575 163 87 76
0.0749587 0.19131 -0.0422439 133 77 71
0.0728986 0.193092 -0.0393256 216 162 152
0.070616 0.185019 -0.0442934 186 106 96
0.0753155 0.192959 -0.0334291 203 152 138
0.074375 0.190144 -0.0458482 152 116 111
0.0783796 0.189241 -0.0420381 136 93 86
0.0763112 0.188474 -0.0453261 166 106 96
0.0830539 0.193524 -0.0454977 119 77 73
0.0790459 0.194926 -0.0385495 118 85 79
0.0800004 0.189233 -0.0417279 159 80 69
0.0767882 0.191411 -0.0412211 134 94 87
0.0774972 0.190284 -0.040086 230 171 157
0.0725952 0.191607 -0.0409079 188 110 98
0.07799 0.189667 -0.0438261 97 68 63
0.0753456 0.190537 -0.0392532 200 123 112
0.0760394 0.194339 -0.0395734 195 124 113
0.0738331 0.187475 -0.0426626 128 75 69
0.0750067 0.19078 -0.0387549 198 111 99
0.0759764 0.186628 -0.0419842 148 91 81
0.0791699 0.192358 -0.0403055 208 147 135
0.0795251 0.190954 -0.0444111 235 143 129
0.0754297 0.192294 -0.0378272 224 123 108
0.0769162 0.192358 -0.0444331 231 144 125
0.0801989 0.194824 -0.0394313 166 100 91
0.08091 0.18651 -0.0411599 137 100 93
0.0812818 0.189576 -0.0408657 120 80 72
0.0697855 0.18821 -0.0283847 46 20 16
0.081232 0.191353 -0.0449142 169 98 89
0.0725835 0.190721 -0.0429199 137 86 77
0.073838 0.190616 -0.0390149 197 122 111
0.075127 0.190626 -0.0384899 170 110 101
0.0762413 0.189157 -0.0380324 162 115 103
0.072933 0.19316 -0.0379848 146 85 77
0.0802598 0.190282 -0.0409812 169 100 91
0.0810607 0.193141 -0.0384577 172 115 105
0.0734497 0.191786 -0.0370182 142 88 80
0.0699513 0.18978 -0.0344972 100 66 60
0.077944 0.193643 -0.0423199 149 126 121
0.0702207 0.191575 -0.0402314 159 96 86
0.0763636 0.192969 -0.0374627 213 126 116
0.072667 0.188488 -0.0391481 180 100 90
0.0784875 0.193025 -0.037818 180 121 112
0.0712165 0.184744 -0.041999 181 116 108
0.0707463 0.190974 -0.0399894 201 114 102
0.0733761 0.193307 -0.0332366 141 95 85
0.0784809 0.190182 -0.0443927 182 111 101
0.0745184 0.193999 -0.0385097 206 134 122
0.0796347 0.194705 -0.0399385 148 95 84
0.0787086 0.190162 -0.0424858 205 119 106
0.07987 0.191217 -0.0431876 132 80 71
0.0784208 0.192818 -0.038048 182 125 112
0.0761067 0.192309 -0.0345329 232 139 124
0.0745509 0.188155 -0.0411452 223 147 134
0.0735731 0.19294 -0.0382254 211 120 107
0.0769531 0.190057 -0.0382632 175 97 86
0.0819603 0.192716 -0.0388455 143 88 77
0.0782787 0.189502 -0.0428174 144 90 83
0.070887 0.191782 -0.0398217 148 95 85
0.0689294 0.19397 -0.0381539 101 53 46
0.0711564 0.188028 -0.0412972 186 115 106
0.0786334 0.190021 -0.0395028 195 127 114
0.0816007 0.193714 -0.0364417 86 47 40
0.0810369 0.189241 -0.0440806 222 144 129
0.0748088 0.193924 -0.0378968 194 122 112
0.0751283 0.192662 -0.0380446 253 143 126
0.0765096 0.193089 -0.0401962 121 75 69
0.0767294 0.185796 -0.0420294 123 72 67
0.0803072 0.192409 -0.041497 255 152 137
0.0741199 0.188919 -0.0374898 132 81 74
0.0785395 0.191705 -0.0448251 133 76 67
0.0812281 0.189875 -0.037138 95 67 63
0.0758513 0.19045 -0.0400723 142 110 102
0.0750924 0.191597 -0.0397578 133 86 79
0.0766355 0.192146 -0.0392086 194 129 116
0.0762204 0.191566 -0.0423468 255 157 140
0.0727214 0.190007 -0.0431085 245 151 134
0.0794525 0.189643 -0.044273 255 193 176
0.0792173 0.191801 -0.042258 145 85 76
0.0763088 0.192568 -0.0402881 193 150 135
0.0788295 0.186353 -0.0427965 134 108 101
0.0742544 0.191618 -0.043687 162 109 99
0.0705622 0.194444 -0.0384294 179 140 133
0.0764789 0.191042 -0.0394535 210 168 156
0.0737314 0.192199 -0.0386651 197 153 143
0.0827739 0.188558 -0.0356849 38 30 33
0.0704019 0.196273 -0.0356844 237 149 134
0.0727069 0.189511 -0.0381561 117 82 75
0.0756852 0.190794 -0.037389 219 142 127
0.0748031 0.188503 -0.0374745 146 103 95
0.0765696 0.193603 -0.0416593 158 86 76
0.0760281 0.194933 -0.0389734 160 123 117
0.0772363 0.195318 -0.0399368 191 112 102
0.0740371 0.193251 -0.0369016 141 89 81
0.0818016 0.19167 -0.0408704 174 107 98
0.0730186 0.195863 -0.0363541 232 149 132
0.0792532 0.192301 -0.0419638 121 70 64
0.0733081 0.191377 -0.0382013 155 85 75
0.0770136 0.191618 -0.0431545 136 82 71
0.0759538 0.190694 -0.0363246 194 132 119
0.0771978 0.18213 -0.0444352 198 114 102
0.0806933 0.193594 -0.0396631 216 128 114
0.0796993 0.18956 -0.0383825 199 124 111
0.0708412 0.185551 -0.029387 175 105 95
0.081055 0.191103 -0.0436422 209 118 105
0.0798411 0.190934 -0.0346462 228 113 99
0.0774492 0.190736 -0.040101 220 121 106
0.0793918 0.184021 -0.0421955 165 92 82
0.075917 0.193132 -0.0395277 215 122 108
0.0804613 0.188058 -0.0389898 200 118 105
0.0745069 0.188732 -0.0336438 187 107 96
0.0774721 0.188475 -0.0387419 221 127 112
0.0732879 0.187958 -0.03807 195 97 88
0.0704103 0.192837 -0.0397865 232 135 122
0.0807221 0.187972 -0.0353129 191 114 106
0.0733727 0.194585 -0.0363967 232 127 112
0.0798489 0.191508 -0.0395957 248 149 136
0.0710015 0.190849 -0.0378677 208 116 102
0.0756931 0.188105 -0.0337873 244 142 129
0.0736502 0.18189 -0.0407352 190 104 90
0.0758105 0.194039 -0.0393624 180 105 94
0.0764699 0.193324 -0.0351368 230 125 110
0.0805862 0.193619 -0.0415716 160 90 81
0.0814299 0.183642 -0.0427712 184 103 90
0.0756813 0.190808 -0.0355762 194 111 100
0.0779931 0.190678 -0.0411066 210 122 110
0.0713179 0.190012 -0.0291192 27 0 0
0.0768554 0.193286 -0.0407742 227 130 114
0.0709665 0.188035 -0.0350829 156 89 81
0.0695889 0.184629 -0.0359812 142 102 91
0.0808748 0.182319 -0.0419707 168 111 101
0.0803705 0.192795 -0.0401413 172 98 87
0.0784222 0.191737 -0.040626 186 112 103
0.0794252 0.18365 -0.0446178 155 90 81
0.0772114 0.192793 -0.042687 172 97 86
0.0727549 0.190459 -0.0388834 175 95 86
0.0719498 0.183503 -0.040922 158 92 84
0.0763415 0.187538 -0.032403 206 120 108
0.0765509 0.193087 -0.0413558 255 151 131
0.0808043 0.188882 -0.0351837 199 115 102
0.0734433 0.191446 -0.0375907 203 113 99
0.0647534 0.17993 -0.0393976 41 13 12
0.0810768 0.179683 -0.0410114 115 51 45
0.070087 0.184155 -0.04295 138 70 61
0.0768807 0.188192 -0.0409242 169 91 80
0.0764166 0.191735 -0.0371139 236 135 120
0.0671219 0.186441 -0.0401453 183 95 84
0.0675278 0.183805 -0.0416289 175 92 80
0.0701412 0.194115 -0.0379903 198 103 93
0.07991 0.18719 -0.0410873 216 124 112
0.067888 0.192108 -0.0299105 102 54 45
0.065584 0.186342 -0.0437639 182 95 82
0.0742259 0.191296 -0.0417839 200 124 112
0.0734781 0.188578 -0.0384914 193 113 100
0.0802671 0.192095 -0.0393809 255 162 147
0.0816908 0.186877 -0.0373307 175 132 125
0.067407 0.185392 -0.0426438 173 88 77
0.079989 0.18465 -0.0417309 175 101 89
0.0786111 0.189357 -0.0354631 255 154 138
0.0715564 0.18525 -0.0384323 181 105 94
0.0718122 0.190532 -0.0403138 204 127 115
0.0760481 0.189181 -0.0330855 227 154 142
0.0811855 0.183814 -0.0407515 179 103 92
0.0792597 0.184325 -0.0466604 173 96 85
0.0783042 0.186967 -0.0403944 166 88 80
0.0788499 0.191914 -0.041158 211 130 118
0.0762016 0.188092 -0.0394707 207 113 101
0.0764521 0.187678 -0.0443395 169 93 83
0.0801091 0.186304 -0.0478292 211 127 114
0.074468 0.191203 -0.0419551 183 98 87
0.0735595 0.190402 -0.0420247 207 120 108
0.0808044 0.192661 -0.043733 158 101 87
0.085496 0.187254 -0.0353179 149 90 87
0.0658849 0.185346 -0.0440923 181 95 82
0.0699675 0.161632 -0.0284744 0 0 0
0.0753015 0.189386 -0.0403461 201 105 94
0.078048 0.186543 -0.0485597 185 91 82
0.0779465 0.192434 -0.0414026 180 109 98
0.0781344 0.188205 -0.0419363 160 91 80
0.0831986 0.187258 -0.0352557 158 95 85
0.0772983 0.193072 -0.0393482 189 96 82
0.0785105 0.192632 -0.042524 192 117 106
0.0799045 0.17801 -0.0454834 70 39 38
0.0745841 0.193431 -0.0365101 255 141 124
0.0803153 0.194127 -0.039738 217 121 103
0.0755303 0.192591 -0.0353297 196 108 95
0.0759378 0.188745 -0.037042 235 126 113
0.0679418 0.192546 -0.0328991 206 105 93
0.0804557 0.190329 -0.0444371 221 132 116
0.077443 0.193355 -0.0398962 170 113 103
0.0733929 0.188378 -0.033243 219 161 151
0.0775056 0.190439 -0.0382988 200 116 103
0.0743459 0.19089 -0.036123 199 112 99
0.0693938 0.194107 -0.0322148 185 85 76
0.0768332 0.191081 -0.0389923 207 114 100
0.0726825 0.186447 -0.0334362 212 108 90
0.085606 0.195509 -0.0411773 208 117 105
0.0776193 0.186074 -0.0421625 193 96 85
0.0752443 0.191747 -0.0401997 224 125 109
0.0746335 0.192627 -0.0389277 215 117 104
0.0757592 0.194429 -0.0390356 243 139 122
0.0725821 0.191666 -0.0350395 203 118 104
0.0820783 0.187126 -0.0345012 233 129 111
0.0795684 0.19187 -0.0375493 255 182 164
0.0799658 0.192324 -0.0372559 254 153 138
0.0794182 0.196258 -0.0366379 203 108 95
0.0732326 0.190471 -0.0373303 255 170 152
0.0846439 0.186367 -0.0461537 255 147 131
0.0795377 0.188262 -0.0417348 255 147 129
0.0698721 0.194864 -0.0411524 227 115 99
0.0770824 0.190003 -0.0428312 210 112 100
0.0782752 0.191528 -0.0408785 211 112 99
0.077498 0.192088 -0.0376343 255 172 156
0.0756775 0.195242 -0.0382996 254 148 132
0.0751734 0.192724 -0.0412741 244 144 126
0.0814247 0.190652 -0.0398299 213 125 114
0.0813417 0.183715 -0.0452224 141 78 69
0.0791744 0.18989 -0.035632 224 135 120
0.0731216 0.189903 -0.0318794 185 100 85
0.0741945 0.19074 -0.0355137 196 111 99
0.0842744 0.18524 -0.0477104 241 131 116
0.0787406 0.190216 -0.0442316 193 112 99
0.0756257 0.188861 -0.033729 253 156 141
0.0739773 0.191616 -0.0347686 212 117 103
0.0775401 0.190842 -0.0419625 204 114 99
0.0828228 0.18607 -0.0367545 228 122 108
0.0809654 0.189438 -0.0363695 247 158 145
0.0803875 0.187622 -0.0357973 165 98 89
0.0808757 0.186246 -0.0312862 202 118 105
0.0703797 0.192499 -0.0344816 224 129 113
0.0790608 0.18955 -0.0363889 206 115 101
0.0835382 0.193504 -0.0366234 255 139 122
0.0795386 0.191124 -0.0373573 255 178 163
0.0779348 0.186245 -0.042588 225 120 107
0.077314 0.1927 -0.0377109 187 104 91
0.0709669 0.194378 -0.0381229 182 88 74
0.0727243 0.188946 -0.0417585 181 103 94
0.078227 0.181312 -0.0410191 105 55 50
0.0743721 0.18151 -0.0407871 126 74 69
0.0773329 0.192765 -0.0399372 197 126 114
0.0836893 0.188599 -0.0332954 77 50 47
0.0776583 0.189419 -0.0375491 239 132 117
0.0834284 0.186567 -0.0368185 112 64 56
0.0799316 0.190986 -0.0465828 157 103 94
0.0697266 0.192833 -0.0353943 112 67 62
0.0800085 0.183691 -0.0478829 154 113 106
0.0790496 0.191925 -0.0391218 159 98 88
0.0809003 0.189375 -0.0370392 214 122 108
0.0781749 0.180988 -0.0415222 63 30 26
0.0736981 0.187176 -0.0296559 149 109 100
0.0785672 0.182665 -0.0422984 167 87 78
0.0726953 0.188941 -0.0385815 170 97 88
0.0749372 0.192168 -0.0449288 190 125 108
0.0800102 0.189806 -0.0397154 190 105 95
0.0741289 0.181781 -0.0426732 117 95 89
0.0775818 0.186321 -0.0419305 190 104 94
0.0773021 0.185077 -0.0450365 155 78 69
0.0771787 0.196217 -0.0332138 76 44 40
0.0733342 0.189451 -0.0407249 178 104 93
0.0690512 0.184414 -0.0441481 189 101 91
0.0689096 0.176571 -0.0375061 80 47 40
0.0729293 0.188319 -0.0381011 198 104 94
0.0669856 0.188997 -0.0299522 58 36 34
0.077988 0.192217 -0.0428384 237 135 119
0.0787519 0.196005 -0.0369345 240 147 131
0.081792 0.193716 -0.0391299 213 122 107
0.0807054 0.193933 -0.0408894 171 96 87
0.0771107 0.18919 -0.0370769 254 154 133
0.0738886 0.194169 -0.0388705 234 136 118
0.0816865 0.188849 -0.036022 194 116 103
0.0721202 0.189329 -0.0405045 221 129 117
0.0741612 0.190295 -0.0377193 214 124 111
0.0788676 0.190638 -0.0421057 245 161 147
0.0744021 0.190577 -0.0445382 206 128 114
0.0733551 0.194211 -0.0354921 255 152 134
0.0814686 0.183494 -0.0489351 201 114 101
0.0805812 0.183964 -0.0405795 240 163 148
0.0779357 0.191364 -0.0386913 212 119 106
0.0746544 0.190981 -0.0378607 190 107 97
0.077195 0.191883 -0.0392767 255 185 161
0.077479 0.190803 -0.0412602 248 137 122
0.075448 0.192371 -0.0418493 207 111 97
0.0758477 0.18582 -0.0456587 160 92 82
0.0819921 0.191001 -0.0363457 255 197 180
0.0791899 0.189908 -0.042427 220 118 103
0.0753369 0.191172 -0.0390198 218 124 112
0.0783613 0.190343 -0.0387521 192 114 103
0.0802428 0.188354 -0.0433932 222 123 110
0.0787634 0.192436 -0.0377214 180 105 94
0.0689203 0.176753 -0.0408076 94 47 41
0.0792426 0.186158 -0.0427256 138 84 76
0.0694048 0.187224 -0.0366126 125 87 78
0.0662861 0.18015 -0.0414814 98 52 46
0.08067 0.18733 -0.0412367 111 59 50
0.0703091 0.193172 -0.0378713 113 71 64
0.0725963 0.192931 -0.0289825 194 106 96
0.0712258 0.185386 -0.0286757 41 27 24
0.076402 0.194904 -0.0369028 184 113 101
0.0765424 0.188631 -0.0376315 207 123 110
0.0762859 0.193132 -0.0398619 226 130 115
0.0748285 0.189185 -0.0430348 227 138 125
0.08128 0.19244 -0.0397609 133 89 81
0.0871763 0.191393 -0.0261483 50 26 23
0.0767015 0.189025 -0.0385919 223 142 129
0.0822922 0.186335 -0.0327351 210 113 100
0.0765654 0.196048 -0.0378279 226 129 117
0.0822509 0.186013 -0.0406846 229 128 114
0.0707719 0.194105 -0.0382814 117 79 76
0.0768512 0.191757 -0.0343933 201 121 109
0.077545 0.193061 -0.0410637 204 116 101
0.0741557 0.193093 -0.0400486 201 140 127
0.0785929 0.187696 -0.0393202 255 150 135
0.0755 0.194559 -0.0326738 255 188 168
0.0749365 0.189208 -0.0391075 243 159 142
0.0735655 0.188861 -0.0397607 255 141 124
0.0816137 0.184759 -0.0425851 222 116 102
0.0762697 0.194485 -0.0423548 145 94 88
0.0818097 0.193031 -0.0344911 132 86 80
0.0816497 0.18983 -0.0391379 92 53 49
0.0775105 0.191555 -0.0458452 174 137 122
0.0783873 0.186402 -0.0499717 152 91 0
0.0760427 0.190157 -0.0371218 210 118 107
0.0779897 0.189635 -0.0369559 194 114 102
0.0777929 0.191816 -0.042722 143 88 84
0.0817183 0.189239 -0.0362797 105 64 59
0.0736744 0.190508 -0.0361772 167 106 100
0.0721839 0.192139 -0.0391493 203 127 113
0.0758418 0.190771 -0.0419175 133 83 73
0.0791157 0.190459 -0.0351423 91 55 51
0.0721185 0.191955 -0.0400891 125 85 79
0.0808347 0.192349 -0.0452315 219 146 131
0.0732939 0.18982 -0.0397201 229 147 131
0.0786052 0.188206 -0.0399109 247 142 128
0.0779533 0.18874 -0.0444153 93 52 45
0.0757307 0.193486 -0.0371566 130 89 81
0.0808047 0.192921 -0.0378442 102 62 58
0.079909 0.193441 -0.0410658 147 110 100
0.0717453 0.191419 -0.0415065 172 116 103
0.0859395 0.184742 -0.0407092 235 141 125
0.0771452 0.187611 -0.0421079 149 119 109
0.0746922 0.192109 -0.0376815 223 180 169
0.0791536 0.189193 -0.0405488 170 105 97
0.0801047 0.189199 -0.0449333 162 102 93
0.0807035 0.195795 -0.0404263 169 100 91
0.0765957 0.194799 -0.0433356 112 93 87
0.0776237 0.190559 -0.0416803 240 164 150
0.0788507 0.188612 -0.0405022 70 41 37
0.0753593 0.192187 -0.0283172 229 146 135
0.0775709 0.191308 -0.0381513 137 88 80
0.0709601 0.17818 -0.040058 70 47 45
0.0778128 0.194861 -0.0381993 111 68 60
0.0771218 0.192317 -0.0366229 206 118 105
0.0723888 0.192966 -0.0353349 122 60 55
0.0794066 0.193152 -0.0395706 162 100 92
0.0754148 0.192543 -0.0380648 133 72 66
0.0699936 0.191224 -0.0359159 135 81 74
0.0793737 0.192739 -0.0402368 142 70 60
0.0846907 0.187817 -0.037731 118 72 66
0.0773373 0.188375 -0.0398264 151 97 87
0.0805063 0.194939 -0.0402908 114 79 74
0.0769645 0.191568 -0.0405178 219 116 107
0.0748069 0.193706 -0.0379662 129 79 72
0.0778541 0.192315 -0.0379473 119 78 72
0.0784928 0.191901 -0.0426315 188 105 93
0.076629 0.1918 -0.0393395 166 115 104
0.0792443 0.190999 -0.0453328 141 95 87
0.0743941 0.194206 -0.0404351 128 74 64
0.0720002 0.190807 -0.0386695 208 134 119
0.0707814 0.190516 -0.0348148 178 107 94
0.0787338 0.193674 -0.039459 175 140 131
0.0803117 0.192859 -0.0341931 143 101 97
0.0778568 0.19268 -0.0398247 247 134 117
0.0799047 0.191951 -0.0395851 127 77 69
0.0763881 0.193519 -0.0420867 119 100 95
0.0780043 0.188909 -0.043373 128 105 104
0.072091 0.196758 -0.034631 120 87 80
0.0767429 0.185985 -0.0420316 140 79 72
0.0685118 0.190674 -0.0422782 93 68 62
0.0814912 0.192159 -0.0421682 88 59 50
0.0718798 0.194247 -0.0395912 209 171 160
0.0797846 0.192973 -0.0410624 128 81 75
0.0791331 0.193451 -0.0357523 94 73 67
0.0764882 0.194442 -0.0399144 190 123 107
0.07778 0.195625 -0.0379097 148 90 83
0.0719494 0.190919 -0.0346534 141 103 97
0.0719828 0.195299 -0.0361731 113 67 57
0.0797208 0.179735 -0.0432611 168 98 88
0.0829061 0.185867 -0.0336161 183 111 99
0.0645032 0.18549 -0.0428429 175 94 82
0.0670553 0.184559 -0.044699 173 99 88
0.0796488 0.186915 -0.043046 141 72 64
0.080475 0.19005 -0.0422628 173 101 92
0.0727637 0.191292 -0.040096 210 114 102
0.0768828 0.188587 -0.0412582 169 98 87
0.0709074 0.193999 -0.0357381 201 109 97
0.0690055 0.187474 -0.0409239 190 102 90
0.0665491 0.183931 -0.0423419 166 90 80
0.0779338 0.182372 -0.0432643 215 121 108
0.0661021 0.183921 -0.0435898 166 94 80
0.080323 0.186782 -0.0422835 170 105 92
0.0750825 0.190422 -0.0383429 209 126 113
0.0697908 0.182 -0.0392279 156 87 79
0.0701099 0.188522 -0.0371311 193 104 88
0.0679277 0.187457 -0.044128 169 96 87
0.0795309 0.186127 -0.0480628 172 96 85
0.0732363 0.193505 -0.0403394 202 114 102
0.080468 0.18411 -0.0488813 176 87 80
0.0751768 0.190841 -0.0446458 179 108 97
0.0852511 0.185271 -0.0311242 155 83 72
0.0785157 0.189139 -0.0444656 188 105 93
0.0863106 0.189359 -0.0415419 216 127 112
0.0813992 0.191378 -0.0407813 167 102 93
0.0753589 0.191845 -0.0376347 196 108 96
0.0717042 0.189121 -0.0417791 219 120 108
0.0788374 0.189944 -0.042114 224 134 120
0.0833801 0.188846 -0.0342325 196 105 92
0.0816777 0.192806 -0.0370163 226 132 119
0.074564 0.192645 -0.0402618 211 123 108
0.0725719 0.190878 -0.0335835 198 110 98
0.0758075 0.191197 -0.0373685 200 119 106
0.0740915 0.189532 -0.0391303 187 102 89
0.0800236 0.194677 -0.0394954 187 109 98
0.0697567 0.182412 -0.0403734 82 54 48
0.0789237 0.185382 -0.0502501 184 107 97
0.0694793 0.184133 -0.037387 141 96 91
0.0667581 0.183527 -0.0432593 184 104 93
0.0684126 0.185795 -0.0416134 180 89 77
0.0791652 0.194782 -0.0403579 245 142 125
0.0789414 0.19225 -0.0450046 224 128 113
0.0748432 0.194175 -0.0378814 239 146 131
0.0799905 0.192414 -0.0425756 196 103 91
0.0682512 0.183298 -0.039849 164 91 83
0.0718051 0.189133 -0.0354077 219 117 103
0.0794738 0.182435 -0.0422442 157 98 89
0.0713377 0.189731 -0.0407738 164 89 78
0.0711868 0.182065 -0.0406332 49 34 30
0.0746125 0.192728 -0.0442734 181 110 97
0.0696662 0.187591 -0.0327736 119 80 72
0.0759382 0.190852 -0.0433989 211 124 109
0.0709019 0.193228 -0.040152 207 126 112
0.0743413 0.192696 -0.0406665 136 87 77
0.0724614 0.19088 -0.0362421 158 110 102
0.0746383 0.19203 -0.0381407 228 158 143
0.0812003 0.17934 -0.0446966 84 39 31
0.0729011 0.193089 -0.0393241 216 162 152
0.0763113 0.188474 -0.0453257 166 106 96
0.0815429 0.194819 -0.0386209 99 60 56
0.0759503 0.194593 -0.0366534 124 91 85
0.0774624 0.189905 -0.0369295 128 88 81
0.0775 0.19028 -0.0400853 230 171 157
0.077212 0.191706 -0.0333268 123 82 72
0.0801981 0.194823 -0.0394305 166 100 91
0.0729415 0.193122 -0.0379855 145 85 77
0.0708575 0.18932 -0.0343892 99 65 59
0.0798688 0.191214 -0.0431855 132 80 71
0.0689322 0.193966 -0.0381519 101 53 46
0.0751289 0.192661 -0.0380444 253 143 126
0.074927 0.190816 -0.0363604 124 91 86
0.0764789 0.191042 -0.0394535 210 168 156
0.0712357 0.192582 -0.0373419 169 106 97
0.0750234 0.189809 -0.0450637 189 110 100
0.0832963 0.191996 -0.0402889 197 114 103
0.0685714 0.184825 -0.034317 201 80 66
0.0747985 0.194729 -0.0380485 227 119 102
0.0787976 0.188879 -0.0398318 204 119 106
0.0767012 0.191178 -0.0352598 216 123 108
0.0759226 0.19373 -0.0364081 220 119 103
0.0740805 0.190559 -0.0435361 211 120 107
0.0807858 0.187042 -0.0376464 198 115 103
0.0734354 0.190447 -0.0430363 183 103 93
0.0790868 0.180001 -0.0421163 187 135 127
0.0790257 0.19312 -0.0401918 207 128 115
0.081429 0.184905 -0.040677 173 106 97
0.073252 0.188188 -0.0390171 208 108 96
0.0779159 0.186725 -0.0402189 121 79 71
0.0670361 0.187837 -0.0337312 211 130 117
0.0786618 0.189036 -0.0394862 197 111 100
0.0796711 0.178841 -0.0449264 168 105 95
0.0741882 0.189825 -0.0421076 174 98 88
0.0756683 0.19275 -0.0356079 219 123 107
0.0678935 0.181256 -0.0419178 157 79 69
0.0823193 0.188825 -0.044184 177 98 87
0.0796674 0.194404 -0.0424969 207 117 104
0.0780511 0.178429 -0.0459056 77 43 40
0.0787471 0.186314 -0.0493321 156 84 75
0.0686681 0.191834 -0.043356 217 141 127
0.0715014 0.190866 -0.0430725 169 97 86
0.0755814 0.189761 -0.0366481 210 110 98
0.0729249 0.18962 -0.0382095 206 109 98
0.0754907 0.191634 -0.037015 198 108 96
0.0752897 0.191238 -0.0421511 192 132 121
0.0738188 0.192221 -0.0344619 139 90 81
0.0729601 0.190356 -0.038516 197 93 84
0.0817407 0.187249 -0.0417103 188 119 109
0.0852876 0.190267 -0.0346622 210 120 106
0.0856258 0.190465 -0.0347793 150 82 74
0.0761485 0.188599 -0.0425384 255 154 139
0.0782254 0.190498 -0.0395162 228 118 104
0.0727072 0.188296 -0.0386392 185 98 89
0.0797246 0.187617 -0.0409157 187 106 95
0.0756004 0.192054 -0.0379346 184 101 90
0.0717263 0.19277 -0.03893 118 77 71
0.0816085 0.189483 -0.0419611 216 127 114
0.0804202 0.183742 -0.04819 189 109 99
0.070732 0.192433 -0.0318261 255 162 143
0.0785886 0.195609 -0.0394101 142 93 84
0.0787706 0.18658 -0.0431186 81 50 46
0.0755946 0.194198 -0.0366246 219 127 113
0.0759756 0.190441 -0.0457532 180 120 112
0.0664122 0.187669 -0.0427624 171 76 66
0.085066 0.189142 -0.0405016 155 84 73
0.0860015 0.185751 -0.0349882 211 115 101
0.0753888 0.186364 -0.0414858 176 88 79
0.0818352 0.192592 -0.0392454 100 51 46
0.0818117 0.186711 -0.0383687 195 108 97
0.0696702 0.187598 -0.0370786 255 166 150
0.0725859 0.193789 -0.0354417 222 123 109
0.0754492 0.194614 -0.0379105 188 95 83
0.077692 0.19108 -0.0421383 225 134 121
0.0749773 0.189059 -0.0388164 221 135 119
0.0795518 0.194218 -0.0384044 187 109 97
0.0731692 0.188289 -0.0414227 230 123 111
0.0813599 0.195876 -0.0391349 231 130 115
0.0750996 0.193327 -0.0379336 176 103 91
0.0704497 0.192059 -0.0355118 231 160 146
0.0757524 0.191645 -0.0438516 213 129 117
0.0772744 0.194766 -0.0363073 255 172 155
0.0799254 0.193046 -0.0420708 200 104 92
0.0797268 0.190491 -0.0455911 204 111 99
0.0764731 0.191452 -0.0437447 96 55 49
0.0717804 0.19539 -0.0338706 255 184 166
0.0773531 0.18738 -0.0427092 218 127 114
0.077491 0.19253 -0.0377372 233 135 117
0.0804424 0.188782 -0.0369582 255 183 165
0.0811796 0.183392 -0.0475888 175 105 93
0.0772658 0.190181 -0.0383422 173 97 87
0.0757039 0.190999 -0.039345 255 174 156
0.0779109 0.186622 -0.0410693 255 155 139
0.0813033 0.188192 -0.0399879 220 122 109
0.0778966 0.192905 -0.0388265 228 137 122
0.0728499 0.190218 -0.0423471 246 126 106
0.0883797 0.192837 -0.0377516 230 146 131
0.0779593 0.194225 -0.0397755 239 134 118
0.0775036 0.192584 -0.0435281 228 129 113
0.0767901 0.185349 -0.0449953 255 169 154
0.0800989 0.188796 -0.0465385 204 117 104
0.0791307 0.181816 -0.0440056 156 82 71
0.0714263 0.187537 -0.0384861 177 89 79
0.0731017 0.192235 -0.0364003 226 135 118
0.0757556 0.192357 -0.0365208 190 106 93
0.0752813 0.189232 -0.038286 237 138 123
0.0749213 0.190476 -0.0393185 191 109 96
0.0767998 0.189941 -0.0434597 155 78 70
0.0809064 0.185615 -0.0401591 182 106 93
0.0831893 0.187881 -0.047586 210 110 94
0.0783688 0.189197 -0.0415724 229 132 116
0.0815065 0.186404 -0.0396381 236 124 110
0.0790605 0.186399 -0.0447586 255 132 116
0.0794649 0.188192 -0.0356144 236 121 105
0.0800276 0.18579 -0.0429773 229 135 123
0.0796553 0.192606 -0.0441839 93 64 60
0.0784708 0.181064 -0.0500985 150 93 85
0.0769756 0.180174 -0.046032 92 42 35
0.077349 0.1942 -0.0392073 165 117 107
0.0811227 0.19477 -0.0396039 195 128 116
0.0802507 0.195375 -0.0392169 215 120 107
0.0830443 0.190682 -0.03917 255 193 182
0.0796365 0.183442 -0.0456548 211 100 91
0.0746396 0.190549 -0.0392188 161 113 104
0.0802859 0.195667 -0.039358 172 115 103
0.0779004 0.186529 -0.0427315 173 97 89
0.078204 0.19222 -0.0400738 169 115 103
0.0695208 0.18464 -0.0444603 166 93 83
0.0651513 0.180802 -0.035901 75 42 39
0.0681325 0.190345 -0.0298354 182 126 118
0.0810523 0.196009 -0.0391396 190 106 94
0.0712343 0.185376 -0.0329523 45 26 24
0.0752842 0.154198 -0.0195954 0 0 0
0.0803815 0.187319 -0.0405238 126 70 60
0.0787607 0.190053 -0.0402845 167 90 81
0.0756049 0.192809 -0.0406209 156 113 106
0.0763006 0.193708 -0.0398069 205 122 108
0.0731727 0.189551 -0.0376132 213 136 122
0.0745581 0.19192 -0.0442331 205 126 113
0.0784048 0.189767 -0.039504 187 116 102
0.0748974 0.191296 -0.040719 206 117 104
0.0770595 0.189662 -0.0390816 171 97 89
0.0809097 0.188368 -0.0358861 255 152 136
0.0807833 0.195926 -0.0386636 226 126 111
0.0760437 0.189308 -0.0416447 232 126 110
0.0802332 0.192823 -0.0375417 181 90 78
0.0711871 0.190996 -0.0431724 165 103 91
0.0781805 0.187874 -0.0412137 132 88 74
0.0803517 0.190514 -0.0464884 201 116 102
0.0733703 0.189596 -0.039479 151 84 75
0.0663271 0.177827 -0.0455196 0 0 0
0.0793172 0.194257 -0.0408746 146 89 79
0.0728958 0.191781 -0.0351739 103 58 52
0.0765977 0.178108 -0.0432055 144 80 66
0.070505 0.187509 -0.0406276 204 113 102
0.0682065 0.184573 -0.036953 79 48 45
0.0771668 0.192877 -0.0433583 113 63 56
0.0755551 0.194373 -0.0384566 142 94 84
0.0809795 0.192588 -0.0408789 211 121 107
0.0801022 0.193027 -0.033957 62 41 39
0.0828617 0.193959 -0.0354726 63 40 39
0.0805479 0.191005 -0.040113 232 124 111
0.0884191 0.190849 -0.0404152 100 67 64
0.0810063 0.1913 -0.0378562 87 47 41
0.0754534 0.152193 -0.0179894 0 0 0
0.0757779 0.192584 -0.0388854 227 130 118
0.0790983 0.191247 -0.0427812 229 135 117
0.0763874 0.192455 -0.0406907 203 135 122
0.079995 0.185166 -0.0431784 70 43 41
0.0786543 0.192989 -0.0407518 208 111 97
0.0798367 0.19525 -0.0363004 156 107 99
0.0756416 0.188483 -0.0434934 184 109 94
0.0803092 0.192961 -0.0325227 235 146 132
0.0713312 0.19661 -0.0374845 119 80 73
0.0780895 0.190662 -0.0396937 128 75 65
0.0771855 0.194362 -0.0433162 255 158 139
0.0734099 0.189768 -0.0371388 166 115 105
0.0787135 0.191102 -0.0413534 112 87 85
0.0725814 0.192023 -0.0380445 164 95 86
0.0756728 0.191513 -0.0356076 131 103 95
0.0709692 0.19459 -0.0342797 172 113 104
0.0765001 0.186165 -0.0427883 112 59 51
0.0755198 0.194835 -0.0413706 134 89 82
0.0730327 0.194204 -0.0386543 219 136 124
0.0746095 0.196012 -0.0382366 130 83 77
0.0767349 0.191795 -0.0394233 167 96 85
0.0803392 0.183982 -0.042628 37 18 18
0.0735125 0.195517 -0.0362034 242 120 106
0.0776918 0.189857 -0.0419831 193 105 91
0.0785891 0.193732 -0.0439058 197 114 100
0.0737631 0.194942 -0.0374707 221 127 114
0.0772169 0.189265 -0.0371154 127 100 93
0.0760426 0.192858 -0.0344312 140 125 120
0.0777727 0.193993 -0.0449727 150 93 85
0.0787145 0.192179 -0.0419436 223 129 116
0.0751762 0.19341 -0.0422015 192 113 101
0.0732606 0.191127 -0.0398153 191 118 107
0.0858657 0.187254 -0.0344485 224 135 122
0.0720303 0.191828 -0.0396734 205 108 95
0.0773443 0.189087 -0.0438884 167 99 89
0.0694949 0.196986 -0.0361369 153 91 82
0.0793031 0.190997 -0.0470478 171 111 106
0.0759958 0.192355 -0.0361142 171 128 114
0.0790459 0.194926 -0.0385494 118 85 79
0.0779923 0.189664 -0.0438186 97 68 63
0.0808543 0.186536 -0.041099 136 100 93
0.0765097 0.193089 -0.0401962 121 75 69
0.0764607 0.190022 -0.0394503 141 109 101
0.0788298 0.186353 -0.0427956 134 108 101
0.0817979 0.191668 -0.0408673 174 107 98
0.0772113 0.182141 -0.0444066 198 114 102
0.0708423 0.185551 -0.0293871 175 105 95
0.079841 0.190933 -0.0346463 228 113 99
0.0804613 0.188058 -0.0389898 200 118 105
0.0710017 0.190849 -0.0378678 208 116 102
0.0756813 0.190807 -0.0355765 194 111 100
0.0779928 0.190678 -0.0411062 210 122 110
0.0784215 0.191722 -0.0406227 186 112 103
0.0772114 0.192792 -0.0426868 172 97 86
0.0765738 0.1927 -0.0409772 255 150 131
0.070087 0.184155 -0.04295 138 70 61
0.0671222 0.186441 -0.0401452 183 95 84
0.0675279 0.183805 -0.0416288 175 92 80
0.0701414 0.194115 -0.0379904 198 103 93
0.0655842 0.186342 -0.0437638 182 95 82
0.0742391 0.191284 -0.0417639 200 124 111
0.0802669 0.192094 -0.039381 255 162 147
0.0674071 0.185392 -0.0426438 173 88 77
0.0811854 0.183814 -0.0407515 179 103 92
0.0792596 0.184325 -0.0466603 173 96 85
0.0814989 0.191287 -0.0390315 159 103 90
0.0658851 0.185346 -0.0440922 181 95 82
0.0780479 0.186543 -0.0485596 185 91 82
0.0831896 0.187247 -0.0352483 158 95 85
0.0799044 0.17801 -0.0454823 70 39 38
0.0733931 0.188378 -0.0332431 219 161 151
0.077506 0.190436 -0.0383001 200 116 103
0.0856058 0.195509 -0.0411772 208 117 105
0.0820782 0.187126 -0.0345011 233 129 111
0.0795682 0.19187 -0.0375493 255 182 164
0.0732327 0.190471 -0.0373303 255 170 152
0.0795309 0.188263 -0.0417226 255 147 129
0.0660219 0.187898 -0.0340786 227 109 92
0.0756777 0.19524 -0.038299 254 148 132
0.0751751 0.19272 -0.0412698 244 144 126
0.0813416 0.183715 -0.0452222 141 78 69
0.08427 0.185237 -0.0476935 241 131 116
0.0787405 0.190216 -0.0442309 193 112 99
0.0703811 0.192498 -0.0344818 224 129 113
0.0835381 0.193504 -0.0366235 255 139 122
0.0836875 0.188593 -0.0332946 77 50 47
0.0799811 0.194151 -0.0407276 119 70 62
0.075598 0.196774 -0.0370935 152 101 92
0.0697267 0.192833 -0.0353944 112 67 62
0.0800085 0.183692 -0.0478826 154 113 106
0.0809002 0.189375 -0.0370391 214 122 108
0.0737006 0.187145 -0.0296611 149 109 100
0.077302 0.185077 -0.0450364 155 78 69
0.0690513 0.184414 -0.0441481 189 101 91
0.0689097 0.176571 -0.037506 80 47 40
0.0669871 0.188996 -0.0299524 58 36 34
0.080704 0.193929 -0.0408886 171 96 87
0.0816862 0.188849 -0.0360219 194 116 103
0.0721205 0.189329 -0.0405042 221 129 117
0.0744074 0.190572 -0.044531 206 128 114
0.0814685 0.183494 -0.0489349 201 114 101
0.0758477 0.18582 -0.0456586 160 92 82
0.0791898 0.189907 -0.0424269 220 118 103
0.0689208 0.176754 -0.0408063 94 47 41
0.0662863 0.18015 -0.0414813 98 52 46
0.0703184 0.193155 -0.0378657 113 70 64
0.0725971 0.192929 -0.0289832 194 106 96
0.076282 0.193086 -0.0398309 226 129 115
0.087176 0.191392 -0.0261486 50 26 23
0.0776171 0.19283 -0.0440491 98 54 48
0.0765654 0.196048 -0.0378279 226 129 117
0.0741561 0.193093 -0.0400486 201 140 127
0.0755 0.194559 -0.032674 255 188 168
0.0721763 0.19192 -0.0400522 125 85 79
0.0717457 0.191419 -0.0415062 172 116 103
0.0846819 0.186526 -0.0350701 163 98 87
0.0806988 0.195787 -0.0404218 169 100 91
0.0765999 0.194751 -0.0432769 112 93 87
0.0846905 0.187817 -0.0377308 118 72 66
0.0784928 0.191898 -0.0426287 188 105 93
0.0707815 0.190516 -0.0348149 178 107 94
0.0763873 0.193518 -0.0420857 119 100 95
0.077552 0.192464 -0.03754 183 133 120
0.07778 0.195625 -0.0379097 148 90 83
0.077934 0.182372 -0.0432638 215 121 108
0.0732374 0.193504 -0.0403383 202 114 102
0.0785156 0.189139 -0.0444652 188 105 93
0.0717071 0.18912 -0.0417744 219 120 108
0.0793822 0.186119 -0.0476752 193 105 95
0.0726315 0.190789 -0.0362594 158 110 101
0.0815041 0.194735 -0.0385732 99 60 56
0.0759507 0.194593 -0.0366533 124 91 85
0.0672387 0.192916 -0.0402616 129 89 80
0.0749203 0.190807 -0.0363608 124 91 86
0.0712443 0.192576 -0.0373409 169 106 97
0.0749705 0.19343 -0.0381659 210 128 115
0.0737212 0.196527 -0.033685 216 112 97
0.0813103 0.187227 -0.0336823 197 103 92
0.0838496 0.187597 -0.036072 193 97 85
0.0793095 0.183775 -0.0448435 233 126 111
0.0808715 0.19521 -0.040752 227 143 127
0.0788563 0.188101 -0.0422217 179 106 94
0.0755936 0.193491 -0.0371373 197 113 103
0.081104 0.192784 -0.0405369 201 147 134
0.0799124 0.191508 -0.0392118 188 138 126
0.0687087 0.188623 -0.0273833 99 53 46
0.0841011 0.178798 -0.0417297 151 110 100
0.0771797 0.189781 -0.0313752 217 147 134
0.0810161 0.191793 -0.0399801 183 98 88
0.0801654 0.194067 -0.0313938 185 111 99
0.0748326 0.193507 -0.0374984 180 98 89
0.0713358 0.17557 -0.0393455 0 0 0
0.0799853 0.192078 -0.0333256 202 110 106
0.0771105 0.1945 -0.0418496 190 108 97
0.0606866 0.178022 -0.0419751 0 0 0
0.0757941 0.185954 -0.041888 163 85 76
0.0794788 0.192699 -0.0421176 223 127 127
0.0790413 0.189919 -0.0377817 176 101 90
0.0734119 0.192933 -0.0407747 173 118 106
0.0758115 0.19496 -0.0378541 145 90 83
0.0756257 0.195416 -0.034433 151 103 92
0.0788572 0.190363 -0.0360935 225 145 130
0.0802523 0.19432 -0.0358953 152 77 69
0.0781204 0.194681 -0.0370166 97 63 56
0.0720489 0.1954 -0.0387673 162 97 88
0.0756806 0.190811 -0.0394472 180 109 96
0.0805955 0.178657 -0.046948 76 39 36
0.0836874 0.195585 -0.0345231 222 130 116
0.0767938 0.189533 -0.0370388 217 127 113
0.0755912 0.194405 -0.0368398 241 145 129
0.0714436 0.189325 -0.0431578 232 127 115
0.0817419 0.183881 -0.0457867 164 89 81
0.0822362 0.187001 -0.0315566 130 76 70
0.0729849 0.195056 -0.0391399 255 177 157
0.0727447 0.193768 -0.0371929 225 112 97
0.070227 0.180346 -0.0400864 139 81 73
0.073549 0.190079 -0.0379666 184 88 78
0.0773859 0.19148 -0.0438167 170 105 93
0.0804938 0.193829 -0.0371251 229 135 121
0.0759469 0.191238 -0.0419915 220 122 122
0.0724873 0.182773 -0.0434668 227 138 129
0.0817067 0.188627 -0.0387009 226 129 114
0.0787011 0.186565 -0.044429 159 100 90
0.0722697 0.193899 -0.0406001 181 113 101
0.07518 0.19043 -0.0376406 209 119 106
0.0759429 0.18989 -0.0376395 206 129 116
0.0792684 0.192755 -0.0427115 165 88 78
0.0786597 0.191231 -0.0385242 184 126 113
0.0784305 0.190855 -0.0382061 254 147 129
0.0794875 0.187746 -0.0368247 205 113 102
0.0762447 0.191011 -0.0391557 242 133 117
0.0808846 0.188512 -0.0431334 186 131 122
0.0766933 0.189917 -0.0448771 76 38 32
0.0674066 0.178565 -0.0405863 58 38 34
0.0761773 0.196515 -0.0317023 104 62 55
0.0760038 0.190967 -0.0381301 245 143 127
0.0810977 0.191537 -0.0393911 217 129 118
0.0778833 0.19238 -0.0412042 235 133 119
0.0805874 0.190646 -0.03932 244 182 170
0.0825214 0.185948 -0.0397545 198 98 88
0.0781166 0.192021 -0.0355005 255 131 108
0.0741581 0.190655 -0.0334962 196 111 100
0.0783296 0.189903 -0.0420849 217 129 119
0.0776928 0.190836 -0.0426357 189 110 101
0.0833703 0.187603 -0.040607 255 194 176
0.0727383 0.194918 -0.038649 255 184 166
0.0800099 0.190412 -0.0437523 255 161 147
0.0780014 0.195821 -0.0383973 176 109 99
0.0743359 0.193904 -0.0368878 220 132 121
0.0769961 0.193583 -0.0408125 241 125 111
0.0779829 0.191914 -0.0397916 240 139 125
0.0730807 0.189719 -0.0378148 245 132 112
0.0791003 0.1889 -0.041011 245 159 144
0.0720962 0.196232 -0.0370144 205 121 110
0.0795796 0.192506 -0.0412346 172 95 89
0.0786696 0.193781 -0.0398328 216 119 105
0.082809 0.178661 -0.0448713 163 101 89
0.0744853 0.192741 -0.041217 237 117 100
0.0826037 0.178533 -0.0485551 63 28 25
0.0786933 0.180611 -0.0430192 158 101 93
0.0796082 0.177099 -0.0434033 91 47 43
0.0821542 0.188194 -0.0468565 149 78 67
0.0716146 0.19306 -0.0314225 140 91 82
0.0834163 0.176194 -0.0487904 0 0 0
0.0789499 0.192288 -0.0380648 96 55 53
0.0709313 0.192074 -0.0367792 215 121 109
0.0815728 0.190917 -0.0416127 255 198 186
0.0748277 0.189544 -0.0440341 215 113 103
0.0792909 0.190392 -0.0424232 171 99 88
0.0666215 0.177681 -0.0395488 0 0 0
0.085255 0.18695 -0.0346349 159 107 99
0.0753684 0.188232 -0.0401386 102 64 59
0.0791497 0.18684 -0.043534 111 63 59
0.0809949 0.182221 -0.0423407 123 80 74
0.072962 0.190478 -0.0421534 108 77 72
0.0762312 0.191879 -0.0368916 196 137 128
0.0756663 0.19253 -0.0383767 210 162 154
0.0771356 0.188217 -0.0417481 218 135 122
0.0744612 0.191447 -0.0364805 252 141 124
0.0761782 0.190538 -0.0340848 241 142 131
0.0772695 0.192214 -0.0396503 198 123 109
0.0770872 0.189014 -0.0387651 178 110 97
0.0827627 0.186354 -0.0410761 132 74 62
0.075616 0.161569 -0.0183164 0 0 0
0.0782456 0.190083 -0.0400275 126 76 69
0.0777616 0.18824 -0.0406515 212 123 119
0.0714249 0.191246 -0.0376235 191 105 94
0.0737846 0.1891 -0.0367562 224 124 112
0.0736511 0.192589 -0.0393514 255 143 125
0.0774754 0.193181 -0.0376074 255 210 191
0.0762999 0.192276 -0.0373502 255 214 192
0.0779819 0.190806 -0.0369079 167 105 93
0.0721583 0.191525 -0.0340004 170 110 101
0.0823055 0.184185 -0.0489046 196 109 96
0.0760462 0.188805 -0.0392975 216 134 120
0.0776684 0.190736 -0.0371912 186 108 98
0.0761664 0.188044 -0.0432933 110 68 63
0.0808069 0.194678 -0.0411206 106 75 72
0.076413 0.194943 -0.037208 104 56 50
0.0827807 0.190522 -0.0343083 107 66 64
0.0767085 0.191932 -0.043334 234 140 123
0.0762789 0.192074 -0.0426965 116 72 70
0.0760521 0.187683 -0.0476786 108 58 51
0.0779349 0.194283 -0.0381065 240 129 115
0.0779678 0.188207 -0.042054 119 73 71
0.0742582 0.193465 -0.0393022 201 102 89
0.0712796 0.19435 -0.0379376 172 108 102
0.0777487 0.184891 -0.0438792 152 90 81
0.0838111 0.188696 -0.0361615 222 124 111
0.0786274 0.187703 -0.0423049 91 47 44
0.0754097 0.18931 -0.0379354 255 143 126
0.07756 0.194659 -0.0411534 255 149 132
0.0752086 0.193942 -0.0349352 152 91 77
0.0804772 0.191674 -0.0372863 197 126 115
0.0752645 0.189949 -0.0376721 180 115 103
0.0779174 0.1903 -0.0407008 152 101 93
0.0717068 0.186172 -0.0319487 98 58 52
0.0796924 0.191624 -0.0428174 152 85 77
0.0707597 0.194989 -0.032354 101 73 67
0.0755919 0.195972 -0.0401684 166 102 90
0.0789972 0.187063 -0.0423667 99 62 59
0.0805481 0.190526 -0.0373668 128 112 107
0.0802655 0.195321 -0.0349898 113 85 77
0.0779063 0.192181 -0.0387355 186 121 109
0.0729722 0.191285 -0.0391725 144 96 88
0.0735566 0.194872 -0.036829 159 95 86
0.0753187 0.195765 -0.0367322 119 96 90
0.0725531 0.196384 -0.0352969 147 87 79
0.0762955 0.194041 -0.0399839 185 120 107
0.0819682 0.192446 -0.0436681 118 75 71
0.08263 0.192088 -0.0389257 183 120 106
0.0707602 0.192599 -0.0396274 231 135 121
0.0808042 0.192661 -0.0437328 158 101 87
0.0725829 0.191663 -0.0350392 203 118 104
0.0698725 0.194864 -0.0411521 227 115 99
0.0775446 0.19082 -0.0419501 204 114 99
0.0799315 0.190986 -0.0465825 157 103 94
0.0741048 0.193201 -0.036403 174 102 92
0.0749384 0.192167 -0.044927 190 125 108
0.0762704 0.194478 -0.0423481 145 94 88
0.0823606 0.193778 -0.036386 131 84 78
0.0764601 0.193492 -0.0387529 196 129 116
0.0784386 0.1864 -0.0492079 151 91 0
0.0790099 0.192575 -0.0394742 155 100 90
0.0807141 0.194073 -0.0415011 158 117 107
0.0791536 0.189193 -0.0405488 170 105 97
0.0769645 0.191568 -0.0405176 219 116 107
0.0780056 0.188907 -0.043369 128 105 104
0.0729883 0.195602 -0.0348632 119 86 79
0.0764542 0.194277 -0.0398069 189 123 107
0.0799903 0.192414 -0.0425755 196 103 91
0.077212 0.191705 -0.0333267 123 82 72
0.0790866 0.180001 -0.0421161 187 135 127
0.079671 0.178842 -0.0449262 168 105 95
0.0678936 0.181256 -0.0419177 157 79 69
0.0796555 0.194385 -0.0424791 207 117 104
0.078747 0.186314 -0.049332 156 84 75
0.0686794 0.19183 -0.0433467 217 141 127
0.0715019 0.190865 -0.0430723 169 97 86
0.0752971 0.19123 -0.0421452 192 132 121
0.0852874 0.190267 -0.0346622 210 120 106
0.0856256 0.190465 -0.0347793 150 82 74
0.0782253 0.190496 -0.0395161 228 118 104
0.0717271 0.192769 -0.0389297 118 77 71
0.08042 0.183742 -0.0481898 189 109 99
0.0664123 0.187669 -0.0427623 171 76 66
0.0850658 0.189142 -0.0405014 155 84 73
0.0813598 0.195876 -0.039135 231 130 115
0.0704534 0.192058 -0.0355125 231 160 146
0.0717806 0.19539 -0.0338707 255 184 166
0.0772667 0.190178 -0.0383434 173 97 87
0.0729677 0.19016 -0.0421534 245 125 105
0.0883794 0.192837 -0.0377516 230 146 131
0.0791306 0.181816 -0.0440055 156 82 71
0.0831891 0.187881 -0.0475858 210 110 94
0.0830442 0.190682 -0.0391701 255 193 182
0.0796365 0.183442 -0.0456544 211 100 91
0.0746387 0.190546 -0.0392182 161 113 104
0.0695209 0.18464 -0.0444603 166 93 83
0.0681347 0.190342 -0.029836 182 126 118
0.0810012 0.195933 -0.0391166 190 106 94
0.0803814 0.187318 -0.0405236 126 70 60
0.0711874 0.190996 -0.0431722 165 103 91
0.0803515 0.190514 -0.0464874 201 116 102
0.0771689 0.192861 -0.0433507 113 63 56
0.0805362 0.190981 -0.0400974 232 124 111
0.0884174 0.190847 -0.0404139 100 67 64
0.0756378 0.188481 -0.0434794 184 109 94
0.0750057 0.194941 -0.0394821 119 63 53
0.0771863 0.194348 -0.0432989 255 158 139
0.0709693 0.19459 -0.0342799 172 113 104
0.075532 0.194783 -0.0413307 134 89 82
0.07675 0.19175 -0.0394267 167 96 85
0.0760632 0.192789 -0.0344593 140 125 120
0.0694981 0.196982 -0.036137 153 91 82
0.0792754 0.190826 -0.0467355 171 111 106
0.0825745 0.19273 -0.0429295 173 127 113
0.0814987 0.191287 -0.0390315 159 103 90
0.0660224 0.187898 -0.0340785 227 109 92
0.0755981 0.196774 -0.0370937 152 101 92
0.0776172 0.192829 -0.0440481 98 54 48
0.0846818 0.186526 -0.0350701 163 98 87
0.0793822 0.186119 -0.0476751 193 105 95
0.0672435 0.192912 -0.040259 129 89 80
0.0759535 0.190202 -0.0396258 193 100 87
0.0822585 0.183924 -0.0397507 231 124 108
0.0756101 0.191437 -0.0407017 255 132 113
0.0766601 0.190994 -0.0404933 193 99 89
0.0732139 0.191108 -0.0349264 236 151 136
0.0763329 0.191291 -0.0412785 207 90 78
0.078187 0.192697 -0.0394543 194 114 102
0.0853343 0.190426 -0.0328602 127 68 54
0.0759147 0.191397 -0.0440669 137 74 65
0.0806052 0.191786 -0.034326 187 119 108
0.0809138 0.193015 -0.0391449 211 121 106
0.0697695 0.188839 -0.0405929 139 82 75
0.079153 0.189881 -0.0357987 214 119 114
0.0704401 0.181904 -0.0374192 158 114 100
0.0820009 0.19624 -0.0395446 240 152 138
0.0717118 0.183311 -0.0386142 111 70 63
0.0791329 0.189513 -0.0450178 175 90 77
0.0695761 0.193147 -0.0340387 148 89 80
0.0744451 0.190271 -0.039267 227 113 101
0.0744415 0.190538 -0.0471983 194 113 101
0.0693702 0.196029 -0.0376836 220 115 99
0.0754832 0.194617 -0.0316946 204 118 103
0.0724028 0.189059 -0.0320757 112 74 68
0.0754731 0.191736 -0.0405855 236 141 124
0.078402 0.187028 -0.0399077 189 103 93
0.0792936 0.192875 -0.040249 142 95 87
0.0733792 0.189233 -0.0359613 202 101 86
0.0745997 0.17574 -0.0435627 132 80 73
0.0768387 0.184422 -0.0435335 90 47 43
0.081112 0.148469 -0.0169467 0 0 0
0.0812452 0.186186 -0.033562 221 147 135
0.0717992 0.194743 -0.0374305 177 106 99
0.0750158 0.191212 -0.0400807 205 117 105
0.0740968 0.193678 -0.039097 195 110 98
0.0849547 0.137446 -0.0170655 0 0 0
0.0730899 0.19519 -0.0402251 155 82 73
0.0813894 0.194643 -0.041974 193 112 102
0.0803483 0.194389 -0.0383149 225 135 122
0.0802962 0.192483 -0.0393498 230 146 130
0.0782523 0.18878 -0.0450618 255 150 151
0.0815228 0.186916 -0.0330824 176 111 96
0.0828121 0.189766 -0.0455475 236 129 121
0.0689115 0.187103 -0.0341731 226 121 106
0.0788305 0.190036 -0.0417447 109 61 57
0.0707006 0.18386 -0.0400032 146 81 71
0.0806185 0.193995 -0.0399592 141 77 67
0.0752211 0.193222 -0.038694 148 96 87
0.0715764 0.182023 -0.0418733 70 60 58
0.0613177 0.178075 -0.0414141 0 0 0
0.0779558 0.188909 -0.0423983 144 91 82
0.0895842 0.193584 -0.0361602 79 45 41
0.0745792 0.186444 -0.0401753 209 110 99
0.0751133 0.18925 -0.0385186 255 160 138
0.0718061 0.191639 -0.0421364 131 76 68
0.0685343 0.189786 -0.0331206 168 125 114
0.0814701 0.188955 -0.0321243 47 22 19
0.0740854 0.19189 -0.0369506 197 106 94
0.0743268 0.186241 -0.0311812 250 126 107
0.0787387 0.192011 -0.0341529 253 134 113
0.0684766 0.193264 -0.0291128 216 121 108
0.0723346 0.192839 -0.0373604 255 209 186
0.0715721 0.192806 -0.0437403 252 143 125
0.0774164 0.19281 -0.0415633 119 70 62
0.0779019 0.19177 -0.0468698 204 109 96
0.0794804 0.18986 -0.0421442 153 91 79
0.0753518 0.19435 -0.0313514 205 127 115
0.081034 0.190314 -0.0441527 98 67 65
0.0689009 0.180359 -0.0393105 58 43 38
0.076562 0.158263 -0.0149104 0 0 0
0.0681708 0.192018 -0.0369559 174 103 94
0.0781683 0.194581 -0.0371016 255 152 132
0.069447 0.188102 -0.034096 37 18 14
0.0808632 0.19334 -0.0452256 176 111 101
0.0797177 0.164674 -0.02644 0 0 0
0.0771091 0.193183 -0.040194 250 131 116
0.0726854 0.195593 -0.0392021 224 141 125
0.0707892 0.17921 -0.0396314 0 0 0
0.0818994 0.19344 -0.0397594 208 123 110
0.0803104 0.195022 -0.0405605 174 124 116
0.0820487 0.191032 -0.036527 100 71 61
