ply
format ascii 1.0
comment Created by Open3D
element vertex 1556
property double x
property double y
property double z
end_header
0.060487 0.0531756 -0.0174997
0.0521511 0.0350942 -0.0237317
0.032741 0.0328959 -0.0169956
0.0724015 0.0573355 -0.0437925
0.0485072 0.0791572 -0.0219042
0.0650256 0.0741693 -0.0383184
0.0684671 0.0630016 -0.043311
0.0674888 0.0708595 -0.0260703
0.0560332 0.0338867 -0.0186909
0.0700709 0.0460558 -0.0345913
0.0580362 0.0465844 -0.0132346
0.0418798 0.0827189 -0.0336223
0.0690502 0.0613294 -0.0465696
0.0678305 0.0538348 -0.0169031
0.0693726 0.0547184 -0.0178691
0.0306983 0.0468326 -0.0349576
0.0677875 0.0524256 -0.0222232
0.0361191 0.0390674 -0.0137526
0.0568192 0.0350749 -0.0353208
0.028988 0.0445702 -0.034699
0.0651136 0.0662654 -0.0462154
0.0484049 0.0345276 -0.0226714
0.0680503 0.028871 -0.0589274
0.0341083 0.0600483 -0.0325688
0.0627002 0.0353464 -0.0300591
0.0359624 0.0583647 -0.0342214
0.0582383 0.0330452 -0.0180758
0.059398 0.0456378 -0.0141775
0.0686062 0.0475253 -0.01344
0.0736614 0.0491407 -0.0409522
0.0221633 0.0549632 -0.0243842
0.0650522 0.0669407 -0.0116268
0.0329548 0.0415129 -0.0345822
0.0783251 0.0651444 -0.0307638
0.0397843 0.0274037 -0.05199
0.0486144 0.0475489 -0.0189048
0.0426362 0.0316619 -0.0251789
0.0675719 0.0580395 -0.0522078
0.0773479 0.0599618 -0.0348294
0.032786 0.0336744 -0.0365021
0.0384073 0.0246386 -0.0458424
0.0585786 0.0776504 -0.0297392
0.0204809 0.0487293 -0.012128
0.0497091 0.0755044 -0.0189435
0.0652686 0.0400306 -0.0189585
0.0371284 0.0262799 -0.0386855
0.0350705 0.0358172 -0.047752
0.062089 0.035376 -0.0171202
0.0406683 0.0365577 -0.0502734
0.026304 0.0625872 -0.017935
0.0310158 0.0371738 -0.0188414
0.0668212 0.0567107 -0.00988944
0.0685775 0.0656189 -0.00933065
0.0485786 0.0798461 -0.0324114
0.0550182 0.0767896 -0.0326224
0.0569296 0.0730989 -0.0390613
0.039791 0.0260172 -0.0418699
0.0360522 0.0340182 -0.0441581
0.0492499 0.0350006 -0.0237372
0.0280061 0.0568982 -0.0172279
0.0551538 0.0788126 -0.0245554
0.0380928 0.0367894 -0.0506056
0.0380407 0.0231046 -0.042729
0.0714562 0.0510684 -0.0374814
0.0436362 0.038627 -0.0593854
0.0343309 0.0410965 -0.0139759
0.0353726 0.0370064 -0.0145988
0.0271745 0.0446077 -0.0126899
0.0396235 0.0460237 -0.0056525
0.0400874 0.0638865 -0.0291563
0.0766525 0.0605397 -0.0257236
0.0220665 0.0543091 -0.0350372
0.0564514 0.035799 -0.0271656
0.039932 0.0418598 -0.0586186
0.0612636 0.0632737 -0.0158283
0.0710038 0.0565717 -0.023741
0.0696591 0.0489289 -0.0164727
0.061669 0.0518641 -0.011268
0.040498 0.0632996 -0.0456783
0.0360869 0.0652192 -0.0352149
0.0554778 0.0735603 -0.0243552
0.0576648 0.0759686 -0.0178143
0.0307461 0.0644977 -0.0289032
0.0619109 0.0341272 -0.0301374
0.0695897 0.0626764 -0.0428478
0.0693327 0.0581152 -0.0500142
0.033514 0.0662673 -0.0227314
0.0584521 0.0751855 -0.0366743
0.0539572 0.0748933 -0.0386232
0.0460592 0.0243836 -0.0464307
0.0447618 0.0415331 -0.0104962
0.0654221 0.07417 -0.0183764
0.0417224 0.0328275 -0.0261127
0.0663648 0.071349 -0.0281108
0.0331704 0.0337724 -0.0393603
0.035963 0.0453604 -0.0512855
0.0691582 0.0701228 -0.0352209
0.0697461 0.0688272 -0.0322418
0.0421195 0.0235559 -0.0351578
0.0511172 0.04763 -0.0105598
0.0382527 0.0378408 -0.0491362
0.0288375 0.029241 -0.0267715
0.0431547 0.0230907 -0.0411172
0.0463251 0.0336244 -0.0159179
0.0617521 0.0681097 -0.0432448
0.0712249 0.0618306 -0.0319813
0.0412404 0.0424191 -0.0636197
0.0331522 0.0442361 -0.0525775
0.0329824 0.0403207 -0.0451196
0.0597396 0.0741666 -0.00717361
0.0637487 0.0637755 -0.0523707
0.073842 0.0603708 -0.052704
0.0622062 0.0621727 -0.0549211
0.059989 0.0535864 -0.00656606
0.0576797 0.0765432 -0.0197158
0.0619217 0.068031 -0.0464997
0.0565738 0.0772621 -0.0243401
0.064493 0.0576026 -0.00994006
0.0684542 0.0551426 -0.0175684
0.0607945 0.0596664 -0.0121539
0.0427018 0.0322335 -0.0232893
0.0749294 0.062422 -0.0252338
0.0678395 0.0472237 -0.0397593
0.0512708 0.0777115 -0.0255513
0.078858 0.0627052 -0.0355207
0.0405248 0.0620938 -0.0149798
0.058155 0.0693801 -0.0492277
0.0347787 0.0405371 -0.0242292
0.0648807 0.0413149 -0.0227366
0.0529458 0.0721394 -0.0405088
0.0584158 0.0695696 9.87059e-05
0.0389797 0.055921 -0.0427603
0.0502038 0.0720669 -0.0421231
0.0671604 0.0578787 -0.0480441
0.0456503 0.0744833 -0.0335631
0.0739214 0.0408011 -0.0204003
0.0612526 0.0347924 -0.0277529
0.0735058 0.0553702 -0.0510335
0.0279659 0.0460356 -0.0243606
0.0332199 0.0422981 -0.0369168
0.0320637 0.0425392 -0.0152452
0.0727821 0.0409633 -0.0339325
0.0383798 0.0320844 -0.0276979
0.0678518 0.069676 -0.0231264
0.0402373 0.0457406 -0.00217405
0.0617223 0.0539651 -0.0140474
0.0706053 0.0551635 -0.0237601
0.074111 0.0863082 -0.0326281
0.0693355 0.058674 -0.0428149
0.0355246 0.0353168 -0.0216267
0.0447365 0.0801659 -0.0216851
0.0687206 0.0618781 -0.0434309
0.075542 0.0536261 -0.0485767
0.0520385 0.0474376 -0.0102163
0.0679394 0.0532999 -0.0164538
0.0267631 0.0405875 -0.0444322
0.0723159 0.055306 -0.0551891
0.0633631 0.048347 -0.0144888
0.0710415 0.061471 -0.0455848
0.0304328 0.048252 -0.0385267
0.0648687 0.0351495 -0.0319342
0.0708232 0.064915 -0.0477345
0.0651972 0.0359161 -0.0304199
0.0256928 0.0481909 -0.0263405
0.0366505 0.0435098 -0.0455988
0.0269923 0.0446709 -0.0156891
0.0591875 0.0350763 -0.0354798
0.0455528 0.0293313 -0.0217765
0.0738479 0.065141 -0.0296332
0.0591805 0.0359179 -0.017668
0.0677627 0.0448609 -0.00937005
0.0754092 0.0432934 -0.032792
0.0681219 0.0657393 -0.016584
0.0399957 0.026859 -0.0500918
0.0268251 0.0542867 -0.0160363
0.0688936 0.0588964 -0.0504487
0.0384162 0.0257245 -0.0384771
0.077767 0.0568842 -0.0332863
0.0322539 0.031625 -0.0353115
0.0235046 0.0453685 -0.0235423
0.0649297 0.0379815 -0.0171598
0.0391135 0.0278029 -0.0496886
0.0713303 0.0596485 -0.0452344
0.027285 0.0600912 -0.0173936
0.07172 0.0618243 -0.028544
0.0381314 0.0620287 -0.0423774
0.0724355 0.0638156 -0.0310213
0.0392292 0.0465342 -0.00717776
0.0638438 0.0440376 -0.0123648
0.0590304 0.0343642 -0.0187801
0.0452614 0.0489678 0.000975027
0.0602273 0.042327 -0.0109785
0.0477293 0.0338672 -0.0257332
0.0665967 0.0576336 -0.0116455
0.0696933 0.0706344 -0.00342326
0.046049 0.0812083 -0.0366056
0.0710697 0.0501973 -0.00831096
0.0585352 0.0714025 -0.0386919
0.0563823 0.0355517 -0.0243913
0.0454674 0.0744423 -0.0270225
0.0381691 0.0642436 -0.0457425
0.0726045 0.0643835 -0.0305073
0.0659104 0.05029 -0.00944625
0.0316222 0.0494258 -0.0227033
0.0251942 0.0514139 -0.0174034
0.0567923 0.0755513 -0.0287392
0.0601555 0.039539 -0.0189253
0.0679072 0.0355171 -0.0419352
0.0473084 0.0314746 -0.0603997
0.0421439 0.0305515 -0.0574679
0.0454869 0.0285727 -0.0550524
0.0504023 0.0203893 -0.0434857
0.0333368 0.0323272 -0.0162124
0.0725794 0.0638037 -0.021938
0.0512815 0.0393824 -0.0220452
0.0571725 0.0289946 -0.0311723
0.070508 0.0683364 -0.0350583
0.0574438 0.0346491 -0.0296708
0.0423281 0.0422815 -0.0615161
0.0534757 0.0248417 -0.0339834
0.0516409 0.0232298 -0.0370929
0.0661605 0.0484787 -0.0124348
0.0541205 0.0408954 -0.0194261
0.0521889 0.0773423 -0.0322796
0.0481711 0.043402 -0.00779625
0.0682345 0.0672884 -0.0165453
0.0643214 0.0699513 -0.0103184
0.0340298 0.0359202 -0.047158
0.0675551 0.0620799 -0.0453134
0.069429 0.0595589 -0.0503052
0.0320426 0.0631182 -0.0133894
0.0535981 0.074614 -0.0354869
0.0538012 0.0202537 -0.0391496
0.0338975 0.0339526 -0.0459384
0.042485 0.0304746 -0.0233993
0.0382007 0.0235503 -0.0151541
0.040546 0.0252398 -0.0562499
0.02217 0.0500675 -0.022129
0.0709158 0.0689527 -0.0326684
0.0264921 0.0478033 -0.0255751
0.0676179 0.0617084 -0.0275249
0.0443009 0.0787977 -0.0194091
0.0381257 0.0355161 -0.0122654
0.0409564 0.0342203 -0.0474022
0.0307279 0.0622482 -0.0281487
0.0370826 0.0356528 -0.0471726
0.0474757 0.033364 -0.0196936
0.0512751 0.0539774 -0.000551802
0.0435149 0.0340462 -0.0545809
0.0296718 0.030964 -0.029952
0.0440915 0.0754702 -0.0239776
0.0458556 0.034272 -0.0142383
0.0498799 0.025886 -0.0377089
0.0335363 0.0194239 -0.0468891
0.0610479 0.0744885 -0.0336884
0.0592909 0.0742325 -0.0303186
0.0577582 0.0770955 -0.0211643
0.0340491 0.0233853 -0.0229745
0.0422464 0.023942 -0.0327844
0.085292 0.0514118 -0.0267435
0.0627821 0.07502 -0.010921
0.0422957 0.0224923 -0.0560318
0.0416717 0.0252555 -0.0573568
0.045944 0.0361087 -0.058501
0.0418702 0.0272907 -0.0581505
0.0422452 0.0245454 -0.052636
0.0405216 0.0250706 -0.0578943
0.040256 0.0203458 -0.053414
0.0457992 0.0184216 -0.0504273
0.0438674 0.028084 -0.0561835
0.0443371 0.026517 -0.0550264
0.0398449 0.0232111 -0.0577965
0.0445546 0.0285141 -0.0513677
0.0474456 0.0308823 -0.0529863
0.0428333 0.0274391 -0.0574221
0.0453593 0.0267581 -0.0536534
0.0443267 0.0243828 -0.0508438
0.0463436 0.0415801 -0.0644744
0.0480773 0.0299786 -0.049028
0.0421378 0.0253809 -0.0552451
0.0444256 0.0240751 -0.0504545
0.0465449 0.0291694 -0.051358
0.0467535 0.0270778 -0.0505933
0.0451935 0.0249022 -0.0534759
0.047319 0.0194018 -0.0500532
0.0301067 0.0408407 -0.0398113
0.0341828 0.0463715 -0.0406286
0.0331541 0.0470094 -0.0403921
0.0332048 0.0442655 -0.0387152
0.0310619 0.0400198 -0.0370604
0.031341 0.0519721 -0.0388104
0.0326311 0.0476129 -0.0392843
0.031804 0.0482652 -0.0389868
0.0328692 0.0487478 -0.0397082
0.035464 0.0526199 -0.0431701
0.0367596 0.0276362 -0.0392928
0.0351842 0.0374229 -0.0293914
0.0369037 0.0327642 -0.0294161
0.0357257 0.0343128 -0.0252547
0.0344179 0.0323027 -0.0293127
0.0289347 0.0622755 -0.0285792
0.0243803 0.0614268 -0.0282252
0.0268962 0.0573053 -0.021452
0.02733 0.0601826 -0.027249
0.0352368 0.0362108 -0.0297455
0.0406585 0.0306993 -0.0249266
0.0238559 0.0599436 -0.0286371
0.0206862 0.0551841 -0.0266131
0.0282645 0.0614179 -0.0218265
0.0364895 0.0322624 -0.0306504
0.034316 0.0348043 -0.0275129
0.0342072 0.0642031 -0.0149965
0.0410987 0.0343792 -0.0215539
0.0430011 0.0336834 -0.024615
0.0404494 0.0304073 -0.0231575
0.0380144 0.0696975 -0.0267945
0.0361901 0.0658042 -0.0165991
0.042994 0.032736 -0.0221799
0.0416324 0.0326742 -0.0234374
0.0313983 0.0612955 -0.0151947
0.0318784 0.0648781 -0.0234449
0.0365829 0.0684998 -0.0226824
0.0329484 0.0585418 -0.0165161
0.0301435 0.065787 -0.0142396
0.0340472 0.0633401 -0.021768
0.0329031 0.0688546 -0.0273219
0.0400679 0.0667238 -0.0264828
0.0325464 0.0689126 -0.0150601
0.0446185 0.0363158 -0.0214585
0.0378112 0.0668104 -0.0275882
0.0404632 0.0670532 -0.0278208
0.0391397 0.0675994 -0.0263213
0.0378186 0.0690196 -0.0262955
0.042218 0.070304 -0.0176147
0.0408392 0.0693618 -0.0237327
0.0400918 0.0690045 -0.0205698
0.041524 0.0642093 -0.0250583
0.0432407 0.0303701 -0.025286
0.0383292 0.0675572 -0.0264623
0.0424205 0.0313397 -0.0225987
0.0474549 0.0336627 -0.017123
0.046825 0.0313616 -0.0248631
0.0484705 0.0274046 -0.0219506
0.037449 0.0691516 -0.0155048
0.0404142 0.0661405 -0.00941595
0.0476312 0.0319188 -0.024389
0.0401211 0.0606736 -0.0100172
0.0379709 0.0689635 -0.0260198
0.0432892 0.071693 -0.00860066
0.0419881 0.0580074 -0.00670238
0.0406772 0.068702 -0.00987286
0.0429568 0.0694325 -0.00655886
0.0431581 0.0718527 -0.0243903
0.0368748 0.0643346 -0.0135245
0.0404154 0.0649569 -0.00989984
0.0414471 0.0453365 -0.00508812
0.0415383 0.0394286 -0.0107828
0.0377253 0.0637134 -0.00978028
0.0434433 0.0672256 -0.015094
0.0457119 0.0659733 -0.00689176
0.0405798 0.0605989 -0.00905962
0.0476119 0.062512 -0.00635757
0.0521293 0.0308097 -0.0178084
0.048894 0.0639898 -0.00440511
0.0523721 0.0244102 -0.0234461
0.0442356 0.0613644 -0.00596904
0.0485248 0.0338823 -0.0175759
0.0437034 0.0691756 -0.00736368
0.0426017 0.0622356 -0.0126722
0.0496126 0.0318604 -0.0237573
0.050041 0.0671169 -0.00950201
0.0409632 0.0683101 -0.0135642
0.0473332 0.0334547 -0.0198924
0.0537111 0.0745095 -0.0150199
0.0484298 0.0666318 -0.00239044
0.0497628 0.0336802 -0.0233906
0.0495795 0.0761814 -0.0245886
0.0430375 0.058951 -0.0120045
0.0480586 0.0635332 -0.00660528
0.0446554 0.0625557 -0.0070649
0.0446931 0.0636952 -0.00843029
0.052567 0.0325445 -0.0288619
0.042673 0.0602402 -0.0115766
0.0540834 0.0338318 -0.0276313
0.0446722 0.0729254 -0.0241007
0.0469532 0.0575072 -0.0253493
0.0583493 0.0779104 -0.0160337
0.0516804 0.0343854 -0.0212068
0.0493579 0.02946 -0.021955
0.0518364 0.0351736 -0.0223141
0.0576618 0.0281448 -0.0270456
0.0389743 0.0564377 -0.0124153
0.0397247 0.0605194 -0.00999186
0.0479042 0.0644254 -0.00523154
0.048462 0.0527303 -0.00451202
0.0514048 0.0344494 -0.0195663
0.0508726 0.0626928 -0.00822385
0.0463346 0.0633537 -0.00751115
0.0510734 0.046799 -0.0151076
0.0487909 0.0663001 -0.000925593
0.04894 0.0504678 -0.0112295
0.0511987 0.0487421 -0.00858976
0.0537903 0.0355576 -0.0179869
0.0474842 0.0627584 -0.00487075
0.0489348 0.0552054 -0.017958
0.0470166 0.0553865 -0.000288612
0.0465209 0.0616008 -0.00323582
0.0541084 0.0396265 -0.0112821
0.0500188 0.0650955 -0.00217201
0.0600179 0.0253499 -0.0452341
0.0414852 0.0771516 -0.0187532
0.0551032 0.0789176 -0.0148251
0.0603099 0.0594185 -0.00260789
0.0496622 0.0526019 -0.00387318
0.0508298 0.0562943 -0.0134903
0.0555041 0.0522883 -0.0101853
0.0500594 0.0571031 -0.00604627
0.05351 0.048941 -0.0142759
0.0505413 0.05819 -0.003571
0.0441321 0.073812 -0.0204787
0.0520697 0.0437343 -0.00983979
0.0559562 0.0342373 -0.027817
0.0580314 0.0677899 0.00653006
0.0571746 0.0379888 -0.0302563
0.0550182 0.0768197 -0.0130677
0.0529747 0.0780461 -0.0200484
0.0509198 0.0750323 -0.0103892
0.0568991 0.0353197 -0.0235648
0.0525803 0.0672381 -0.000267089
0.0521563 0.0495288 -0.0122829
0.0581409 0.0341362 -0.0212511
0.0530886 0.0775812 -0.024216
0.0527017 0.0746813 -0.00944826
0.047857 0.0775001 -0.0170965
0.0575592 0.07594 0.0115183
0.0556204 0.0719564 -0.00686412
0.0535212 0.051665 -0.0204267
0.0505754 0.0752456 -0.0143978
0.0518112 0.0780589 -0.0159363
0.0518057 0.0556223 -0.00666549
0.0512214 0.0629023 -0.0071548
0.0535524 0.0754262 -0.00502014
0.0527239 0.0776273 -0.0160724
0.0515737 0.0784469 -0.023235
0.0571327 0.0603374 -0.010222
0.0598533 0.0316649 -0.031239
0.0621228 0.0330516 -0.0247493
0.0569789 0.0495714 -0.0137131
0.0614581 0.0749731 -0.0184067
0.0463911 0.0417933 -0.0648817
0.0434338 0.027961 -0.053968
0.046647 0.0198923 -0.0508674
0.0426207 0.0269642 -0.0556334
0.0469703 0.0402762 -0.0595778
0.0318308 0.0465594 -0.0383972
0.0319426 0.0502447 -0.0394193
0.0320228 0.0507011 -0.0458833
0.0365903 0.0338272 -0.0285474
0.0379142 0.0247433 -0.0298419
0.0344043 0.0346276 -0.029412
0.0357377 0.0311959 -0.0286538
0.0392753 0.0322968 -0.0282729
0.0369933 0.0313592 -0.0277418
0.0392264 0.0325799 -0.0256796
0.0392809 0.0256941 -0.0302642
0.0368264 0.037735 -0.0267589
0.0238568 0.0539248 -0.0253412
0.0382659 0.030357 -0.0238712
0.0285479 0.0622131 -0.0288979
0.0396893 0.0310789 -0.0254408
0.0385856 0.0308506 -0.0233912
0.0247904 0.0485838 -0.0144723
0.0373659 0.0335339 -0.0274322
0.0292609 0.0686729 -0.0228512
0.0429932 0.0360486 -0.0281712
0.0409041 0.0335809 -0.0236523
0.041044 0.0315399 -0.0240739
0.0404414 0.032491 -0.0243738
0.0411471 0.0399402 -0.0245289
0.0421745 0.0301182 -0.0221444
0.0364821 0.0706054 -0.0244631
0.0403145 0.0685529 -0.0270867
0.0358149 0.0689776 -0.0247292
0.0343895 0.0662092 -0.0117764
0.03798 0.0656509 -0.0156201
0.0389453 0.0700722 -0.0117772
0.0367446 0.0697505 -0.0234259
0.0432867 0.0316883 -0.0228922
0.0372126 0.0647091 -0.0185208
0.0397584 0.0707436 -0.0189406
0.0382948 0.0690697 -0.0251971
0.0388154 0.0724067 -0.0172864
0.0383631 0.0714737 -0.0241368
0.0368894 0.0646006 -0.0194657
0.0423368 0.0687523 -0.0212087
0.050204 0.03227 -0.0210172
0.0485931 0.0596124 -0.000268283
0.0385224 0.041823 -0.0259323
0.0416812 0.0671231 -0.0119887
0.0447383 0.0660091 -0.00936779
0.057609 0.0217669 -0.0472889
0.0428225 0.0638881 -0.00687126
0.0458275 0.0793777 -0.0186945
0.0449374 0.0756494 -0.0253526
0.0448517 0.075485 -0.0243561
0.0460168 0.0732552 -0.0221346
0.043934 0.0749348 -0.0221456
0.0489798 0.0409991 -0.0156307
0.0524058 0.0469681 -0.00641954
0.0398838 0.0584081 -0.0143365
0.0496914 0.0405963 -0.0189902
0.0474421 0.0592143 -0.00730698
0.0485593 0.0588653 -0.00535488
0.0436611 0.073607 -0.0254151
0.0489911 0.057197 -0.00608944
0.0490575 0.0533075 -0.0116579
0.0497272 0.0535751 -0.015608
0.0500885 0.0775076 -0.0222595
0.0457674 0.0772034 -0.0168171
0.0500575 0.0743409 -0.0224689
0.0537397 0.0778143 -0.0233124
0.0535091 0.0751592 -0.00712948
0.0478191 0.0793469 -0.0196893
0.0520069 0.080253 -0.0122398
0.0503116 0.0758908 -0.0115827
0.0481149 0.0752541 -0.0227887
0.054256 0.0774676 -0.0169243
0.0438937 0.0631635 -0.0196956
0.0589845 0.0353269 -0.0264431
0.0545247 0.0742386 -0.0187734
0.0542973 0.074433 0.000699938
0.0482385 0.0787615 -0.0277924
0.0641619 0.0740016 -0.0265889
0.0663183 0.0340077 -0.046769
0.0576843 0.071372 -0.0485579
0.0697799 0.0699128 -0.0264782
0.0730806 0.0533423 -0.0500632
0.0747666 0.060662 -0.0438973
0.0740378 0.0561044 -0.0471355
0.0691183 0.0351592 -0.0487873
0.0713324 0.0385964 -0.0510204
0.0694304 0.0402311 -0.0501157
0.06868 0.0347167 -0.0433788
0.065269 0.057599 -0.0581301
0.0680157 0.0555097 -0.0570687
0.0310848 0.0825072 -0.0169621
0.0732242 0.0417451 -0.048478
0.0683991 0.0606112 -0.00418656
0.0562479 0.036194 -0.0273952
0.05098 0.0689009 -0.0474437
0.0454278 0.0703344 -0.0329209
0.0593712 0.0575346 -0.0132561
0.071729 0.0373885 -0.0499815
0.0677587 0.0386687 -0.038539
0.0495621 0.0704057 -0.0500379
0.0602248 0.0680094 -0.0487752
0.0641261 0.0584161 -0.0130701
0.0603189 0.0703627 -0.0444252
0.0577719 0.0687631 -0.0465111
0.0542301 0.0694622 -0.0463708
0.0692179 0.0460052 -0.0356718
0.0550189 0.0740424 -0.0321424
0.0587914 0.0690679 -0.0465007
0.0683115 0.0597139 -0.0587026
0.0741375 0.0411409 -0.0455772
0.0717507 0.0565994 -0.0424088
0.0761779 0.0626239 -0.0325143
0.0727026 0.0426215 -0.0478663
0.0661931 0.0497863 -0.020752
0.0594791 0.0696653 -0.0494578
0.063602 0.0394832 -0.0269979
0.0649704 0.0581341 -0.0575358
0.0669389 0.0648432 -0.0445469
0.0751245 0.0616179 -0.0233425
0.0485396 0.0743981 -0.0355975
0.0445451 0.0707521 -0.0289365
0.0727271 0.0595035 -0.0198054
0.0697395 0.0333596 -0.0445128
0.0651651 0.0574666 -0.0580682
0.068713 0.0583534 -0.0215367
0.0573765 0.0941248 -0.0146333
0.072838 0.0561262 -0.0475146
0.0711819 0.0548749 -0.0507444
0.0635589 0.0653297 -0.040012
0.0703932 0.0609933 -0.0155789
0.0699779 0.0452374 -0.0337253
0.0717066 0.0618896 -0.0128482
0.0687681 0.0502366 -0.0189978
0.0527365 0.0698525 -0.0460878
0.0775699 0.0364585 -0.0304489
0.0724908 0.0590955 -0.0432872
0.0707325 0.0587675 -0.0164989
0.0676819 0.0425576 -0.029186
0.0602296 0.0695797 -0.0458423
0.0528204 0.0326281 -0.0175897
0.0690265 0.0355113 -0.0426611
0.0670091 0.0587463 -0.013656
0.0654409 0.0752767 -0.0257695
0.0666084 0.0423688 -0.0308438
0.0790509 0.0706237 -0.00286333
0.0396086 0.0850078 -0.0167895
0.0547614 0.0692405 -0.0480501
0.0597509 0.0532376 -0.00331559
0.0701379 0.048449 -0.0345886
0.0647418 0.0589572 -0.0585285
0.0704491 0.0386177 -0.0495851
0.0772219 0.0388225 -0.0305885
0.062493 0.0614123 -0.0479469
0.0599335 0.079084 -0.0227204
0.0773348 0.0545611 -0.0249304
0.0656235 0.0581106 -0.0325465
0.0733283 0.0501881 -0.0406884
0.0735666 0.051885 -0.0208746
0.0734368 0.047075 -0.041388
0.0617974 0.0396605 -0.0191435
0.0570154 0.0443428 -0.0137807
0.0471085 0.0844415 -0.0197782
0.0659695 0.0412668 -0.0336758
0.0634061 0.0388207 -0.0182216
0.0603774 0.0409244 -0.0285712
0.0505083 0.0286097 -0.0273682
0.0328956 0.0503759 -0.0398929
0.0791885 0.0583703 -0.0268225
0.0740012 0.0482215 -0.0409752
0.0735597 0.0577422 -0.0430518
0.0695668 0.0440284 -0.0290264
0.0708643 0.0391958 -0.0500515
0.0741728 0.0475718 -0.0416169
0.0483839 0.0748899 -0.0470955
0.08334 0.0453066 -0.0347865
0.0633027 0.0367233 -0.0237257
0.0705287 0.0487613 -0.0348818
0.0601085 0.0439549 -0.015773
0.0352617 0.0449302 -0.0434936
0.0540134 0.0331346 -0.0267218
0.0550014 0.0698242 -0.0445664
0.0627599 0.0397456 -0.0291984
0.0719184 0.0408612 -0.0373486
0.0459892 0.0772752 -0.0305636
0.0706243 0.0390738 -0.0183538
0.0653651 0.0481916 -0.0189992
0.0708742 0.0431979 -0.0338742
0.0719279 0.0438346 -0.0429195
0.0687766 0.0558447 -0.056112
0.0630183 0.0773712 -0.0319134
0.0675998 0.0412058 -0.0320092
0.0354044 0.0507862 -0.0456573
0.0707733 0.0343175 -0.0214979
0.0714825 0.0509313 -0.0360465
0.0667958 0.0738161 -0.0352961
0.0683485 0.0729054 -0.0276776
0.0677287 0.042581 -0.028322
0.0699908 0.0361485 -0.0480023
0.0579603 0.0443477 -0.0148301
0.0640552 0.0394906 -0.0304915
0.0390282 0.0334244 -0.033642
0.0677704 0.0406121 -0.0378518
0.0698591 0.0715859 -0.0330156
0.0364111 0.0456335 -0.0421407
0.0742874 0.0454321 -0.042791
0.0498349 0.03225 -0.0281119
0.0375639 0.0342205 -0.0312301
0.0715084 0.05313 -0.0377886
0.058232 0.0688875 -0.0466703
0.0324255 0.0362409 -0.0380095
0.0638975 0.0673184 -0.045034
0.0687542 0.0671601 -0.0266255
0.0400076 0.0387676 -0.0551054
0.0385174 0.0327823 -0.0527994
0.0443464 0.0406568 -0.0555562
0.0396468 0.0407903 -0.0515549
0.0430993 0.0414809 -0.0569973
0.0405684 0.0336328 -0.0543412
0.045041 0.0452676 -0.0556486
0.040657 0.0261886 -0.0505323
0.046195 0.0194924 -0.0397138
0.0735518 0.0400608 -0.0449795
0.0636707 0.0560625 -0.0528462
0.0406304 0.0945595 -0.0183953
0.0299551 0.0556383 -0.037562
0.0678042 0.0410273 -0.0137492
0.0630075 0.0392783 -0.0286447
0.0581361 0.0367421 -0.0149875
0.0352801 0.0532084 -0.0404756
0.036344 0.040873 -0.0409459
0.0406862 0.0623843 -0.0397478
0.0625572 0.0395854 -0.0316629
0.0405263 0.0463476 -0.0502808
0.0704445 0.0490464 -0.0358316
0.0346746 0.0375563 -0.0335258
0.0391125 0.0248742 -0.0467305
0.0324582 0.0322493 -0.0388031
0.0468459 0.0439232 -0.0572952
0.0714086 0.0605526 -0.0228269
0.0543148 0.028176 -0.0362428
0.0463136 0.0395279 -0.0575203
0.042482 0.0325025 -0.056238
0.0466516 0.0361785 -0.0531353
0.0389629 0.0254793 -0.0578459
0.0458412 0.0458217 -0.0564045
0.0472879 0.0409319 -0.0576127
0.046399 0.0421017 -0.0572719
0.0464478 0.0472457 -0.0581026
0.0408126 0.0404511 -0.0500164
0.0323285 0.0324143 -0.041337
0.0511869 0.0206964 -0.0412362
0.0578511 0.0251676 -0.0466139
0.0687934 0.0469406 -0.0189357
0.0639417 0.0671601 -0.00189915
0.0744593 0.0386388 -0.0271989
0.0674681 0.0422819 -0.0284857
0.036127 0.0373499 -0.0342851
0.0706467 0.0498465 -0.0219899
0.0676113 0.0386197 -0.0357756
0.0403392 0.0306028 -0.0526795
0.0372629 0.0386383 -0.0522367
0.050673 0.0337805 -0.0296139
0.038582 0.0413916 -0.0432546
0.0309562 0.0334448 -0.044394
0.0331416 0.0322665 -0.0425472
0.0470052 0.0409545 -0.058516
0.0467562 0.0393483 -0.0602352
0.0677024 0.0609041 -0.0503896
0.0654197 0.0664604 -0.0451137
0.0619086 0.0353625 -0.0287779
0.0687841 0.0346438 -0.0486743
0.051124 0.0256198 -0.0305773
0.0557947 0.0316391 -0.0289872
0.0737905 0.0454652 -0.0452262
0.0676041 0.0326714 -0.0488773
0.0578968 0.0324544 -0.0326866
0.043721 0.0245761 -0.0325156
0.0470146 0.0198309 -0.0442814
0.0424014 0.032128 -0.0611889
0.0423679 0.0300564 -0.0623266
0.0612056 0.0564772 -0.0125403
0.0665811 0.0588277 -0.00900911
0.0621055 0.0399744 -0.0193396
0.0427977 0.031676 -0.0243714
0.0520205 0.0350114 -0.0236273
0.0384194 0.0396189 -0.0302277
0.0595116 0.030633 -0.0335213
0.0442326 0.0412808 -0.0564772
0.0573995 0.0200224 -0.0423955
0.0458114 0.0220327 -0.0489056
0.0452004 0.0328463 -0.0582283
0.0445439 0.0374592 -0.0596903
0.0466646 0.0421814 -0.0568717
0.0459787 0.0442559 -0.0553286
0.043114 0.0234177 -0.0511688
0.0420721 0.044207 -0.0561578
0.0441989 0.0498407 -0.0514267
0.0442019 0.0453035 -0.0565716
0.0441505 0.0515455 -0.0537829
0.0536496 0.0218855 -0.044146
0.0355712 0.0479802 -0.041648
0.0330351 0.0383979 -0.0361229
0.0455552 0.0381232 -0.0613647
0.0716401 0.0608922 -0.0262218
0.0322109 0.0449956 -0.0326902
0.0626854 0.0417405 -0.0247509
0.058551 0.0277616 -0.0443122
0.0461383 0.0242756 -0.0329124
0.0722697 0.0407556 -0.0329178
0.0699154 0.0487698 -0.0175307
0.0345973 0.031823 -0.0364261
0.0792047 0.0458826 -0.0363568
0.0729582 0.065903 -0.0314823
0.0557019 0.0284432 -0.0398925
0.0738654 0.0643244 -0.0259138
0.0731791 0.0506477 -0.0250031
0.0678233 0.0718928 -0.0300128
0.0657117 0.0543131 -0.0092846
0.0399864 0.0737001 -0.0360366
0.0725227 0.0581659 -0.0208861
0.0681333 0.0730599 -0.02809
0.0682213 0.0531265 -0.0142695
0.0568948 0.0338012 -0.029933
0.066419 0.036556 -0.0265419
0.0164713 0.0513872 0.00361662
0.0461516 0.0721826 -0.0370092
0.0681421 0.0703299 -0.0246695
0.0347563 0.0694829 -0.00827657
0.0602844 0.0577323 -0.00800653
0.0722388 0.0437277 -0.0289788
0.0539996 0.0743085 -0.0433226
0.0500179 0.0751557 -0.0383675
0.0773588 0.0710509 -0.0162721
0.0746366 0.0574496 -0.0322464
0.0463049 0.0761077 -0.0354914
0.0571629 0.0402113 -0.00546112
0.0586005 0.053467 -0.0118107
0.0705135 0.065528 -0.0243602
0.0721907 0.0438573 -0.0384197
0.0396072 0.0481456 -0.0544048
0.0484654 0.0583986 -0.010742
0.0744466 0.0433866 -0.0270732
0.0467695 0.0256017 -0.0412203
0.0690053 0.0697397 -0.0105319
0.0570037 0.020486 -0.0394384
0.0397356 0.0320605 -0.0523889
0.0358725 0.0297067 -0.0296696
0.062217 0.056429 -0.00564493
0.0623271 0.0693161 -0.0436569
0.0372934 0.0789878 -0.0314305
0.0667801 0.0580549 -0.0104535
0.0700703 0.0631054 -0.0457977
0.0731011 0.0699649 -0.0116738
0.0656498 0.0635139 -0.0468371
0.0669994 0.0922327 0.00365258
0.0297946 0.0340192 -0.0170777
0.0501632 0.043023 -0.0613582
0.0409449 0.034599 -0.0604672
0.0480296 0.0416946 -0.05673
0.0376139 0.0364829 -0.052515
0.0460639 0.0261259 -0.0497434
0.0392298 0.053101 -0.0440101
0.0442358 0.0227745 -0.0500516
0.0506923 0.0785373 -0.0298629
0.0756448 0.0661189 -0.0261993
0.0467142 0.0517709 -0.0124886
0.0720828 0.0625426 -0.044536
0.0503863 0.023072 -0.0315226
0.0715748 0.0631713 0.0154548
0.0280905 0.0648212 -0.0318438
0.0260206 0.057019 -0.0341002
0.0659388 0.0657556 -0.0412415
0.0440051 0.0722499 -0.00586246
0.0647746 0.0782662 -0.0341283
0.0727283 0.0667454 -0.0253247
0.0702619 0.0600688 -0.05044
0.0395745 0.031959 -0.02586
0.0366286 0.0503924 -0.042444
0.042668 0.0287464 -0.0197997
0.0414842 0.0261441 -0.0454659
0.0483355 0.0189472 -0.0409134
0.0385378 0.081003 -0.0329909
0.0458071 0.0385905 -0.0585385
0.0474389 0.040767 -0.0575034
0.0504045 0.043008 -0.062607
0.0411403 0.043189 -0.0567734
0.0465799 0.0450013 -0.0545457
0.0586331 0.0213296 -0.0467635
0.0488098 0.0291318 -0.0276508
0.0404339 0.0300144 -0.0389416
0.0462937 0.0706506 -0.0286327
0.0664668 0.0693595 -0.0101787
0.0550438 0.0795317 -0.0249914
0.0368489 0.0513901 -0.0468571
0.0635537 0.0722417 -0.0183429
0.033359 0.0419666 -0.0165879
0.0558816 0.0681606 -0.00572654
0.044532 0.034918 -0.058204
0.0559803 0.0244068 -0.0392107
0.0255335 0.0610506 -0.0199872
0.0546797 0.074143 -0.0366385
0.0406051 0.040847 -0.0583175
0.0602285 0.0744246 -0.0118001
0.0461819 0.0682063 -0.0110257
0.0387874 0.0307597 -0.0379985
0.0403954 0.0321521 -0.0532201
0.0297553 0.0560802 -0.0150578
0.070533 0.0615449 -0.0433256
0.04794 0.074932 -0.0382265
0.0642913 0.0387732 -0.0388904
0.0344603 0.0336008 -0.0150259
0.0582593 0.043586 -0.0142664
0.0405023 0.0281726 -0.0247459
0.0276848 0.062086 -0.0186563
0.0393875 0.0623048 -0.0441082
0.0281807 0.0474573 -0.015004
0.0370524 0.076917 -0.0200011
0.0297172 0.0379764 -0.0407663
0.0532375 0.0736862 -0.034265
0.066278 0.0812521 0.00607018
0.0381851 0.0450854 -0.0557293
0.0682615 0.0711809 -0.0234881
0.0752114 0.064323 -0.0249957
0.0740697 0.0543492 -0.0312265
0.0663264 0.0483658 -0.0121358
0.0674883 0.071092 -0.0266687
0.0397774 0.0743783 -0.0340302
0.0646058 0.0371293 -0.0243977
0.0633901 0.0749336 -0.0154925
0.0718808 0.0586079 -0.0131746
0.0616203 0.0743682 -0.0369213
0.0731519 0.0572868 -0.0219348
0.0714159 0.0797094 0.00922151
0.0677914 0.0704146 -0.0291818
0.0682341 0.0598889 -0.0504341
0.0698442 0.0436729 -0.0163933
0.0676807 0.0359303 -0.0269083
0.0157152 0.0498007 0.00206813
0.0334347 0.0328415 -0.0346772
0.0439029 0.0738854 -0.03619
0.0453523 0.0730755 -0.0368905
0.0723394 0.051459 -0.0488315
0.060778 0.0563332 -0.00979888
0.0449805 0.0261752 -0.0332286
0.0655544 0.0581202 -0.0513955
0.0711538 0.0403236 -0.0287403
0.0586097 0.0710231 -0.0412217
0.0481778 0.0772304 -0.0334015
0.0776086 0.0702282 -0.0169142
0.0664833 0.0503073 -0.020259
0.0395829 0.0347243 -0.0336383
0.0667138 0.0655975 -0.0439806
0.053181 0.0782963 -0.020607
0.0603883 0.0587498 -0.0117401
0.073857 0.0630671 -0.0269542
0.0726678 0.0428727 -0.0404135
0.0307522 0.0670741 -0.0312131
0.029274 0.0546569 -0.0326302
0.0706638 0.0805947 -0.0370256
0.0707706 0.0572853 -0.0499371
0.0365128 0.0526107 -0.0448939
0.0648822 0.0763194 -0.00125211
0.0657368 0.0723611 -0.0286365
0.0461032 0.0487006 -0.0549221
0.0525573 0.0244221 -0.0378247
0.0415305 0.0363151 -0.0584872
0.0682422 0.0400683 -0.0120925
0.0640977 0.0561302 -0.00620056
0.0581669 0.0391549 -0.00737618
0.0617077 0.0680811 -0.0451241
0.0376307 0.0711434 -0.0268773
0.0664146 0.0576577 -0.0116529
0.0554054 0.0788182 -0.0231702
0.0743724 0.0698008 -0.013329
0.0349496 0.0363624 -0.014438
0.0434991 0.0232803 -0.0272121
0.0476162 0.0409611 -0.0610123
0.0466244 0.0389971 -0.0627711
0.0467123 0.0429678 -0.0569952
0.0458524 0.04257 -0.059154
0.0391191 0.0352043 -0.0542144
0.0487808 0.026487 -0.0520725
0.0615533 0.0266427 -0.0438986
0.034726 0.0241286 -0.0408067
0.047922 0.041176 -0.0621119
0.0471768 0.0382537 -0.0585152
0.073347 0.0642608 -0.0270271
0.0710409 0.0635058 -0.045929
0.0416405 0.0517413 -0.0468351
0.0424459 0.0640798 -0.0120578
0.067689 0.06788 -0.0311938
0.0642542 0.0456079 -0.0221961
0.0394816 0.0188363 -0.0560733
0.0698773 0.0685392 -0.0264386
0.0679204 0.059577 -0.0503281
0.0407112 0.0329073 -0.0260394
0.0663042 0.0556273 -0.0179868
0.0735524 0.0679192 -0.0306938
0.043074 0.0214046 -0.0477098
0.0535007 0.0207001 -0.0437287
0.0392365 0.0333394 -0.0272223
0.0478566 0.0397705 -0.0574256
0.048525 0.0383791 -0.060242
0.0470965 0.0383987 -0.0603081
0.0427246 0.0441552 -0.0555286
0.0463548 0.0456786 -0.0601277
0.0510848 0.0188328 -0.0497081
0.0178233 0.0340693 -0.020549
0.059552 0.0701782 -0.0328669
0.0268071 0.0593696 -0.023304
0.0572099 0.0309205 -0.0295517
0.0642898 0.0712985 -0.0229725
0.0459861 0.0304718 -0.0097753
0.040461 0.0273508 -0.0502558
0.0697362 0.0443841 -0.0188232
0.0420984 0.0306006 -0.0264827
0.0657167 0.0425948 -0.0212605
0.0716089 0.0675967 -0.0237883
0.0602889 0.0615942 -0.0127788
0.0554898 0.0638879 -0.0102261
0.041952 0.0355936 -0.0590479
0.0377851 0.0612935 -0.0434258
0.0399929 0.0326591 -0.0273223
0.0625748 0.0780042 -0.0348125
0.0332235 0.0392133 -0.0164407
0.0416581 0.0355414 -0.0561874
0.0309261 0.0648906 -0.0315773
0.0479128 0.0530829 -0.0606204
0.0394118 0.0572936 -0.0466818
0.0478693 0.0720129 -0.0359116
0.0700813 0.0721703 -0.020531
0.0359557 0.0181754 -0.0397022
0.0692734 0.0702554 -0.0371397
0.0372922 0.0249585 -0.0376264
0.0556328 0.0219164 -0.0472612
0.0657426 0.0555028 -0.0107606
0.0594133 0.068176 -0.0104552
0.0541193 0.0748558 -0.0375875
0.0393442 0.0283122 -0.0387975
0.0701994 0.0718946 -0.0263601
0.0602081 0.0776587 -0.0346649
0.0645723 0.0690462 -0.0448372
0.040712 0.0463822 -0.0548739
0.0356018 0.0396416 -0.0122723
0.0488344 0.0356837 -0.0670982
0.0497592 0.0369966 -0.066525
0.0508069 0.0379149 -0.0657812
0.0467867 0.033215 -0.0650917
0.0496344 0.0383224 -0.0657028
0.0465093 0.0317674 -0.0617811
0.0490761 0.0381398 -0.0657638
0.0463661 0.0331782 -0.064522
0.0465969 0.0351474 -0.0657149
0.0480223 0.0362096 -0.0637534
0.0478315 0.0343981 -0.0658495
0.0490137 0.0383693 -0.0687877
0.0481478 0.0349562 -0.0672247
0.0487002 0.0367081 -0.0677494
0.0487569 0.0382463 -0.0679519
0.0461147 0.0337527 -0.0650606
0.0504215 0.0373985 -0.0661196
0.0477671 0.0353265 -0.0678865
0.0463174 0.0331043 -0.0654024
0.0451114 0.0325315 -0.0667335
0.0499464 0.0379094 -0.0665688
0.0476843 0.0352404 -0.0676282
0.0460145 0.0325013 -0.0641838
0.0500463 0.0391477 -0.0680998
0.0458986 0.0335704 -0.065236
0.0485678 0.0388721 -0.0698278
0.0510506 0.039142 -0.0659896
0.047994 0.0348157 -0.064312
0.0483979 0.0384896 -0.069552
0.045502 0.0343312 -0.0649683
0.0461266 0.0283577 -0.0590794
0.0498236 0.0378917 -0.0659734
0.0463056 0.0327993 -0.0649959
0.0490912 0.0379045 -0.0675537
0.0494035 0.0392679 -0.0679303
0.0470429 0.0335783 -0.0651328
0.043431 0.0232015 -0.0578703
0.0456207 0.020466 -0.053216
0.0420829 0.0360193 -0.0625559
0.0443995 0.0401779 -0.0677359
0.0470892 0.0195356 -0.0507939
0.0447402 0.0181517 -0.0533445
0.0314178 0.0412308 -0.0372906
0.0323973 0.0376462 -0.0303275
0.0497187 0.019548 -0.0481943
0.0351787 0.0524105 -0.0411491
0.031527 0.0385866 -0.0317302
0.038845 0.0289855 -0.0392325
0.052508 0.0206511 -0.0472218
0.0341644 0.035308 -0.0279183
0.0335873 0.0364216 -0.0280478
0.0307515 0.0350495 -0.0286633
0.0346682 0.0323571 -0.0278334
0.0375715 0.0244134 -0.0312287
0.0231387 0.0592347 -0.0287187
0.0223445 0.0493058 -0.0205354
0.0326721 0.0318526 -0.0253646
0.029234 0.0654112 -0.0287997
0.0219681 0.0505395 -0.017427
0.0410097 0.0302219 -0.0262173
0.0260591 0.0598174 -0.0305577
0.0385556 0.0233135 -0.029609
0.035192 0.0315962 -0.0228008
0.0289827 0.063766 -0.0291118
0.0220779 0.0509867 -0.0206025
0.034058 0.0336093 -0.0253144
0.0438264 0.0264253 -0.0230855
0.0389211 0.0307478 -0.0290764
0.0527453 0.020826 -0.0473748
0.0254202 0.0621158 -0.0285378
0.0275151 0.0631473 -0.0255754
0.0293411 0.0649598 -0.0298283
0.0299112 0.0625427 -0.0290091
0.0272575 0.0628574 -0.0290197
0.0227394 0.0614639 -0.0280783
0.0337723 0.032238 -0.0251095
0.0417146 0.0261139 -0.0228072
0.0404324 0.024876 -0.0276377
0.0268595 0.0605247 -0.0238368
0.0259698 0.0495458 -0.0115795
0.038187 0.0325562 -0.0208617
0.0264253 0.0482898 -0.0134319
0.0292734 0.066706 -0.0279936
0.0225129 0.0522579 -0.0195699
0.0370604 0.0305386 -0.0217201
0.0347298 0.0690276 -0.0303866
0.0368836 0.0326962 -0.0190777
0.0379404 0.066769 -0.0181067
0.0267069 0.0457816 -0.0152897
0.0310599 0.0615547 -0.0228306
0.0430447 0.0315103 -0.0230285
0.0391576 0.0331382 -0.0205881
0.0284507 0.0606168 -0.0185984
0.0427858 0.033238 -0.0229194
0.0329913 0.0325146 -0.0265855
0.030096 0.0641082 -0.0216405
0.0352168 0.027422 -0.027578
0.0413126 0.0318468 -0.021319
0.0336675 0.0373432 -0.0158257
0.041549 0.0320369 -0.0239684
0.046448 0.0269184 -0.0261598
0.0383467 0.0433865 -0.0136333
0.0343101 0.0641505 -0.0162813
0.0353808 0.0414969 -0.00932608
0.0322317 0.0618198 -0.0135683
0.0348431 0.0714617 -0.0241387
0.0358911 0.0639081 -0.0166064
0.0363357 0.0413733 -0.0103036
0.0364668 0.0714073 -0.022937
0.0331692 0.0459361 -0.00511926
0.0578716 0.0249396 -0.0459949
0.0565979 0.0218439 -0.0463882
0.0327623 0.0651237 -0.0167043
0.0402213 0.0379559 -0.00813233
0.0360039 0.0677537 -0.0175503
0.036397 0.0633089 -0.0127192
0.0357404 0.0631802 -0.0149847
0.0395287 0.0677689 -0.00941917
0.0373925 0.0650886 -0.015569
0.0391494 0.0641341 -0.0156927
0.0394784 0.0609751 -0.0101326
0.0402376 0.0690701 -0.0201522
0.0358526 0.056591 -0.00907923
0.0404142 0.0655648 -0.0141716
0.0365831 0.0645752 -0.0181935
0.04052 0.0678513 -0.0209654
0.0394593 0.0636993 -0.0181162
0.0402033 0.0722282 -0.0152108
0.0415206 0.0615728 -0.00682397
0.0463797 0.0660071 -0.00426651
0.0419473 0.0620413 -0.0108718
0.0402032 0.0622564 -0.0146893
0.0425556 0.0475979 -0.0139287
0.0397947 0.0652529 -0.0201343
0.0400697 0.0411882 -0.00758986
0.0391482 0.0577422 -0.00698756
0.0450704 0.0744503 -0.0231997
0.0375687 0.065751 -0.0108477
0.0441867 0.0654147 -0.00765944
0.0403847 0.0616077 -0.0120625
0.0413232 0.0678213 -0.00928225
0.0451781 0.0618942 -0.00386103
0.040652 0.0541923 -0.00776423
0.0453698 0.0548114 -0.0086245
0.0439003 0.0755404 -0.01915
0.0448655 0.0774129 -0.0300867
0.0438558 0.0656844 -0.00884654
0.044998 0.0730553 -0.0166916
0.0494481 0.0790969 -0.0177425
0.0450733 0.0788042 -0.0197437
0.0483602 0.0758763 -0.0239715
0.0470698 0.0785273 -0.0148533
0.0483527 0.0771144 -0.0219731
0.0427701 0.0774688 -0.0197846
0.0494005 0.0791541 -0.0230877
0.0481831 0.0798075 -0.0182677
0.0425924 0.0787253 -0.0310164
0.0466012 0.0781922 -0.0152343
0.0509176 0.0523608 -0.00615074
0.0518449 0.0583508 -0.00247863
0.0440986 0.0790527 -0.0171608
0.0483591 0.0574284 -0.00787261
0.0473366 0.0534667 -0.004277
0.0421105 0.0736144 -0.015667
0.0469614 0.0693255 -0.0135616
0.0525966 0.0773073 -0.0253239
0.0470759 0.0479134 -0.00825475
0.0552799 0.0332892 -0.0176983
0.0545597 0.0766468 -0.0149885
0.0532347 0.0503461 -0.016699
0.0462126 0.0678923 -0.0106785
0.0511184 0.0783196 -0.0168635
0.0484369 0.0612391 -0.00445358
0.0510439 0.0769576 -0.016297
0.052693 0.0507054 -0.0173504
0.055522 0.0759368 -0.0170557
0.059578 0.0771592 -0.00839142
0.0560443 0.0352543 -0.0219476
0.0445305 0.0760413 -0.0210001
0.0545246 0.0768141 -0.0135423
0.0516599 0.0630572 0.00275837
0.0585901 0.0354746 -0.0275491
0.0574868 0.0772723 -0.0179477
0.0577692 0.0768278 -0.0152557
0.0609856 0.0377473 -0.0252751
0.0513166 0.0576109 -0.00351778
0.0533175 0.0546835 -0.0129951
0.062554 0.0259861 -0.0469662
0.052045 0.0583726 -0.00389506
0.060976 0.0740938 -0.0141755
0.0574923 0.0700948 -0.00545334
0.0514553 0.0594939 -0.00357816
0.0537272 0.0746102 -0.00357861
0.0599345 0.0696249 -0.00568685
0.0510348 0.0740569 -0.00647741
0.0586294 0.0758353 -0.017778
0.0534043 0.0648591 0.00273797
0.0548594 0.0522056 -0.0141151
0.05032 0.0794209 -0.0195635
0.04926 0.0797497 -0.017171
0.0557523 0.0530266 -0.0190958
0.0640547 0.0287303 -0.0457458
0.0626928 0.0271419 -0.047607
0.0462094 0.0776859 -0.0285388
0.059656 0.0761019 -0.0270164
0.0658295 0.0582784 -0.0581001
0.0539999 0.070723 -0.0471924
0.0694567 0.0468406 -0.0332899
0.065308 0.0575699 -0.0582155
0.0681583 0.0532054 -0.0559333
0.0678124 0.0424425 -0.0308005
0.0744744 0.0563252 -0.0503051
0.0673547 0.0555935 -0.0577169
0.0672882 0.05587 -0.0577036
0.0667617 0.0562562 -0.0582072
0.0643363 0.0581179 -0.0575468
0.0651822 0.0571644 -0.0583056
0.0716182 0.037506 -0.0472015
0.0763963 0.0586979 -0.0376644
0.0652858 0.0571203 -0.0583683
0.0542002 0.0406915 -0.0145122
0.0702589 0.045129 -0.0333289
0.0691444 0.0580667 -0.0563274
0.0501614 0.073817 -0.0277969
0.0438372 0.0713454 -0.0270456
0.0429253 0.0788291 -0.0249516
0.0360028 0.0876917 -0.00958748
0.0670275 0.0473839 -0.015953
0.0684587 0.0338487 -0.0465536
0.0662331 0.0589394 -0.00984926
0.0557519 0.0751034 -0.0326464
0.0522908 0.0694577 -0.0462966
0.0625307 0.0588016 -0.0572484
0.0599519 0.0751571 -0.0329978
0.0602894 0.0596047 -0.0568402
0.0661566 0.0597326 -0.057184
0.0463384 0.0701914 -0.0304845
0.0593061 0.0768336 -0.0275476
0.0430624 0.0839143 -0.026787
0.0719996 0.0390992 -0.0274902
0.0659095 0.0573397 -0.0579905
0.044225 0.073512 -0.0239548
0.0516767 0.101841 -0.0101403
0.0464252 0.0797036 -0.0290716
0.0742855 0.0643736 -0.0246658
0.0518012 0.0676118 -0.0421666
0.0403027 0.0986416 -0.0157974
0.0568306 0.0778045 -0.0316143
0.0697453 0.0579778 -0.0182131
0.0643481 0.0677867 -0.0454555
0.0589555 0.0688348 -0.0462584
0.0663823 0.0422877 -0.0286829
0.0473226 0.0736489 -0.0326133
0.0604561 0.0558373 -0.0123242
0.0472881 0.0728036 -0.0329821
0.0434147 0.0722698 -0.0294787
0.0526194 0.0465249 -0.0101254
0.0539697 0.0801442 -0.0308825
0.0613444 0.084171 -0.00761768
0.0617252 0.082354 -0.0134349
0.0571099 0.0681735 -0.0428575
0.0728954 0.0417046 -0.0460095
0.0681595 0.0662973 -0.0216096
0.0722898 0.051926 -0.0367036
0.0725873 0.0701647 -0.0233538
0.05576 0.0338265 -0.0203866
0.0484581 0.0392855 -0.00913501
0.0525161 0.0733936 -0.0342442
0.0750683 0.0480608 -0.0439986
0.0617966 0.0771434 -0.0315906
0.0681462 0.0637562 -0.0442918
0.073631 0.0644088 -0.00727613
0.042257 0.0910851 -0.0204598
0.0460225 0.0723667 -0.0299333
0.0471081 0.105385 -0.0152889
0.049034 0.0738263 -0.035751
0.0692158 0.0527815 -0.0211766
0.0711728 0.0522464 -0.0573336
0.0448674 0.0740814 -0.0365744
0.0468677 0.0679812 -0.0478562
0.0480719 0.0690497 -0.0456951
0.0554001 0.0830103 -0.0287793
0.062414 0.0770509 -0.033137
0.0673512 0.0523195 -0.00960074
0.0656229 0.057453 -0.0578373
0.0756958 0.0635532 -0.025192
0.0711692 0.0432846 -0.0409241
0.0326177 0.10159 -0.0115863
0.0618626 0.0706467 -0.0455727
0.0651889 0.041271 -0.018544
0.0698569 0.0371906 -0.0432851
0.0746688 0.0598023 -0.0259129
0.0531423 0.075664 -0.0334308
0.0458546 0.0735182 -0.0450516
0.0701187 0.05836 -0.0242728
0.0676494 0.0571758 -0.0210006
0.0713143 0.0528433 -0.0377878
0.0677365 0.0709456 -0.0470364
0.0478555 0.0731719 -0.0288786
0.0625697 0.071593 -0.0440291
0.0711478 0.0616376 -0.0137271
0.0644006 0.0575717 -0.0576618
0.0628315 0.0346599 -0.0298181
0.0679511 0.0515884 -0.0163944
0.0744343 0.0537022 -0.0294684
0.0696272 0.0485321 -0.0300314
0.0743582 0.0617447 -0.0386729
0.0626005 0.0814474 -0.026282
0.0692483 0.0595907 -0.016099
0.0683437 0.0846854 0.0395169
0.0696778 0.0601692 -0.0211384
0.0719552 0.0676151 -0.0460214
0.0733778 0.0646096 -0.0360526
0.0785174 0.0391458 -0.0307048
0.0721798 0.0569304 -0.0400822
0.0649546 0.0406046 -0.0280056
0.0651849 0.040484 -0.0374577
0.0533598 0.0778713 -0.0262705
0.0702488 0.0632459 -0.0231774
0.0644851 0.0592787 -0.00934096
0.0620119 0.0673264 -0.0464945
0.0610084 0.0588097 -0.00833875
0.0658038 0.0416723 -0.0305444
0.0364555 0.112342 -0.00681212
0.0676968 0.0672913 0.0115105
0.0644908 0.0624852 -0.0102075
0.0720565 0.0895687 0.0434767
0.045804 0.0335004 -0.0263238
0.0738276 0.0622949 -0.0244564
0.0727197 0.0469106 -0.0432331
0.0482939 0.0340725 -0.020367
0.0674172 0.046603 -0.031928
0.0758125 0.054972 -0.0406953
0.0693107 0.0471453 -0.0329084
0.0305078 0.037243 -0.0340883
0.0400733 0.0315968 -0.0208479
0.0512956 0.0709428 -0.0427079
0.0754637 0.0578453 -0.025662
0.0683839 0.061271 -0.0533244
0.0680967 0.0598456 -0.0441661
0.0670321 0.0717424 -0.0225007
0.0594155 0.0588847 -0.016515
0.0656566 0.0694337 -0.040526
0.0653541 0.0561466 -0.0536642
0.0704824 0.0396611 -0.0365948
0.0519672 0.044744 -0.0170627
0.0631932 0.0354462 -0.0325698
0.040939 0.0708535 -0.0390819
0.0541271 0.0703543 -0.0467571
0.0632562 0.0405076 -0.0288578
0.0648795 0.0367545 -0.0213573
0.0581044 0.0473025 -0.0142371
0.0688935 0.0380743 -0.0359053
0.071922 0.0521035 -0.0384133
0.0456182 0.0733815 -0.029948
0.0570377 0.0357547 -0.0273332
0.0672043 0.0605232 -0.00670839
0.0632564 0.0402828 -0.0217681
0.0679763 0.0687279 -0.0398069
0.0423895 0.112367 -0.00383518
0.074011 0.0555262 -0.0508609
0.0524116 0.0332994 -0.0260315
0.0518818 0.0278682 -0.0290017
0.0545029 0.0397171 -0.0179784
0.0684972 0.056958 -0.0232676
0.071418 0.0607823 -0.0126302
0.0514235 0.0874523 -0.0166018
0.0754422 0.0429476 -0.0414833
0.0455863 0.073254 -0.0454341
0.0684305 0.0835885 0.0304352
0.0664804 0.0414884 -0.0232748
0.0396371 0.0392008 -0.0310214
0.0698055 0.0608969 -0.0188835
0.0747641 0.0636023 -0.00739821
0.0549569 0.0332148 -0.0223869
0.0743215 0.0444148 -0.0355015
0.0691014 0.0655929 -0.018734
0.0740739 0.0677763 -0.0361923
0.072158 0.0656206 -0.0250395
0.0322147 0.0497861 -0.0437519
0.0621883 0.0438507 -0.0118187
0.0292456 0.102275 -0.00359249
0.0504111 0.0636584 -0.0353012
0.0633234 0.0396365 -0.0279274
0.0716513 0.0475777 -0.0316553
0.0782171 0.0390676 -0.0312891
0.0558672 0.0436987 -0.0154425
0.0674341 0.0407045 -0.0325575
0.040534 0.0528005 -0.0445072
0.0740893 0.04397 -0.0439691
0.0367402 0.0625969 -0.0391245
0.031421 0.0461923 -0.0409856
0.0664137 0.0463909 -0.0177938
0.0678839 0.053732 -0.0217716
0.0552033 0.0653749 -0.0100236
0.0766904 0.0518556 -0.041744
0.0738426 0.0489854 -0.0409092
0.0682094 0.042019 -0.0308343
0.0718701 0.054341 -0.0402426
0.0470416 0.0715244 -0.0345675
0.0634259 0.0403742 -0.0219994
0.0585218 0.0759427 -0.0307438
0.0645619 0.0743161 -0.0315869
0.0698017 0.0873826 0.0450224
0.0661826 0.0411352 -0.0206259
0.0688042 0.0467289 -0.0314289
0.0464072 0.0340103 -0.0245042
0.070844 0.0521918 -0.0439851
0.0549248 0.101019 -0.0162637
0.0284454 0.0446921 -0.0180098
0.0562633 0.0364531 -0.0171608
0.0705659 0.0680609 -0.0260716
0.0734176 0.0460085 -0.0407265
0.0700737 0.0663201 -0.0208772
0.0525709 0.0321204 -0.028975
0.034594 0.04112 -0.0462972
0.0722386 0.055562 -0.0401678
0.0451081 0.0703135 -0.0300192
0.0683509 0.0587575 -0.0113273
0.0693174 0.0437884 -0.0319216
0.0616909 0.0390615 -0.0247054
0.0649916 0.066273 -0.0475754
0.0454361 0.0725978 -0.0426795
0.0424899 0.0335998 -0.0320929
0.0663251 0.0351906 -0.0449424
0.0680084 0.0446131 -0.0342903
0.063328 0.0385719 -0.0157149
0.0663293 0.0400834 -0.0327523
0.0344875 0.0377121 -0.0359512
0.0730753 0.0420337 -0.0392665
0.0649348 0.0617956 -0.00552391
0.0725082 0.0412851 -0.0247251
0.0748213 0.0494416 -0.0420577
0.0636048 0.0354035 -0.0304977
0.0345613 0.0340551 -0.0440855
0.0456884 0.029184 -0.0271729
0.0385284 0.0358884 -0.0439924
0.0360288 0.0382162 -0.0112661
0.0516769 0.0329771 -0.0215109
0.0533735 0.0332249 -0.020986
0.0495055 0.0760847 -0.0315371
0.0707768 0.0584651 -0.04128
0.0741456 0.0495728 -0.0456736
0.0795948 0.0390571 -0.0317805
0.0341203 0.0393353 -0.0317166
0.0390755 0.0351352 -0.038351
0.0766696 0.0840662 0.0401963
0.0634643 0.0645826 -0.00187924
0.0361439 0.0369971 -0.0365172
0.0374255 0.030587 -0.0476465
0.0619467 0.0699764 -0.0107638
0.0672581 0.0436293 -0.0297266
0.0717701 0.0504484 -0.0399331
0.0699727 0.0723212 -0.0343734
0.0645534 0.0692944 -0.0448366
0.0433576 0.0398521 -0.0553724
0.0351495 0.0362235 -0.0464392
0.0597947 0.0245283 -0.0400616
0.0789768 0.0621727 -0.00900395
0.0662114 0.0537086 -0.0507659
0.0489297 0.0728763 -0.0295996
0.040496 0.0925148 -0.0179552
0.0658299 0.048108 -0.0158717
0.0615248 0.0342151 -0.0308568
0.0489135 0.0722817 -0.0332051
0.0726463 0.0477909 -0.0256387
0.0368726 0.0362187 -0.0383465
0.0703691 0.0497647 -0.0362074
0.0620813 0.035647 -0.0293518
0.065708 0.0404453 -0.0287352
0.0637493 0.0358821 -0.0310662
0.0400475 0.0356171 -0.0383944
0.0357088 0.0359295 -0.0359898
0.0308052 0.0439463 -0.0436657
0.046415 0.0426296 -0.0586115
0.0674433 0.0567961 -0.0403684
0.0708723 0.0403932 -0.038407
0.0727994 0.0666518 -0.0272125
0.0383618 0.0682515 -0.0288653
0.0430374 0.0692037 -0.024985
0.0534235 0.0247864 -0.0376803
0.0705831 0.0413995 -0.042097
0.0649104 0.0358318 -0.0326396
0.0603159 0.0760736 -0.0283512
0.036291 0.0666746 -0.0424656
0.0534663 0.0465142 -0.0118459
0.0704545 0.0810814 -0.0365277
0.045065 0.0711509 -0.030206
0.0480988 0.0396682 -0.0570393
0.0444316 0.0449385 -0.0579249
0.0461293 0.043168 -0.0597244
0.0469796 0.043017 -0.0570586
0.0503047 0.043846 -0.0583823
0.0483244 0.0208566 -0.0445782
0.0440418 0.0192929 -0.0470496
0.0556747 0.0218781 -0.0416671
0.0626118 0.0262459 -0.0447032
0.0608939 0.0226554 -0.0481852
0.0621573 0.0808031 -0.0291016
0.0729489 0.0539958 -0.0264972
0.0645457 0.0692369 -0.0429113
0.0684376 0.0615739 -0.0118717
0.070707 0.0379656 -0.0408157
0.0683527 0.0433934 -0.0222428
0.0746952 0.0601594 -0.0168533
0.0451733 0.0732445 -0.0287506
0.0669485 0.0414693 -0.0327438
0.0394941 0.0307818 -0.0347281
0.0486635 0.0319688 -0.0281993
0.0380389 0.0348619 -0.0367719
0.0707389 0.0461904 -0.0277417
0.0724856 0.0490143 -0.0214936
0.0716042 0.0401244 -0.0363251
0.0619966 0.0391351 -0.0166142
0.0460493 0.0423432 -0.0586095
0.0392805 0.0359356 -0.0481405
0.056754 0.0231256 -0.0418821
0.0742596 0.0560336 -0.0445223
0.0658599 0.0665583 -0.0471775
0.0450564 0.0408976 -0.0574755
0.0641534 0.071213 -0.0128023
0.0666314 0.0618222 -0.053397
0.0518551 0.0590141 -0.0111116
0.065759 0.0413183 -0.0344023
0.064965 0.0702153 -0.00501126
0.0335534 0.0316139 -0.0359443
0.0476743 0.0305798 -0.0264912
0.0421833 0.0743384 -0.0330414
0.0610487 0.0353387 -0.0277723
0.0422994 0.0334766 -0.063414
0.042658 0.0250937 -0.0506143
0.0451533 0.0320515 -0.0578619
0.0610814 0.0613687 -0.00467499
0.0672328 0.0472342 -0.0149388
0.0739697 0.0699737 -0.0550695
0.0650857 0.0370759 -0.0213535
0.0543165 0.0360342 -0.0232013
0.0427711 0.0327865 -0.0361527
0.0542023 0.033243 -0.031498
0.047153 0.0276602 -0.0260744
0.0288265 0.0417692 -0.0248859
0.0687526 0.053223 -0.0153697
0.0725869 0.0628095 -0.012214
0.0415914 0.0346201 -0.0310586
0.0345872 0.0435322 -0.0398608
0.071279 0.0557857 -0.0131864
0.0785706 0.0640839 -0.0305747
0.0715326 0.0625503 -0.0436557
0.0453576 0.0450018 -0.0544622
0.0435185 0.0736718 -0.0419985
0.0461612 0.0413498 -0.058375
0.0469328 0.0419967 -0.0566999
0.0459234 0.0210992 -0.0517733
0.0454824 0.0405528 -0.0577754
0.0459177 0.046061 -0.0541728
0.0445479 0.0466107 -0.0563738
0.0480792 0.0427235 -0.058073
