ply
format ascii 1.0
comment Created by Open3D
element vertex 849
property double x
property double y
property double z
end_header
0.0557868 0.0463602 -0.0306131
0.0564688 0.0465913 -0.020348
0.06118 0.0620835 -0.0173169
0.051061 0.0539148 -0.0201792
0.0569338 0.0583851 -0.0309412
0.0534772 0.0581813 -0.0188442
0.0548979 0.0438902 -0.032143
0.0510274 0.0571381 -0.0189084
0.0597659 0.0488915 -0.0207325
0.0501881 0.0468683 -0.0344038
0.0435994 0.0432552 -0.0279488
0.0542482 0.0521337 -0.0268298
0.0501346 0.0670172 -0.0147414
0.0588514 0.0517306 -0.0293422
0.0557631 0.0640574 -0.0308084
0.0603902 0.0509855 -0.0201037
0.0528578 0.0442891 -0.0228111
0.0530897 0.0591043 -0.019161
0.0526633 0.0614869 -0.0171953
0.0476702 0.0506136 -0.0159223
0.0532282 0.0589606 -0.0223613
0.0460972 0.0646458 -0.0278487
0.0455957 0.0495766 -0.0262597
0.0592375 0.0599546 -0.0285117
0.0512393 0.0628692 -0.0173671
0.0461021 0.0510672 -0.0291244
0.0538558 0.0582194 -0.0332764
0.0529217 0.0554229 -0.0251298
0.0554008 0.0638623 -0.019633
0.0549989 0.0555822 -0.0209585
0.0497685 0.0574264 -0.0221593
0.048098 0.0561015 -0.0170158
0.0534924 0.058169 -0.0255967
0.0502033 0.0589249 -0.0293869
0.0533187 0.061751 -0.0148996
0.0523253 0.0527308 -0.0277278
0.0536509 0.0596013 -0.017048
0.0546496 0.0537523 -0.0253706
0.055056 0.0551887 -0.0266937
0.0541641 0.0573227 -0.0275986
0.0486839 0.0467123 -0.0314435
0.0546747 0.0540668 -0.0243345
0.0613136 0.0475481 -0.0252055
0.0508872 0.0573011 -0.0233119
0.054628 0.0612962 -0.0304346
0.0573682 0.0614905 -0.0164821
0.0498241 0.0603896 -0.0276416
0.0590914 0.0548927 -0.0185262
0.0544599 0.0634215 -0.0227595
0.0508473 0.0625083 -0.020106
0.055697 0.0675025 -0.011664
0.0513382 0.0606075 -0.0122322
0.0536596 0.0674919 -0.00542689
0.0490961 0.0627177 -0.0185869
0.0516619 0.0574065 -0.0215788
0.0577994 0.0634258 -0.0292104
0.0441089 0.0550366 -0.0253084
0.0584317 0.0511787 -0.0213477
0.0531602 0.0617019 -0.0152347
0.0554944 0.0637187 -0.0203648
0.0559768 0.0647547 -0.0154435
0.0611955 0.0645318 -0.0270388
0.0623758 0.0512483 -0.0293191
0.0580647 0.063847 -0.0294663
0.0563663 0.0669034 -0.0157269
0.0581786 0.0688573 -0.0164038
0.0426597 0.0616454 -0.027577
0.0531886 0.0644245 -0.0137523
0.0608658 0.0493685 -0.022472
0.0493188 0.0680753 -0.0120096
0.0623408 0.066677 -0.0213263
0.046482 0.0500402 -0.0149119
0.0484462 0.0675146 -0.0276946
0.0556006 0.0528634 -0.0277095
0.050049 0.0635342 -0.0332896
0.0584137 0.0460405 -0.0290565
0.0451081 0.05107 -0.0292263
0.0565173 0.0584968 -0.0310858
0.0478336 0.0518503 -0.0281866
0.050433 0.0429061 -0.0269324
0.0465691 0.0593296 -0.0298126
0.0536641 0.0462558 -0.0340775
0.0462695 0.0622921 -0.0166635
0.0561869 0.0592604 -0.0161161
0.053007 0.0481858 -0.0349962
0.0595244 0.0623362 -0.0262282
0.0491899 0.063942 -0.0277571
0.0539296 0.0545401 -0.0223343
0.0574167 0.063149 -0.019181
0.0496668 0.0704787 -0.0177523
0.045559 0.059448 -0.0291421
0.0545203 0.0563228 -0.0354704
0.0574466 0.0685019 -0.032369
0.0588787 0.0589607 -0.0171864
0.0468872 0.0530081 -0.0285853
0.0497673 0.067773 -0.0181854
0.0564872 0.0489507 -0.0355966
0.0462048 0.0538851 -0.00889666
0.0518422 0.0650364 -0.0146778
0.0456666 0.0459306 -0.0253759
0.0596283 0.0464951 -0.0242884
0.045927 0.0540054 -0.0260735
0.0523631 0.0606275 -0.0345344
0.0616792 0.0606637 -0.036109
0.0475452 0.0484766 -0.0287817
0.0547408 0.0547995 -0.0340964
0.0631638 0.0488832 -0.0264431
0.0468522 0.0544356 -0.0330727
0.0504839 0.0671113 -0.0275765
0.0587688 0.0575234 -0.0233419
0.0542759 0.0556016 -0.0260872
0.0461501 0.0631822 -0.0226348
0.057039 0.0535312 -0.033574
0.0566426 0.0616546 -0.033262
0.0478425 0.0551792 -0.0310083
0.0502625 0.0664701 -0.0215814
0.059346 0.0608715 -0.03013
0.0543175 0.047723 -0.0201965
0.0544177 0.0538392 -0.0338908
0.0461027 0.0744561 -0.0190753
0.0511855 0.0571867 -0.0196865
0.0480237 0.0641896 -0.0275389
0.0573228 0.0642354 -0.027066
0.0462344 0.0581291 -0.0291312
0.0547581 0.065483 -0.0244084
0.0547428 0.0452414 -0.0313157
0.0530117 0.0598148 -0.0163625
0.0554288 0.0646398 -0.0303779
0.0536033 0.0569899 -0.0359716
0.0433683 0.0520992 -0.0216032
0.045884 0.0521032 -0.0331299
0.0464234 0.0523615 -0.0321541
0.0529354 0.0565651 -0.0175391
0.0405312 0.076409 -0.014906
0.0526974 0.0662406 -0.0284556
0.0570922 0.0585993 -0.0348978
0.0450681 0.0493025 -0.0319132
0.0619336 0.0769912 -0.018676
0.0566493 0.0601214 -0.0213163
0.052168 0.0675661 -0.00317751
0.0567708 0.0644621 -0.013923
0.0603766 0.0758481 0.00550029
0.0607996 0.0691701 -0.0165832
0.0513344 0.064604 -0.0145442
0.0556113 0.0475859 -0.0142266
0.0511746 0.0762062 -0.0126756
0.052818 0.0655558 -0.0305743
0.0493629 0.0587249 -0.00855759
0.0541205 0.0664783 -0.0211432
0.0466493 0.0686546 -0.0156947
0.063867 0.0653836 -0.00651267
0.0679815 0.0568587 -0.016091
0.0505427 0.0713362 -0.00735676
0.0557166 0.0656116 -0.0304416
0.0460686 0.0528953 -0.0137123
0.050659 0.0696395 -0.0113408
0.060969 0.0644536 -0.0262308
0.0650727 0.0559458 -0.0099786
0.0589742 0.0658742 -0.0280258
0.0542945 0.0458936 -0.0338641
0.0544779 0.0477762 -0.0238078
0.0566881 0.0616174 -0.0176891
0.0570571 0.0698933 -0.0239124
0.0533276 0.0460894 -0.0342438
0.0490459 0.0456774 -0.0264285
0.051344 0.0480042 -0.0230691
0.0608546 0.053305 -0.0227308
0.0603939 0.0473069 -0.0278644
0.0463667 0.0514389 -0.0309916
0.0568381 0.0478076 -0.0324295
0.0541647 0.0484481 -0.0342664
0.0568088 0.0553609 -0.0230061
0.0610986 0.0587391 -0.0243956
0.0486463 0.0459317 -0.0310585
0.0617781 0.0549807 -0.0260004
0.0527462 0.0568917 -0.0352028
0.0519174 0.0442874 -0.0262858
0.0562692 0.0617031 -0.0260749
0.0516597 0.043722 -0.0273849
0.0532554 0.0568832 -0.0202449
0.0581848 0.0600519 -0.0203548
0.0566776 0.0556511 -0.0330687
0.0621795 0.0671295 -0.0212967
0.0504634 0.0517053 -0.0215972
0.0558331 0.0589328 -0.0335279
0.0500002 0.052786 -0.0301963
0.0545723 0.0622966 -0.0174801
0.054466 0.0556024 -0.0354008
0.0547887 0.043392 -0.0326871
0.0557227 0.0593243 -0.030495
0.0544143 0.0476046 -0.0345424
0.0449383 0.0501645 -0.0299916
0.0562465 0.0536414 -0.0319624
0.0579789 0.0484776 -0.0235996
0.0543634 0.0565427 -0.0303815
0.0494637 0.0540787 -0.0340732
0.0606414 0.0574279 -0.0305635
0.0555265 0.0576545 -0.02246
0.0590899 0.0631645 -0.0255036
0.0528043 0.0645706 -0.0311152
0.0537063 0.0472537 -0.0349713
0.0566887 0.0618573 -0.0201138
0.0602874 0.058927 -0.030476
0.0502345 0.0578552 -0.0171345
0.0452531 0.0591794 -0.0265189
0.0593233 0.0536854 -0.0278635
0.0471323 0.0558839 -0.0334527
0.0482437 0.0467042 -0.0250971
0.0514907 0.0530245 -0.0332448
0.0544003 0.0462389 -0.0335427
0.0533188 0.0467419 -0.0342987
0.0491384 0.0665908 -0.00955582
0.0493783 0.0568577 -0.0347675
0.0440314 0.0700704 -0.00902282
0.0529938 0.0606339 -0.0161161
0.054246 0.0464135 -0.0335315
0.0567119 0.0452818 -0.0304681
0.0542 0.0462352 -0.0336182
0.0590348 0.0578399 -0.0238974
0.0560775 0.0485934 -0.0348724
0.0542143 0.0457804 -0.0341532
0.0492751 0.0484623 -0.0231698
0.05854 0.0713113 -0.0181774
0.0500041 0.0563948 -0.0340905
0.0565181 0.0645696 -0.0295317
0.0542854 0.0483107 -0.0338494
0.0579737 0.0815858 -0.0234366
0.0529785 0.0454747 -0.0329878
0.0549522 0.0479508 -0.0222856
0.0535847 0.0471327 -0.0338278
0.0481723 0.0486287 -0.0240276
0.052916 0.0588619 -0.0182214
0.0555719 0.0452566 -0.0315579
0.0565888 0.0607877 -0.0294901
0.0534211 0.0670873 -0.0268136
0.044899 0.0500323 -0.0308721
0.0543435 0.055403 -0.0381777
0.0475639 0.0551488 -0.0327848
0.0482852 0.0448882 -0.0245388
0.0555559 0.0452869 -0.0355737
0.0549437 0.0572637 -0.0379949
0.0424618 0.0614826 -0.0274845
0.0539787 0.0456893 -0.0347999
0.0545131 0.0470395 -0.0345882
0.0452492 0.0468988 -0.0249462
0.057619 0.0513511 -0.0369205
0.0505103 0.0450716 -0.020789
0.0547366 0.0477372 -0.0277873
0.0557666 0.050873 -0.0286208
0.0535246 0.0556217 -0.0381824
0.043086 0.0596906 -0.0275534
0.0511803 0.0571831 -0.03842
0.0490238 0.0520482 -0.0355559
0.0544033 0.0462437 -0.0335321
0.0548056 0.0558438 -0.0386251
0.0582914 0.0474991 -0.033388
0.0530988 0.0470951 -0.0343298
0.0495481 0.0661846 -0.0260828
0.0591039 0.0456983 -0.0333788
0.0556518 0.0448002 -0.0286196
0.0567149 0.0580391 -0.0344078
0.0472239 0.0604328 -0.0298365
0.0545936 0.0475419 -0.0339578
0.0544266 0.0463219 -0.0328274
0.0460995 0.0507004 -0.0326992
0.0533866 0.0519928 -0.027642
0.0496332 0.0444553 -0.024521
0.0563941 0.0450273 -0.0310938
0.0524511 0.0453631 -0.031129
0.047868 0.0486436 -0.0235295
0.053298 0.0471036 -0.0340884
0.0454519 0.0498683 -0.0266102
0.0436955 0.0503735 -0.0210285
0.0567642 0.0453153 -0.0355702
0.0537709 0.045026 -0.0310502
0.0518302 0.0475466 -0.0344325
0.0542576 0.0470171 -0.033329
0.0554727 0.0639671 -0.0263831
0.05496 0.0568737 -0.0302009
0.0521246 0.0486355 -0.0218544
0.0467644 0.0490537 -0.0351224
0.0498218 0.0447781 -0.0267028
0.0531754 0.0460202 -0.0323772
0.0498023 0.0482702 -0.0289613
0.0549022 0.0451762 -0.0339484
0.0440472 0.0483329 -0.0255459
0.0527065 0.0465864 -0.0337892
0.0540127 0.04498 -0.0344358
0.0535499 0.0449956 -0.0314986
0.0538495 0.0464015 -0.0334273
0.0544384 0.0469844 -0.0338249
0.0548953 0.0439062 -0.0321345
0.0559097 0.060984 -0.0299444
0.0489718 0.0479513 -0.0210863
0.0452503 0.0460157 -0.0274982
0.0464488 0.049357 -0.028796
0.0439436 0.0527133 -0.0297765
0.0473927 0.0430579 -0.0276588
0.0612101 0.0523179 -0.0212577
0.0582236 0.0478337 -0.0226042
0.0552654 0.046387 -0.0359841
0.0550956 0.0440202 -0.0272343
0.0580681 0.0459454 -0.0288989
0.0495013 0.0450318 -0.0251098
0.0546227 0.0463465 -0.0342674
0.0454723 0.0495899 -0.0291364
0.0547812 0.0513485 -0.0379619
0.048646 0.045932 -0.0310573
0.0608918 0.0436566 -0.03384
0.0475511 0.0425289 -0.0261052
0.047572 0.0469863 -0.0344156
0.0450824 0.0532104 -0.0347527
0.0500735 0.0430666 -0.0334388
0.0541344 0.0493625 -0.0352601
0.0471344 0.0577605 -0.0290182
0.046806 0.0471594 -0.0289265
0.0557669 0.048615 -0.0349659
0.0555253 0.0504844 -0.0378957
0.0577492 0.0553906 -0.0277235
0.0586429 0.0559845 -0.0263164
0.0540567 0.0464774 -0.0345873
0.0572329 0.0440423 -0.0335709
0.0485767 0.0542552 -0.0317076
0.0580145 0.0454955 -0.0294754
0.0630419 0.047947 -0.0301563
0.0611997 0.0482777 -0.0249423
0.0551132 0.0487974 -0.0267977
0.0563074 0.0582321 -0.0347996
0.0551554 0.0460189 -0.0340759
0.0553218 0.0445271 -0.0341439
0.0592384 0.050599 -0.0303073
0.0500766 0.0450717 -0.0261454
0.0538495 0.0464015 -0.0334273
0.0543927 0.0456692 -0.033004
0.0541327 0.0450331 -0.033636
0.0567988 0.056183 -0.0282937
0.0529152 0.0477997 -0.0346051
0.0480616 0.0527921 -0.0203722
0.0399664 0.0570586 -0.0252812
0.0533067 0.0594364 -0.0335331
0.0540219 0.0563721 -0.0357186
0.0445328 0.0520317 -0.0226926
0.0563465 0.0462398 -0.0336546
0.0610018 0.0489151 -0.0300111
0.0530757 0.053623 -0.0187284
0.0521787 0.0635701 -0.0321271
0.0438858 0.0610561 -0.0283584
0.0526253 0.0477922 -0.0335567
0.0534848 0.0470564 -0.0335674
0.0533116 0.0478101 -0.0332887
0.0541912 0.0456228 -0.0329884
0.0542202 0.0653786 -0.030773
0.0477549 0.0473384 -0.0263327
0.0533425 0.0520033 -0.0193788
0.0542375 0.0454834 -0.0344666
0.0437995 0.0608596 -0.0275428
0.0538331 0.0467828 -0.0336241
0.0528569 0.0466263 -0.0323792
0.0480026 0.0591811 -0.0319573
0.0552189 0.0509323 -0.0206287
0.0541524 0.0588404 -0.0257249
0.0476423 0.0471182 -0.0204355
0.0564218 0.0583238 -0.0326538
0.0504889 0.0500056 -0.0209926
0.0558795 0.0513898 -0.02433
0.0557104 0.0652341 -0.0205931
0.0487272 0.0483695 -0.0218339
0.0557684 0.0459474 -0.0333907
0.0482373 0.0453973 -0.0231777
0.0541628 0.0470089 -0.035215
0.0546014 0.04575 -0.0340678
0.0537809 0.0478493 -0.0347249
0.0495706 0.0458113 -0.0239927
0.0576842 0.0510786 -0.032109
0.0441268 0.0616756 -0.0253153
0.0486256 0.0481688 -0.0192853
0.0470641 0.052501 -0.0269884
0.0542263 0.0459037 -0.0346635
0.0468395 0.0516874 -0.0312284
0.0538223 0.0477125 -0.0334643
0.054284 0.0455906 -0.0336208
0.0520547 0.0611956 -0.0241938
0.0545692 0.0457669 -0.0347626
0.0534799 0.0481753 -0.0344521
0.0536936 0.048617 -0.0340541
0.062662 0.0564082 -0.0154142
0.0503913 0.0652081 -0.0246396
0.0524031 0.0516926 -0.0361789
0.053654 0.0482838 -0.0341399
0.051432 0.0603015 -0.0228632
0.0556703 0.0599367 -0.0305478
0.0473969 0.0602363 -0.0292768
0.0495124 0.0611356 -0.020414
0.0551519 0.0449922 -0.0291049
0.0549311 0.0484501 -0.0187174
0.0552416 0.0459353 -0.0328004
0.0536055 0.0542305 -0.0295472
0.050567 0.0492381 -0.0221466
0.0576714 0.0638296 -0.0293637
0.0419193 0.0605656 -0.0285829
0.0535016 0.0474793 -0.0330998
0.0558444 0.0555595 -0.0346665
0.054266 0.0538351 -0.0356256
0.0541409 0.0446251 -0.0335873
0.0508512 0.0653864 -0.0304627
0.0521759 0.0445525 -0.0242558
0.0577064 0.0505926 -0.0338714
0.0542398 0.0460858 -0.0354843
0.0450504 0.0581874 -0.0286618
0.0539974 0.0462195 -0.035107
0.0528408 0.0466579 -0.0332664
0.0491282 0.0449653 -0.0317124
0.04908 0.0442175 -0.0247798
0.054014 0.0617636 -0.0303719
0.052968 0.048516 -0.0270301
0.0472652 0.0491276 -0.0275766
0.0572437 0.0655383 -0.0318569
0.056391 0.0454185 -0.0330902
0.0595131 0.042428 -0.0205527
0.0531487 0.0460337 -0.0330588
0.0535705 0.0462822 -0.0349475
0.0552248 0.0455933 -0.0321891
0.0537856 0.0456514 -0.0315343
0.0546469 0.0470794 -0.034528
0.0447315 0.0582022 -0.0287011
0.055592 0.0465147 -0.0330367
0.056409 0.0475285 -0.0222085
0.0442565 0.0506612 -0.0235162
0.0546694 0.0459705 -0.0331604
0.0449918 0.0518626 -0.0281681
0.0538297 0.0463332 -0.0329703
0.053833 0.0663314 -0.0308706
0.0525148 0.044861 -0.0339612
0.0546633 0.0464709 -0.0327434
0.0557868 0.0463602 -0.0306131
0.0581157 0.048053 -0.0281955
0.0594262 0.0479799 -0.0262461
0.0477949 0.0493149 -0.0201681
0.0572348 0.0543189 -0.0172141
0.054222 0.0587155 -0.018302
0.0485431 0.0461217 -0.0263283
0.0479849 0.0476512 -0.0279142
0.053387 0.0609168 -0.0139302
0.0447066 0.0503619 -0.0298187
0.0593254 0.0444443 -0.0301681
0.0477719 0.0448532 -0.0276806
0.0443622 0.0561156 -0.032088
0.0587769 0.0609272 -0.0275748
0.055776 0.0563347 -0.0368256
0.0536453 0.0628983 -0.0153072
0.0431368 0.0528766 -0.0318531
0.0591963 0.0608532 -0.0327711
0.0542945 0.0458936 -0.0338641
0.0560519 0.0444037 -0.0268014
0.0533345 0.0461029 -0.0342257
0.0471373 0.0447274 -0.0344877
0.0439642 0.0533077 -0.0349142
0.0539143 0.047404 -0.0333109
0.0481868 0.0466847 -0.0243884
0.0433533 0.0527781 -0.0312671
0.0534126 0.0625086 -0.0208048
0.0573403 0.045246 -0.0352559
0.0487922 0.0443324 -0.0270904
0.0525924 0.0516622 -0.0268085
0.046426 0.0471778 -0.0332332
0.0593636 0.0495191 -0.033739
0.0451448 0.0532324 -0.0299095
0.0552908 0.0441614 -0.03249
0.054211 0.0531689 -0.0388084
0.0450255 0.0518609 -0.0293029
0.0482522 0.0511518 -0.0338473
0.0409984 0.0594922 -0.0245265
0.0427907 0.0504492 -0.0317874
0.0533194 0.0467424 -0.0342968
0.0542487 0.0464174 -0.0335247
0.056077 0.0485956 -0.0348688
0.057579 0.0461478 -0.0340043
0.0554963 0.0448309 -0.0262974
0.0510313 0.0507442 -0.0320899
0.0555719 0.0452566 -0.0315579
0.0541019 0.0467069 -0.0335343
0.0545131 0.0470395 -0.0345882
0.0626767 0.0500042 -0.0201521
0.0502107 0.0461366 -0.022946
0.0489364 0.0471131 -0.0227248
0.0530991 0.0470952 -0.0343293
0.0544266 0.0463219 -0.0328274
0.0496592 0.0437492 -0.0257392
0.0448213 0.0462943 -0.0282744
0.0463477 0.0473282 -0.0267493
0.0473927 0.0430579 -0.0276588
0.0561733 0.054118 -0.0353004
0.0498777 0.0531232 -0.0328724
0.0525094 0.0591304 -0.024928
0.0552652 0.0463874 -0.035983
0.0550956 0.0440202 -0.0272343
0.0580681 0.0459454 -0.0288989
0.0546245 0.0463541 -0.0342605
0.0458367 0.0584058 -0.0326637
0.0475511 0.0425289 -0.0261052
0.0505453 0.0429603 -0.0248787
0.045465 0.0499081 -0.0300081
0.0565375 0.0566531 -0.0350388
0.0553854 0.0519098 -0.0394214
0.0620671 0.056794 -0.0297643
0.046806 0.0471594 -0.0289265
0.0557669 0.0486152 -0.0349654
0.0551142 0.0446241 -0.0262528
0.0553989 0.0578826 -0.0384501
0.0533117 0.0452781 -0.0341944
0.0572329 0.0440423 -0.0335709
0.0580145 0.0454955 -0.0294754
0.0562129 0.0416278 -0.0286711
0.0563074 0.0582321 -0.0347996
0.0553218 0.0445271 -0.0341439
0.0500766 0.0450717 -0.0261454
0.0541327 0.0450334 -0.0336359
0.0560631 0.0546146 -0.0343108
0.0529152 0.0477997 -0.0346051
0.0490786 0.0664846 -0.028767
0.0518049 0.0621345 -0.0310078
0.0541649 0.0564764 -0.0348842
0.0563433 0.0462522 -0.0336352
0.0526253 0.0477922 -0.0335567
0.0536832 0.0470971 -0.0333754
0.0582058 0.0456785 -0.031403
0.0458324 0.0618025 -0.0279099
0.0487465 0.0481757 -0.0210235
0.0430677 0.0522402 -0.0223175
0.0542375 0.0454834 -0.0344666
0.0516343 0.0461746 -0.0357206
0.0451247 0.04949 -0.0257327
0.0454899 0.0504851 -0.0275252
0.0572807 0.0608675 -0.0315581
0.0487272 0.0483695 -0.0218339
0.0557683 0.0459476 -0.0333905
0.0480945 0.0466286 -0.02519
0.0560569 0.0459739 -0.0279822
0.0541628 0.0470089 -0.035215
0.0478961 0.0491803 -0.0335505
0.0542255 0.0459077 -0.0346598
0.0542731 0.0456662 -0.033555
0.0510348 0.0615063 -0.0155784
0.0431515 0.0577487 -0.0278408
0.0532669 0.0526218 -0.0394154
0.0564837 0.0603026 -0.0340441
0.0623995 0.0559637 -0.0209209
0.0606035 0.0533668 -0.0331333
0.0530627 0.0470714 -0.0347188
0.0479183 0.0483573 -0.0209424
0.0542398 0.0460858 -0.0354843
0.0539977 0.0462202 -0.0351056
0.0480948 0.047843 -0.0235021
0.0478989 0.0479838 -0.0266302
0.0586155 0.0620736 -0.030959
0.0445051 0.0570291 -0.0289567
0.0476099 0.0495893 -0.0229439
0.05639 0.0454235 -0.0330848
0.0531487 0.0460337 -0.0330587
0.053801 0.0459688 -0.0348514
0.0535705 0.0462822 -0.0349475
0.0546477 0.0470838 -0.034518
0.0555931 0.0465528 -0.0329962
0.044367 0.0472465 -0.0240842
0.0546694 0.0459705 -0.0331604
0.0621069 0.0799668 -0.0205406
0.0582656 0.05461 -0.0245652
0.0515548 0.0589497 -0.0352949
0.0581853 0.0672487 -0.0258168
0.0561852 0.0546978 -0.0346059
0.0477581 0.0665609 -0.028394
0.0405889 0.0590667 -0.0101877
0.04612 0.055089 -0.0185712
0.0523638 0.0462375 -0.0104455
0.0503822 0.0516456 -0.0201376
0.0490836 0.0496053 -0.0336562
0.0581537 0.0647051 -0.0251937
0.051736 0.059087 -0.0165903
0.0642212 0.0436052 -0.0230131
0.0570275 0.0472125 -0.0302336
0.0441793 0.0548409 -0.0288708
0.0461629 0.0502723 -0.0366083
0.0456495 0.0466384 -0.0253005
0.0643718 0.0513191 -0.0261245
0.0589152 0.0813584 -0.0206597
0.0535931 0.0588265 -0.0319137
0.0694634 0.0470434 -0.0276556
0.0532678 0.0546051 -0.03503
0.0545299 0.0617533 -0.020418
0.0594398 0.0589659 -0.0347764
0.0618085 0.0541226 -0.0293357
0.047213 0.0455907 -0.0225665
0.0500752 0.051865 -0.0190957
0.0429192 0.0505882 -0.0346516
0.0555266 0.0561507 -0.0182124
0.0575027 0.0600388 -0.0318614
0.0418172 0.0475428 -0.0264201
0.040321 0.0602339 -0.016642
0.065043 0.0476712 -0.0228358
0.0472562 0.0493986 -0.0330731
0.0432607 0.0499484 -0.0226512
0.0460364 0.0559584 -0.0289415
0.0471195 0.070776 -0.0272306
0.0509911 0.0472692 -0.0208622
0.0521197 0.0729762 -0.0272028
0.0548708 0.0668169 -0.0302287
0.0640139 0.055774 -0.0172997
0.0560589 0.0484235 -0.00984869
0.0565498 0.0463647 -0.0393321
0.0444385 0.0513837 -0.0210479
0.0580746 0.0549206 -0.025364
0.061427 0.0477934 -0.0292049
0.0620179 0.049661 -0.0210209
0.0629791 0.0496792 -0.029607
0.058985 0.0514302 -0.0333189
0.0547123 0.0715437 -0.0252972
0.0502872 0.0482044 -0.0118706
0.0535732 0.0680566 -0.0188057
0.0398627 0.0613023 -0.0271313
0.0452183 0.039115 -0.0255094
0.0459029 0.0405113 -0.0254928
0.0654896 0.0598972 -0.0171232
0.0383177 0.0506208 -0.0354713
0.045859 0.0402829 -0.0280499
0.0400786 0.0546972 -0.0369554
0.0638625 0.0405412 -0.0193978
0.0574039 0.0539576 -0.0390381
0.0508088 0.0540712 -0.0219419
0.0634427 0.0532676 -0.0245824
0.0392941 0.0522447 -0.0362995
0.0594634 0.0571908 -0.0331462
0.0629453 0.0804216 -0.0313564
0.0585542 0.0429691 -0.0271085
0.0451261 0.0382928 -0.0234809
0.062424 0.0468066 -0.0230166
0.0579317 0.0459218 -0.0370306
0.0403528 0.0540326 -0.0323821
0.0541647 0.0484481 -0.0342664
0.0610301 0.0457929 -0.0238961
0.0462158 0.0388536 -0.0270654
0.0570739 0.0628453 -0.0184653
0.0495064 0.0419747 -0.02466
0.0544212 0.0699911 -0.0220204
0.0552474 0.0578698 -0.033405
0.0588059 0.0410622 -0.0336891
0.05675 0.0569121 -0.0396835
0.0530992 0.0533518 -0.0370055
0.0562139 0.0550094 -0.0404191
0.0602387 0.0433569 -0.0241717
0.0638558 0.0483932 -0.0279307
0.0602082 0.0469019 -0.031117
0.0546856 0.0573213 -0.0408646
0.0596985 0.0683883 -0.0336023
0.0611094 0.0544564 -0.00922837
0.0545476 0.0573399 -0.0382143
0.0588046 0.0471881 -0.0358339
0.0608401 0.0780134 -0.0318943
0.0529785 0.0454747 -0.0329878
0.057843 0.0450784 -0.0263995
0.0537933 0.0512764 -0.00888373
0.0577229 0.0532015 -0.0364216
0.0366252 0.0572028 -0.0177399
0.0523828 0.0490935 -0.0369207
0.0591854 0.0547129 -0.0358414
0.0545942 0.047543 -0.0339564
0.0454983 0.0561418 -0.0293894
0.0587503 0.0580089 -0.0390169
0.049736 0.0443366 -0.0246815
0.0569442 0.0530708 -0.0355519
0.0639329 0.0459327 -0.0258479
0.0480551 0.041376 -0.0253533
0.0624264 0.0498025 -0.0375903
0.0623003 0.0502447 -0.0308639
0.0386128 0.0494305 -0.0371362
0.0578327 0.0528307 -0.0337796
0.0541344 0.0493625 -0.0352601
0.0545357 0.0434764 -0.0251324
0.0540571 0.0464831 -0.0345757
0.0479078 0.0545649 -0.0241013
0.0590133 0.0413686 -0.0273141
0.0551553 0.0460194 -0.0340753
0.0478187 0.056047 -0.0373447
0.0593172 0.0454768 -0.023072
0.0385325 0.0564754 -0.0248264
0.0521292 0.0605857 -0.0357932
0.0550172 0.0570919 -0.0429458
0.0616302 0.0548787 -0.0318159
0.0541912 0.0456228 -0.0329884
0.0566463 0.0664659 -0.0386202
0.0457847 0.041106 -0.0262803
0.0496527 0.0571549 -0.0353043
0.0538331 0.0467828 -0.0336241
0.0386881 0.0549767 -0.0317248
0.0541596 0.0613684 -0.0343153
0.065846 0.0520223 -0.0213714
0.0620487 0.0538693 -0.0154744
0.0611154 0.0468642 -0.0278562
0.0501016 0.0577427 -0.0440214
0.0529743 0.0563367 -0.0169674
0.0485912 0.0609195 -0.0266486
0.0524031 0.0516926 -0.0361789
0.0568283 0.0592591 -0.0173088
0.0399237 0.0605336 -0.0338127
0.0552416 0.0459353 -0.0328004
0.0657102 0.0547497 -0.0236912
0.062876 0.0437903 -0.0248477
0.0478085 0.0449985 -0.0221019
0.0610481 0.0492689 -0.0201846
0.0500891 0.0435338 -0.0219593
0.0459697 0.0425201 -0.0252174
0.0536575 0.0457693 -0.0219399
0.0627955 0.0461778 -0.0254582
0.0631471 0.054981 -0.0239057
0.0446207 0.0386248 -0.0277259
0.044811 0.0564369 -0.034826
0.0470531 0.0426151 -0.0214607
0.0450802 0.0396465 -0.026285
0.0479849 0.0476512 -0.0279142
0.0443622 0.0561156 -0.032088
0.0622999 0.0628363 -0.0303984
0.0431368 0.0528766 -0.0318531
0.047965 0.0400441 -0.0220799
0.0540035 0.0473757 -0.0332198
0.0461886 0.0445757 -0.0242052
0.0487922 0.0443324 -0.0270904
0.051957 0.0598624 -0.0351663
0.0552908 0.0441614 -0.03249
0.0611353 0.0528857 -0.0349702
0.0600895 0.0574884 -0.0302226
0.0629725 0.061343 -0.0184714
0.0462257 0.0403976 -0.0302363
0.0484814 0.0462553 -0.0221637
0.0463477 0.0473282 -0.0267493
0.0561733 0.054118 -0.0353004
0.0626805 0.0584691 -0.0313518
0.0553854 0.0519098 -0.0394214
0.0620417 0.041555 -0.0304488
0.0560631 0.0546146 -0.0343108
0.0504594 0.0676871 -0.0313905
0.0566373 0.060301 -0.0368307
0.0582058 0.0456785 -0.031403
0.0487465 0.0481757 -0.0210235
0.0516343 0.0461746 -0.0357206
0.0474599 0.0456668 -0.0234451
0.0625317 0.0494323 -0.0214437
0.0532669 0.0526218 -0.0394154
0.0530767 0.0470728 -0.0346876
0.0479183 0.0483573 -0.0209424
0.0474508 0.0447837 -0.0220515
0.0478989 0.0479838 -0.0266302
0.0613928 0.0553097 -0.0330379
0.0620618 0.0456608 -0.026678
0.053801 0.0459688 -0.0348514
0.0462193 0.044271 -0.0195285
0.0508636 0.0426873 -0.0191462
0.0617229 0.0422405 -0.0331818
0.0441793 0.0548409 -0.0288708
0.0391391 0.057303 -0.0323955
0.062792 0.0551198 -0.0200243
0.0548121 0.0561416 -0.0424329
0.0648688 0.0546025 -0.0362175
0.0343413 0.058883 -0.0307311
0.0439211 0.0444903 -0.0145052
0.0585175 0.0611414 -0.0320292
0.0416096 0.0524599 -0.028159
0.0409049 0.0652139 -0.0341576
0.0547925 0.054897 -0.0412528
0.0541978 0.0591161 -0.0178385
0.0554898 0.0536325 -0.0191264
0.0440102 0.0568179 -0.0321715
0.0468562 0.0619791 -0.0333251
0.0547096 0.0541383 -0.0234654
0.0623243 0.0579507 -0.0151689
0.0463874 0.0484214 -0.0248384
0.0411419 0.0408127 -0.0267413
0.0462891 0.0642575 -0.0285485
0.0703315 0.0472052 -0.0284366
0.0500081 0.065064 -0.03202
0.0612524 0.0600875 -0.0275919
0.0621635 0.0470133 -0.0252444
0.0616624 0.0529027 -0.0362147
0.044739 0.0511456 -0.0207299
0.0488878 0.0562487 -0.022946
0.054403 0.0545795 -0.0268915
0.0582115 0.0381734 -0.0356972
0.0540665 0.0479119 -0.0342072
0.0474574 0.0465598 -0.0188392
0.0539831 0.0481538 -0.0335309
0.0432409 0.0534202 -0.0156387
0.0605259 0.0492156 -0.0295883
0.0442568 0.0394456 -0.021564
0.0610781 0.05756 -0.0310199
0.0487277 0.0458643 -0.0250452
0.0544012 0.0482012 -0.0342669
0.047227 0.05247 -0.0267614
0.0430539 0.0533052 -0.0354712
0.0637084 0.056036 -0.0298281
0.0481494 0.0447325 -0.0290677
0.0626344 0.0527607 -0.029466
0.0565748 0.072995 -0.023172
0.0468506 0.0568255 -0.0357421
0.0474311 0.0439034 -0.022875
0.0526961 0.045687 -0.0333012
0.0528945 0.0480093 -0.0351011
0.0448321 0.0594973 -0.0275161
0.0619959 0.0551253 -0.0308984
0.0510991 0.0498268 -0.0131763
0.0416985 0.0660034 -0.0348465
0.0543143 0.0527825 -0.0356893
0.0514839 0.0585748 -0.0358708
0.063822 0.0602877 -0.0291113
0.0631044 0.0466887 -0.0247952
0.0461309 0.0538442 -0.0286832
0.051054 0.0603083 -0.0269938
0.0652857 0.0507041 -0.0377582
0.0457307 0.0432013 -0.0176026
0.0591279 0.0452831 -0.0261774
0.0653814 0.0476833 -0.0277258
0.0490921 0.0578228 -0.0386629
0.0472943 0.0652031 -0.0276097
0.0648047 0.0488578 -0.0276052
0.0527794 0.06225 -0.0332738
0.0538531 0.0650899 -0.0241837
0.0452368 0.054606 -0.0251701
0.039992 0.0669397 -0.0278209
0.0583706 0.0505601 -0.0323593
0.0585966 0.0541368 -0.040275
0.0554418 0.0456834 -0.0329551
0.0460527 0.0606346 -0.0208298
0.0538587 0.0471077 -0.033939
0.0563694 0.0333997 -0.00783039
0.0570865 0.0471333 -0.0326365
0.0435721 0.0455307 -0.024996
0.0640595 0.0539626 -0.0264372
0.0470969 0.0360947 -0.0220346
0.0536794 0.0476461 -0.0344549
0.0526399 0.0537444 -0.0231751
0.0520406 0.0532011 -0.035018
0.0665271 0.0568746 -0.0312433
0.0605689 0.0485418 -0.0265086
0.0436371 0.0492562 -0.0165543
0.0667601 0.0545072 -0.021682
0.0456672 0.0616846 -0.028861
0.0460697 0.0446814 -0.0224194
0.0530657 0.0470479 -0.0334968
0.054025 0.0452725 -0.0330948
0.0429179 0.0521399 -0.0272327
0.0521334 0.0519001 -0.0279021
0.0492428 0.0402691 -0.0224033
