ply
format ascii 1.0
comment Created by Open3D
element vertex 1165
property double x
property double y
property double z
property uchar red
property uchar green
property uchar blue
end_header
0.0815005 0.0157334 -0.0985207 118 32 34
0.082565 0.0256295 -0.0983576 117 31 32
0.0841582 0.0143931 -0.0939182 121 35 35
0.0862641 0.0258174 -0.0953603 116 29 31
0.080572 0.0141713 -0.0938967 103 36 34
0.0870373 0.0124806 -0.0943381 121 36 36
0.0819719 0.0207004 -0.0992306 115 32 33
0.0860696 0.0284776 -0.0974305 121 32 34
0.0834187 0.0184418 -0.0950943 118 31 32
0.0847958 0.0313928 -0.0903399 255 241 249
0.0803564 0.0235872 -0.0964592 108 37 36
0.082719 0.010617 -0.0911968 102 37 36
0.0829177 0.0248791 -0.0957379 116 31 32
0.0834547 0.019406 -0.0965856 116 29 30
0.0825253 0.0308281 -0.0916029 255 255 255
0.0826333 0.00943398 -0.0930739 108 37 36
0.0840359 0.0161159 -0.0986736 118 32 33
0.0873583 0.0430998 -0.0897439 139 25 25
0.0834853 0.0192531 -0.100114 115 30 31
0.0867056 0.0280463 -0.0962493 177 114 111
0.0869073 0.0228938 -0.0985857 117 31 32
0.0801197 0.0116712 -0.0943633 103 37 36
0.0822291 0.0125904 -0.100273 127 42 43
0.0797311 0.0301577 -0.100992 118 29 31
0.0860356 0.0396358 -0.0922096 140 32 32
0.0857539 0.0200397 -0.099927 118 32 33
0.0826309 0.0292753 -0.0947626 255 255 126
0.0836571 0.00974795 -0.0935075 106 36 35
0.079956 0.011872 -0.0832981 83 45 43
0.0794563 0.0142569 -0.0977192 122 34 34
0.0844981 0.0273673 -0.0978052 120 30 32
0.0782535 0.0132397 -0.0948691 96 29 29
0.0866522 0.0146213 -0.096907 116 32 33
0.0821424 0.0138479 -0.0937767 108 33 33
0.086584 0.0153828 -0.0987797 115 32 32
0.0837257 0.0153193 -0.095611 120 32 34
0.0869854 0.0197392 -0.0961893 114 30 31
0.0807951 0.020706 -0.096714 106 37 35
0.0781314 0.0292439 -0.0960813 109 35 35
0.0800911 0.0152314 -0.0952773 114 36 36
0.0825822 0.0250166 -0.101082 114 27 29
0.0746305 0.0121181 -0.0903469 90 57 55
0.0791328 0.0126563 -0.031045 44 6 5
0.0749969 0.0182624 -0.0772256 134 92 92
0.076503 0.0174865 -0.0774618 121 83 80
0.0862879 0.0355361 -0.0828006 91 24 23
0.0811397 0.0147582 -0.0788399 96 63 57
0.0730053 0.0164597 -0.0759936 117 76 74
0.0775895 0.00172053 -0.0988415 88 32 34
0.073751 0.0055211 -0.0725685 81 51 47
0.138504 0.0260068 -0.0424655 0 0 0
0.0807949 0.00961668 -0.0809894 95 64 61
0.0647949 0.0196762 -0.0828767 168 131 128
0.0941795 0.0185002 -0.0366463 42 5 5
0.0932992 0.0123634 -0.0248313 0 0 0
0.116463 0.0110132 -0.0332286 0 0 0
0.079253 -0.0082648 -0.058344 61 9 8
0.0493258 0.00131532 -0.0562485 95 43 39
0.0999586 0.0118826 -0.0368778 0 0 0
0.0658265 0.0287603 -0.0698372 145 80 74
0.0687158 0.0170149 -0.07964 152 90 86
0.109354 0.0128892 -0.0816207 137 31 33
0.0629016 0.0196421 -0.0455781 117 60 56
0.111704 0.0320844 -0.0341396 0 0 0
0.0943332 0.0181247 -0.0437817 41 6 5
0.100163 0.0258395 -0.0798725 117 29 30
0.122011 0.0393684 -0.0458525 0 0 0
0.138589 0.0254754 -0.0475325 0 0 0
0.095503 0.0186831 -0.03307 0 0 0
0.113606 0.0277905 -0.0339131 0 0 0
0.116975 0.0246057 -0.0463869 70 31 29
0.107909 0.0230161 -0.0448223 53 15 14
0.10047 0.0178044 -0.0318035 0 0 0
0.0918413 0.026469 -0.0346362 46 9 8
0.0874583 0.00950303 -0.038764 37 2 2
0.065334 0.0126989 -0.0703163 113 62 59
0.0699664 0.0117438 -0.0746065 107 66 62
0.0993266 0.0100093 -0.0363874 0 0 0
0.0716767 0.0520913 -0.0659122 112 48 43
0.0847448 0.0215772 -0.04159 48 9 8
0.116594 0.0239433 -0.0799452 141 32 34
0.0879883 0.00763629 -0.0584651 64 19 17
0.0954614 0.0107175 -0.0307548 0 0 0
0.106846 0.00898976 -0.0380679 0 0 0
0.0930014 0.0543151 -0.0651653 190 140 126
0.121057 0.022189 -0.0510098 51 8 8
0.112832 0.0156519 -0.0663365 109 30 31
0.0885453 0.025764 -0.0401827 48 10 9
0.102136 0.0278514 -0.0505668 65 18 16
0.0955528 0.020438 -0.0733281 86 48 45
0.0922999 0.0119261 -0.038556 42 5 4
0.0744305 0.0215833 -0.0831693 192 146 142
0.0745843 0.0158637 -0.0839467 186 155 151
0.0801521 0.0150204 -0.0921904 100 32 32
0.07464 0.0134936 -0.0881383 109 71 67
0.0798304 0.0128249 -0.0879568 95 31 29
0.0747744 0.0128481 -0.0839876 122 76 71
0.0789369 0.0319192 -0.0957993 111 38 37
0.0770953 0.0273981 -0.0779539 168 131 125
0.0758769 0.0285193 -0.0798629 171 125 117
0.0694963 0.0174376 -0.074636 146 100 94
0.073869 0.0197627 -0.0815355 183 144 139
0.0732312 0.0233008 -0.082278 185 138 134
0.0771307 0.0140458 -0.0823051 120 75 68
0.0688416 0.0438769 -0.0834406 161 84 75
0.0765856 0.0216718 -0.0814665 185 146 142
0.0744836 0.0113055 -0.0808436 112 73 88
0.0792622 0.00875528 -0.0868834 81 43 40
0.0728946 0.0220583 -0.0812915 176 135 131
0.0728545 0.0233127 -0.082694 190 143 138
0.0791106 0.0139879 -0.0911374 94 30 30
0.0774686 0.0198332 -0.0722917 128 97 90
0.0749607 0.016713 -0.0801013 154 100 95
0.0777395 0.0210481 -0.0756489 142 113 108
0.0807332 0.0201734 -0.0950476 134 69 65
0.0798263 0.015618 -0.0883189 90 34 33
0.0755743 0.0247568 -0.0803122 177 132 128
0.0741264 0.0199059 -0.0784867 155 99 95
0.0737668 0.0232251 -0.0697312 138 70 63
0.0815532 0.0208897 -0.0781693 138 86 76
0.0831073 0.0137489 -0.0749577 91 57 55
0.0805555 0.0141457 -0.0891656 92 30 30
0.0801056 0.0262419 -0.0853911 206 125 115
0.081097 0.0225647 -0.0734851 125 88 82
0.0791602 0.0336074 -0.0843375 171 120 119
0.0802342 0.0315105 -0.0971472 130 44 46
0.0793167 0.0105071 -0.0940953 102 37 35
0.0798561 0.0203209 -0.0791456 167 109 102
0.0815581 0.0121021 -0.0816171 83 42 40
0.0810237 0.0252774 -0.0900438 186 133 125
0.0787252 0.0316534 -0.0842569 179 125 124
0.0793803 0.0314001 -0.0682041 113 53 47
0.0766453 0.0259759 -0.0738255 145 97 90
0.0786255 0.0155133 -0.0961083 110 40 39
0.0751399 0.0113676 -0.0842385 111 65 62
0.0714894 0.026411 -0.0818686 185 135 131
0.0807726 0.0103644 -0.0811628 90 55 52
0.0812525 0.0349159 -0.0849557 149 116 111
0.0818577 0.0328737 -0.0879195 228 156 108
0.0843766 0.0316765 -0.0907866 70 25 25
0.0799134 0.0325473 -0.0840361 208 125 132
0.0818819 0.0310552 -0.0920986 255 255 255
0.0793129 0.0315905 -0.0656333 109 47 43
0.0793237 0.0300403 -0.081713 173 109 101
0.0793309 0.0173088 -0.0925769 102 30 29
0.0781687 0.0148454 -0.0799935 124 90 84
0.0775407 0.011061 -0.0643405 69 23 21
0.0815909 0.0155774 -0.0749551 100 72 71
0.0784296 0.0169678 -0.0950503 110 38 36
0.0730039 0.0219171 -0.0841811 194 146 142
0.0710461 0.0171002 -0.0851188 206 165 161
0.0769139 0.0137931 -0.0880679 89 54 51
0.0744703 0.0139951 -0.0906587 104 55 52
0.0769302 0.0180204 -0.0883387 164 170 166
0.0731267 0.0265124 -0.0806243 177 127 123
0.0753155 0.017759 -0.0623611 102 52 48
0.0762778 0.00189078 -0.0812837 90 34 32
0.0805872 0.0288975 -0.0947322 157 133 117
0.0834602 0.0129687 -0.0941604 119 33 34
0.0710398 0.0235168 -0.0784967 169 128 124
0.075713 0.0287954 -0.0973905 141 138 137
0.0788921 0.0253211 -0.0923856 181 124 115
0.069531 0.0249565 -0.0937649 190 109 97
0.0694331 0.0344639 -0.0851422 190 141 136
0.0792261 0.0210802 -0.098645 106 41 42
0.0752262 0.0151998 -0.0784562 126 91 93
0.0715599 0.0314919 -0.0716154 129 72 66
0.0805668 0.00892763 -0.0939182 101 39 36
0.079968 0.0192083 -0.0960945 118 29 30
0.0794565 0.0175565 -0.0991099 117 30 31
0.0752891 0.029285 -0.0834033 194 120 111
0.0779337 0.0437431 -0.089996 149 50 49
0.0821254 0.0352955 -0.0870569 172 104 95
0.0762745 0.015352 -0.0914131 91 35 35
0.0796047 0.0369147 -0.0873528 190 123 111
0.0702106 0.017683 -0.0800487 158 96 92
0.0803216 0.0396257 -0.0744401 141 85 76
0.0783033 0.0267771 -0.0988076 117 34 35
0.0746327 0.0252452 -0.0999455 177 144 138
0.0791997 0.0192296 -0.0997405 116 29 30
0.0827672 0.0331793 -0.0880638 197 111 112
0.082155 0.0407562 -0.0840403 144 32 30
0.0826436 0.0310347 -0.0926468 251 255 255
0.0776951 0.0174722 -0.0777269 130 93 100
0.0762705 0.0189062 -0.0801979 160 103 98
0.0767076 0.0176573 -0.0641454 95 37 34
0.0783461 0.0328785 -0.0949838 113 42 41
0.081262 0.039875 -0.0848522 151 52 50
0.0759474 0.0145066 -0.0888196 101 62 58
0.0782797 0.0212885 -0.0967771 222 102 86
0.0751329 0.0299342 -0.0852109 195 124 115
0.0755782 0.0446518 -0.0779601 149 67 60
0.0812571 0.0364083 -0.0926023 123 56 51
0.0746262 0.024809 -0.0991935 190 126 117
0.0790548 0.0151429 -0.0960668 114 37 36
0.0798625 0.0355016 -0.0834462 125 99 88
0.080194 0.0240347 -0.0951553 156 123 120
0.0834078 0.0240572 -0.0810721 187 160 158
0.0779754 0.0129939 -0.0746212 93 64 61
0.0784768 0.0370012 -0.0848641 219 176 162
0.0811159 0.0184651 -0.0785662 172 124 111
0.0779293 0.0234675 -0.0821671 191 148 145
0.0795185 0.0399331 -0.0865666 161 53 48
0.0819719 0.0103871 -0.0930803 103 41 39
0.0860159 0.0263176 -0.0891206 116 49 47
0.0750485 0.0113125 -0.0859746 93 50 48
0.0708252 0.0458417 -0.0816398 155 74 66
0.0739818 0.0241657 -0.0885627 191 151 144
0.0719837 0.0265127 -0.065634 130 67 61
0.070118 0.0304448 -0.0917879 176 133 130
0.0809826 0.012427 -0.0795271 96 62 59
0.0777746 0.00637964 -0.0797445 105 46 43
0.0630376 0.0133357 -0.0782731 137 78 73
0.0736556 0.03145 -0.0677524 126 73 66
0.0548284 0.0362314 -0.0966642 187 132 124
0.0760021 0.0230942 -0.0773094 166 107 102
0.0608173 0.0235442 -0.0745818 160 92 86
0.0742561 0.0211585 -0.0702874 136 91 84
0.0637713 0.0184644 -0.102069 185 153 147
0.075256 0.03907 -0.0792914 163 122 113
0.0787587 0.016122 -0.088493 105 56 53
0.07306 0.0130034 -0.074012 108 71 66
0.0706248 0.0102142 -0.0783842 111 69 67
0.0762936 0.0125428 -0.083559 109 74 73
0.0786458 0.0122143 -0.0874358 90 68 64
0.0824535 0.0501063 -0.0700826 165 100 90
0.0781619 0.018071 -0.0764789 128 92 92
0.0770124 0.0145298 -0.0995803 121 33 34
0.0818771 0.0131266 -0.0871858 97 30 30
0.0709952 0.00344414 -0.0758142 90 53 51
0.0705058 0.0412659 -0.0761662 167 115 107
0.0712538 0.0270637 -0.0660826 133 76 68
0.0738301 0.0234337 -0.0764665 162 98 93
0.0745623 0.0374456 -0.0730372 116 74 66
0.0804565 0.0195881 -0.0814401 175 106 101
0.0704705 0.0197104 -0.07339 148 100 93
0.0725748 0.0313128 -0.0713255 130 72 66
0.0727879 0.049499 -0.0890249 141 54 50
0.076433 0.0324417 -0.0785822 151 107 99
0.0751611 0.0155389 -0.077073 118 86 84
0.081286 0.0301138 -0.0937421 229 148 195
0.0817625 0.0214027 -0.0941497 223 102 85
0.0746181 0.0305749 -0.0740137 134 86 79
0.0721294 0.047226 -0.0815971 154 65 59
0.0689971 0.0238798 -0.0733645 151 83 78
0.0732337 0.0111159 -0.0962229 97 33 32
0.0747297 0.0187739 -0.0697997 123 85 80
0.0802099 0.0154733 -0.0877079 90 34 34
0.0723346 0.00989997 -0.0753096 99 71 70
0.0832394 0.0422895 -0.0944437 150 47 45
0.0856999 0.00769242 -0.0687318 90 51 49
0.0784832 0.0199971 -0.0694117 107 56 52
0.0840416 0.0351569 -0.0937136 127 38 38
0.0763475 0.0141124 -0.0846835 120 75 71
0.0738564 0.0264031 -0.0816983 181 128 123
0.0808076 0.0288754 -0.0982886 120 30 32
0.0799271 0.0390032 -0.0846205 149 71 60
0.082162 0.0319179 -0.0937045 231 142 161
0.0796188 0.0320712 -0.0834931 255 230 213
0.0799162 0.0113223 -0.0718998 84 48 45
0.0811168 0.0349052 -0.0870505 198 115 131
0.0787392 0.0155165 -0.0863979 118 78 72
0.0645696 0.0287905 -0.0841521 191 136 129
0.0759296 0.0196116 -0.0823841 200 160 154
0.0772202 0.0189588 -0.0741354 121 99 95
0.0829253 0.0397934 -0.0842484 156 51 44
0.0764469 0.011986 -0.0838332 99 62 60
0.0785186 0.0122104 -0.0872949 90 69 65
0.0781348 0.0372925 -0.0769967 125 92 84
0.0775304 0.0399784 -0.087246 163 87 81
0.0772819 0.0226226 -0.0749461 129 122 114
0.0824431 0.0340564 -0.0863668 148 93 93
0.0750673 0.0153087 -0.0680862 101 54 50
0.0737021 0.0130031 -0.0710401 94 46 43
0.0790698 0.0129969 -0.0872105 93 58 56
0.0765548 0.0229895 -0.0886771 195 147 140
0.0757811 0.0117818 -0.0847432 93 51 49
0.0774416 0.0285619 -0.0995312 119 32 33
0.0726662 0.025498 -0.0548588 100 49 45
0.0720348 0.0428903 -0.0870652 152 83 77
0.0749389 0.0463749 -0.0756586 141 57 51
0.0858754 0.00873034 -0.0703218 93 53 51
0.0811228 0.0151121 -0.0954108 122 33 34
0.0780318 0.0201326 -0.0780492 155 110 116
0.0811045 0.0153258 -0.0809396 104 77 76
0.072698 0.0160422 -0.0952683 117 70 69
0.073228 0.0290983 -0.0737472 151 87 81
0.0748749 0.0320606 -0.0991844 113 40 40
0.0774362 0.0268395 -0.0836091 199 126 118
0.0808928 0.0179288 -0.0608587 97 41 37
0.076318 0.0281041 -0.0793353 172 123 117
0.077901 0.0179344 -0.0982685 118 29 30
0.0759078 0.0268903 -0.0823571 188 124 119
0.0799099 0.0424562 -0.0904343 146 61 58
0.075613 0.0451695 -0.0796477 165 74 66
0.0830726 0.0164212 -0.073928 100 69 68
0.07553 0.0300227 -0.0788956 166 113 106
0.0718263 0.0209205 -0.0781734 157 104 100
0.0743481 0.0264331 -0.0725518 153 89 81
0.0760719 0.0144579 -0.0880698 103 64 60
0.0753592 0.00741649 -0.0822715 98 64 62
0.0825353 0.0153713 -0.0797464 95 72 68
0.0744782 0.042168 -0.0864372 153 81 76
0.0747669 0.0142324 -0.092158 90 35 34
0.074911 0.0131403 -0.0871603 104 76 72
0.083337 0.0153006 -0.0838396 89 49 47
0.0788245 0.0391724 -0.0835472 144 79 72
0.0782992 0.0314306 -0.097996 124 35 35
0.0838492 0.0309306 -0.0936672 255 255 255
0.0803341 0.0470649 -0.0943177 192 21 19
0.0825001 0.0298534 -0.0823064 150 91 83
0.0823746 0.0230344 -0.0945838 115 40 39
0.0763965 0.0278361 -0.0829026 192 118 111
0.0803384 0.0379446 -0.0853906 167 97 86
0.0747791 0.0140007 -0.0890494 110 72 67
0.0761362 0.0150681 -0.0756317 113 78 77
0.0796871 0.0422479 -0.0841772 131 42 40
0.0672193 0.0442168 -0.0822357 156 93 85
0.0746442 0.0250289 -0.0788358 174 130 125
0.0765004 0.0138024 -0.0864687 108 80 73
0.0735803 0.0142851 -0.0960318 94 36 34
0.0758385 0.00789931 -0.090339 84 46 43
0.080072 0.0420367 -0.0836016 152 61 61
0.075665 0.0157413 -0.0950213 99 30 30
0.0713964 0.0140683 -0.0738092 113 69 64
0.076048 0.0134684 -0.0896963 87 51 48
0.0753437 0.0306054 -0.0964215 156 127 126
0.0801555 0.0154087 -0.0859792 86 53 50
0.0712966 0.0271379 -0.0803763 179 130 124
0.0762953 0.0271785 -0.0855596 197 118 109
0.0790028 0.0230082 -0.0811262 185 151 148
0.0800192 0.0171281 -0.0988677 117 32 33
0.0665629 0.0214972 -0.0853783 196 149 144
0.0743654 0.02225 -0.0832199 196 151 147
0.0772889 0.0274569 -0.0737151 132 91 83
0.0798581 0.032124 -0.0863573 183 154 153
0.0807458 0.0458041 -0.0706515 133 69 62
0.0705902 0.0340365 -0.0890269 183 155 147
0.0846415 0.0445541 -0.0906532 139 25 25
0.080096 0.0203281 -0.086913 181 181 178
0.0742275 0.026243 -0.0855541 193 129 120
0.0786789 0.0410247 -0.0836797 139 62 58
0.0764319 0.0298409 -0.0818567 187 122 115
0.0601844 0.0276629 -0.0619654 148 78 72
0.0742224 0.0272088 -0.090492 201 138 128
0.080984 0.0334271 -0.0876556 131 81 86
0.0779229 0.02028 -0.0795619 168 104 97
0.0725256 0.0209656 -0.076621 153 98 94
0.0713914 0.0110522 -0.087167 115 71 68
0.0699194 0.0207376 -0.0790365 161 125 121
0.0788709 0.0328865 -0.0964351 123 35 35
0.0795534 0.0325067 -0.095546 109 37 37
0.0789178 0.0267115 -0.094735 161 187 173
0.0787806 0.0330496 -0.0962934 124 37 37
0.0766773 0.0231713 -0.0792973 177 123 118
0.0788435 0.0148444 -0.0921774 94 28 29
0.0794249 0.0247984 -0.0952155 182 152 146
0.0764759 0.0269917 -0.0861506 200 122 112
0.0761584 0.0198943 -0.0746871 147 117 111
0.0718021 0.00900878 -0.0729983 84 55 48
0.0817541 0.0454955 -0.0845867 184 68 61
0.0773526 0.0298685 -0.0803183 169 115 108
0.0780289 0.0271094 -0.0795601 174 131 125
0.0755235 0.0148991 -0.0931599 93 39 38
0.0752011 0.0300906 -0.080982 173 116 109
0.079009 0.036371 -0.0926761 110 39 37
0.0746498 0.0240439 -0.0794497 171 128 124
0.0773857 0.0431944 -0.0736422 125 57 51
0.0845075 0.0175101 -0.0912449 126 39 40
0.0790784 0.042721 -0.0843773 144 57 55
0.0717002 0.0239711 -0.0754805 158 92 86
0.0771553 0.0362101 -0.0949519 112 45 43
0.0706498 0.0239984 -0.0925095 188 124 114
0.0739295 0.0302029 -0.0733948 133 78 71
0.073679 0.0220804 -0.0779886 161 104 100
0.0783598 0.0199161 -0.0976929 135 66 62
0.081636 0.032867 -0.0697785 113 55 51
0.0722431 0.00872618 -0.0769561 96 60 60
0.0759246 0.0254156 -0.0796477 181 135 129
0.0767583 0.0306669 -0.0816556 183 126 119
0.0773107 0.0258228 -0.0692777 120 58 52
0.0785034 0.0281197 -0.0848282 190 116 108
0.0744338 0.0277731 -0.101075 108 39 38
0.0747815 0.0247035 -0.0781854 172 120 115
0.0794184 0.0146441 -0.079347 104 86 80
0.0720883 0.030358 -0.0741118 142 80 74
0.070284 0.0266532 -0.0756373 157 95 89
0.0825593 0.0298007 -0.0974036 118 30 32
0.0804257 0.0311735 -0.0830551 227 165 155
0.0726333 0.022977 -0.101664 215 113 99
0.0708084 0.00906723 -0.0796385 104 64 70
0.0771136 0.0350621 -0.0952941 111 44 41
0.0760423 0.0147611 -0.0888959 100 61 57
0.0821029 0.0313906 -0.095341 255 255 255
0.073976 0.0243255 -0.0817081 182 131 127
0.0677683 0.0246525 -0.0741213 155 86 80
0.0780642 0.0446025 -0.0840745 161 78 73
0.0715463 0.0256305 -0.0805493 179 129 125
0.0668283 0.0215059 -0.0819992 174 135 131
0.0815967 0.039472 -0.0950746 146 42 42
0.0750918 0.0310699 -0.0683048 131 76 71
0.0773721 0.0127702 -0.0761469 95 67 65
0.076502 0.0392615 -0.077234 132 92 83
0.0711579 0.0365726 -0.0681858 136 81 75
0.0735024 0.0182182 -0.0806035 165 103 100
0.070749 0.0431836 -0.0682194 107 56 50
0.0735345 0.0283832 -0.0825617 188 125 117
0.0836145 0.0343224 -0.0876328 121 47 47
0.0799104 0.0411294 -0.0853777 187 64 56
0.0755591 0.0146762 -0.0692654 95 47 43
0.076078 0.029002 -0.0790625 164 117 111
0.084422 0.0161195 -0.0999704 114 31 32
0.0795093 0.0306585 -0.0940607 116 139 153
0.0819764 0.0282611 -0.0925983 186 229 253
0.0766303 0.0219437 -0.0982303 223 102 85
0.0816725 0.0091025 -0.0841496 82 45 43
0.0750275 0.018743 -0.0830349 203 158 154
0.0778925 0.0358457 -0.069994 112 61 56
0.0760455 0.0130406 -0.0891113 89 56 53
0.078138 0.0241281 -0.097369 137 109 108
0.0780858 0.0341319 -0.0763896 148 114 107
0.0750697 0.0127699 -0.0840057 118 74 71
0.0765885 0.0348593 -0.0898575 188 153 160
0.0699358 0.0105922 -0.0772519 106 75 68
0.0754888 0.0231015 -0.0690181 135 66 60
0.0775916 0.0381957 -0.087892 140 73 67
0.0676324 0.0322165 -0.0928718 167 120 118
0.0778717 0.0173738 -0.0718393 108 69 62
0.0725688 0.0195729 -0.0811324 175 141 137
0.0768457 0.0286287 -0.0798515 170 117 110
0.0798056 0.014719 -0.0805858 115 81 80
0.0718074 0.0133535 -0.0928561 99 56 54
0.076297 0.0221713 -0.0742894 138 117 110
0.0789025 0.0543441 -0.0883986 173 47 43
0.0719922 0.0262242 -0.0841485 186 127 121
0.0751688 0.0331255 -0.0677196 124 63 56
0.0751071 0.0366395 -0.0777679 126 95 86
0.0827312 0.0305098 -0.0938136 72 255 255
0.0785065 0.0132929 -0.0894802 93 42 40
0.0762887 0.00924769 -0.0732423 83 48 46
0.079735 0.0334846 -0.0863576 195 141 147
0.0733707 0.0243091 -0.0753768 159 93 87
0.0768842 0.0134069 -0.0952254 97 30 32
0.0722438 0.0238882 -0.0610336 114 64 57
0.074896 0.035739 -0.0681588 115 61 58
0.0820272 0.0321108 -0.0940083 249 146 155
0.0761306 0.0154265 -0.0805491 142 93 89
0.0776353 0.0311097 -0.0631147 106 50 45
0.0740522 0.0415107 -0.091755 118 32 30
0.0750703 0.0104103 -0.0665498 69 23 21
0.0722172 0.0409223 -0.0909215 151 71 66
0.0773526 0.0368624 -0.0784289 126 84 75
0.0750719 0.0436186 -0.093412 136 56 52
0.0736603 0.0413016 -0.101055 139 37 34
0.0762253 0.022528 -0.0822992 189 145 142
0.0765269 0.0416083 -0.0917801 133 46 44
0.0820461 0.0374368 -0.0892934 117 40 38
0.0768677 0.0288396 -0.0962247 133 140 135
0.0803563 0.0344243 -0.0867034 150 92 86
0.0863559 0.0199676 -0.0744598 120 88 83
0.0674128 0.0271575 -0.0838329 189 131 126
0.0786676 0.0249303 -0.0960492 176 148 141
0.0711058 0.00883608 -0.0892769 83 44 41
0.075017 0.0229462 -0.085949 190 150 145
0.079127 0.0220973 -0.0986788 111 40 39
0.071458 0.0323822 -0.0709285 132 75 69
0.0817783 0.0215246 -0.0773327 137 82 73
0.076402 0.0146221 -0.0908947 90 34 34
0.0742973 0.030041 -0.0872022 198 133 123
0.0818514 0.0132794 -0.0838192 79 60 57
0.0784724 0.0307988 -0.0812252 170 109 101
0.0749712 0.0298773 -0.0791005 170 121 114
0.0759461 0.0371225 -0.0598641 94 45 41
0.0785072 0.0125711 -0.0822883 91 59 57
0.0822782 0.0297192 -0.0743076 120 81 74
0.0755077 0.0185402 -0.0722541 125 99 92
0.0817441 0.0369333 -0.0891458 105 30 29
0.075942 0.0263862 -0.103474 123 35 35
0.0765126 0.0263552 -0.0818286 188 126 121
0.0809473 0.0155671 -0.0935903 110 40 38
0.0694819 0.0276257 -0.0927972 191 105 94
0.0739904 0.033956 -0.0774564 146 101 93
0.0800895 0.0162854 -0.0897742 101 44 43
0.0796592 0.0180465 -0.0804858 146 89 80
0.0759563 0.023434 -0.0811044 178 132 129
0.0755994 0.0133154 -0.0916078 87 38 37
0.07382 0.023242 -0.0846827 188 144 139
0.0746407 0.0370149 -0.0705784 114 62 56
0.0767267 0.0159191 -0.0938061 97 28 28
0.0771467 0.0423579 -0.0876024 165 38 36
0.0797161 0.01417 -0.0756762 100 73 71
0.0780266 0.0291633 -0.0769479 145 109 103
0.0800336 0.00996176 -0.0826276 90 54 52
0.0780782 0.0244959 -0.0985002 104 36 35
0.0786105 0.028333 -0.0815023 193 126 117
0.0731599 0.0232127 -0.0788534 172 133 130
0.0798967 0.0208843 -0.0958323 200 104 91
0.0769492 0.0314167 -0.0733298 135 86 78
0.0757197 0.0364494 -0.0694777 121 70 67
0.0784296 0.0276914 -0.0944315 184 162 154
0.0757293 0.0227654 -0.0778989 169 107 103
0.0837769 0.0320117 -0.0857806 202 137 135
0.080655 0.0315257 -0.0833045 251 185 182
0.0805158 0.0136276 -0.0962666 120 34 34
0.0783972 0.0177959 -0.0962079 117 37 36
0.0758538 0.0306542 -0.0760657 130 88 81
0.0741715 0.0331693 -0.0696833 133 74 67
0.0774127 0.0354152 -0.0741092 137 106 99
0.0841596 0.0432771 -0.0851832 177 64 60
0.0770734 0.0403461 -0.0949503 127 50 48
0.0840561 0.0107175 -0.0854308 82 36 36
0.0678389 0.0320385 -0.0630821 121 65 58
0.0773886 0.0233559 -0.0826876 193 148 144
0.0740511 0.0233158 -0.0799567 170 131 127
0.0756204 0.0132181 -0.0731435 94 61 55
0.0752287 0.0252039 -0.0806662 182 131 127
0.078973 0.0288198 -0.0951343 108 35 35
0.0752009 0.0225798 -0.0830792 192 146 142
0.0665056 0.0329258 -0.0719445 155 86 80
0.0775573 0.0228638 -0.0981269 199 120 109
0.0773893 0.0321709 -0.0790349 168 137 131
0.0759857 0.0179515 -0.0776891 131 103 105
0.074831 0.011613 -0.0903588 91 58 56
0.0833749 0.0237823 -0.0984353 115 29 30
0.0774041 0.0233747 -0.0688022 123 60 55
0.0777157 0.0396981 -0.0951669 135 40 39
0.0806689 0.0407493 -0.0663486 109 49 45
0.0815744 0.0220084 -0.101611 115 30 31
0.0838215 0.0355539 -0.0855715 100 34 31
0.0764394 0.0137166 -0.0827208 120 76 69
0.084849 0.0354058 -0.0869124 113 41 39
0.0759963 0.0121191 -0.0863458 82 54 52
0.0708223 0.0266009 -0.0843296 186 127 120
0.0751243 0.0238503 -0.0797079 174 133 129
0.0798494 0.0157561 -0.0943034 108 38 36
0.0809874 0.00820917 -0.0773149 104 48 46
0.079074 0.0408936 -0.0853519 170 72 66
0.0717048 0.0237127 -0.0825751 183 136 131
0.0797262 0.0146514 -0.0923419 96 29 30
0.0747951 0.0130311 -0.0844418 122 75 70
0.084184 0.0300145 -0.0917699 168 255 218
0.0655639 0.0197161 -0.0895288 194 155 149
0.0743057 0.0330499 -0.0877175 193 156 150
0.0691688 0.0106493 -0.0679996 85 36 33
0.0772669 0.0232055 -0.101803 115 30 32
0.0770795 0.0123188 -0.0770183 88 53 52
0.0835171 0.0150504 -0.0991856 120 35 36
0.0812186 0.015699 -0.079661 121 93 88
0.0826842 0.022693 -0.0962857 118 32 33
0.0734943 0.0239531 -0.0878844 191 152 145
0.0791452 0.0249611 -0.0905293 190 114 102
0.0749645 0.0288015 -0.098145 143 143 142
0.0792373 0.0260654 -0.0955875 111 45 43
0.0783841 0.0189052 -0.0757723 110 75 77
0.0680705 0.0122087 -0.0787357 127 77 74
0.0780335 0.0257804 -0.0976451 111 44 43
0.0766957 0.0200453 -0.080802 184 123 116
0.0794379 0.0177389 -0.0731516 102 66 62
0.0751541 0.0258075 -0.0808713 181 130 126
0.0787906 0.0280067 -0.0965405 107 37 37
0.0834129 0.0277695 -0.0739549 123 83 76
0.085938 0.045239 -0.090107 139 25 25
0.0750546 0.0179328 -0.0806772 163 101 97
0.0794177 0.0362109 -0.0857679 255 205 184
0.0814567 0.017277 -0.0763154 115 89 85
0.0709598 0.0132881 -0.0779166 127 80 75
0.0749893 0.0260644 -0.0688732 123 64 57
0.0779437 0.0413759 -0.0875662 131 35 33
0.0824874 0.0286867 -0.0940116 221 177 132
0.0819931 0.0202546 -0.066309 97 38 35
0.0800354 0.0369273 -0.0846484 147 95 86
0.0708958 0.0280383 -0.0798398 177 126 120
0.0794243 0.0345133 -0.0841487 117 78 72
0.0810423 0.0276528 -0.0963513 115 28 30
0.0750945 0.0214744 -0.0696175 132 81 75
0.0759543 0.0149499 -0.0954202 99 31 31
0.0699597 0.0414767 -0.0916434 192 97 94
0.0729753 0.0247573 -0.0804643 181 133 128
0.073157 0.0213004 -0.10307 211 103 89
0.0694435 0.0261217 -0.0687474 146 86 82
0.0729505 0.0393141 -0.0897398 168 81 76
0.0770183 0.0306469 -0.0950755 149 120 121
0.0690534 0.0175212 -0.0897807 188 163 158
0.0793535 0.033399 -0.0966032 123 36 37
0.0754517 0.0272875 -0.0664834 129 68 61
0.0663691 0.0103511 -0.0909728 124 79 76
0.0793647 0.0125498 -0.0858687 79 65 61
0.0754472 0.032547 -0.0900604 190 155 158
0.0766079 0.0241169 -0.0729252 146 88 81
0.0647819 0.0203526 -0.0731052 148 86 81
0.0701275 0.010058 -0.0925835 96 75 70
0.072131 0.0171646 -0.0697142 121 75 70
0.0771049 0.035106 -0.0976005 122 37 37
0.0791405 0.0373637 -0.0901442 100 28 27
0.077124 0.0193025 -0.0726884 126 104 97
0.0766807 0.0203199 -0.0702141 128 90 84
0.0755083 0.0257692 -0.0807884 181 129 124
0.0783249 0.0383999 -0.0879819 107 36 34
0.0764842 0.0200306 -0.0998445 176 82 71
0.0815484 0.0132748 -0.0891658 96 32 31
0.0796346 0.0348753 -0.0754279 131 102 92
0.0726326 0.0214267 -0.0834841 194 145 140
0.0676048 0.0265712 -0.0721696 149 78 73
0.0700795 0.0239319 -0.0615566 121 66 59
0.0612441 0.025714 -0.0735599 157 85 79
0.078506 0.0428299 -0.0971962 153 46 44
0.0752263 0.0159617 -0.0974127 103 31 30
0.0771087 0.0150413 -0.0926247 101 38 36
0.0741846 0.0119372 -0.0884171 92 87 78
0.072814 0.0129535 -0.087918 112 75 72
0.0717344 0.0214999 -0.0719482 153 96 91
0.0716221 0.00917851 -0.0745943 96 64 67
0.0691605 0.0321731 -0.0940482 184 124 119
0.0754211 0.0179873 -0.0702726 122 88 83
0.0808369 0.0177957 -0.0898468 106 29 29
0.0776171 0.0147465 -0.0880741 99 56 52
0.0714986 0.0170572 -0.0818236 182 147 144
0.0653537 0.0121684 -0.101964 91 37 36
0.0737973 0.0258562 -0.0773629 170 123 117
0.0777155 0.0136564 -0.0895285 88 39 38
0.0716692 0.0176966 -0.0783855 147 88 84
0.0734346 0.0287071 -0.104414 117 28 29
0.0745652 0.0145744 -0.077278 113 77 81
0.0745375 0.0100413 -0.0888265 79 53 51
0.0820153 0.0353579 -0.0864831 189 108 107
0.0723569 0.0284403 -0.0729628 151 86 80
0.0755166 0.0412194 -0.0882853 168 77 71
0.074316 0.0414181 -0.0954046 124 44 40
0.0811494 0.0355717 -0.0909567 113 43 41
0.0779905 0.0155395 -0.0755821 99 71 69
0.0677485 0.0349485 -0.0885728 171 137 135
0.0723732 0.0267539 -0.0720141 150 79 73
0.0804204 0.0389866 -0.0793174 149 71 64
0.0791499 0.00616913 -0.0742738 94 50 48
0.0788912 0.0159324 -0.0963343 113 35 35
0.0754967 0.0165445 -0.0696091 112 69 65
0.0752128 0.0274768 -0.0691371 124 65 59
0.0779107 0.0373704 -0.0968866 130 39 39
0.0754709 0.0195896 -0.0803444 170 107 102
0.0873711 0.00968488 -0.10132 119 38 38
0.0825282 0.0208611 -0.0973594 116 30 31
0.0666194 0.01536 -0.0681891 138 83 78
0.0838204 0.0176691 -0.0903683 111 39 38
0.0763825 0.0075799 -0.0819527 102 63 61
0.0681923 0.0283247 -0.0965383 188 110 101
0.0757263 0.0130923 -0.0843821 122 77 73
0.0729805 0.0195171 -0.0798508 168 105 101
0.0760712 0.0210476 -0.0746902 147 126 115
0.0697544 0.0226275 -0.0809941 172 132 128
0.0727108 0.0294247 -0.0895982 184 140 136
0.0757009 0.0281104 -0.0964614 172 131 125
0.078776 0.0377669 -0.0921898 113 37 35
0.0760499 0.0252504 -0.0729844 150 100 92
0.0787237 0.0343454 -0.0962391 123 39 39
0.0826107 0.0162131 -0.0950283 120 32 33
0.075693 0.0257476 -0.0709375 124 69 62
0.0761076 0.0406295 -0.0894905 120 35 33
0.0756981 0.0382843 -0.0903492 114 59 57
0.0777054 0.0239962 -0.0722041 135 95 87
0.0784768 0.0120966 -0.0910333 98 34 34
0.0783264 0.0407137 -0.0899676 131 40 38
0.0774987 0.0354796 -0.0939915 113 43 41
0.0769409 0.0370831 -0.0894273 135 67 63
0.0705165 0.0202192 -0.0658297 125 65 60
0.0812114 0.0339257 -0.0824194 148 112 106
0.0778572 0.0390285 -0.0864745 165 88 79
0.0757838 0.0182215 -0.100616 120 30 31
0.0794779 0.0279145 -0.099128 117 28 29
0.0792465 0.040038 -0.0727559 122 65 59
0.0723083 0.0113599 -0.0784876 108 69 69
0.0803283 0.0127486 -0.0866199 90 47 47
0.079984 0.0103286 -0.0933789 101 37 35
0.0751185 0.00995057 -0.0863808 85 45 43
0.0823898 0.0161462 -0.0957429 122 33 34
0.073321 0.0133914 -0.0899509 106 74 69
0.0829936 0.0143221 -0.0797178 94 73 71
0.0762978 0.0174922 -0.0715191 120 84 77
0.0718601 0.0464888 -0.086216 133 64 59
0.0747812 0.0236348 -0.0736769 160 97 91
0.0720813 0.00921163 -0.0747961 93 54 57
0.0759194 0.00493474 -0.0754254 94 51 49
0.0727231 0.0151554 -0.0634855 112 70 65
0.0751279 0.0215841 -0.0819856 187 142 137
0.0765185 0.014544 -0.0877519 103 64 60
0.0805011 0.0305271 -0.0866558 183 133 126
0.0740652 0.024788 -0.0818338 182 131 127
0.0724313 0.014851 -0.0775556 121 84 80
0.0766204 0.0274047 -0.0967602 155 151 145
0.0777523 0.00607697 -0.0759768 97 51 49
0.0721584 0.0264913 -0.0854462 188 127 120
0.0771398 0.0240387 -0.0831361 191 144 140
0.0743267 0.01948 -0.0740714 144 116 109
0.0751033 0.0149286 -0.0910288 101 51 48
0.0799935 0.0278176 -0.0942109 118 185 169
0.0799867 0.0161114 -0.0868871 105 68 63
0.0754602 0.0110757 -0.084291 99 56 53
0.0788962 0.0160913 -0.0829223 144 90 83
0.0758435 0.0193193 -0.0800001 170 106 101
0.0665259 0.0171271 -0.10391 176 155 151
0.0746689 0.024536 -0.0769786 168 99 93
0.0803333 0.0271203 -0.0985775 117 28 29
0.0719182 0.0370464 -0.0781909 166 121 114
0.0821809 0.032035 -0.0948422 248 138 153
0.0763288 0.0382784 -0.0952489 124 46 44
0.0754884 0.0277225 -0.0977035 155 151 145
0.0785552 0.0182086 -0.100533 118 30 30
0.0715683 0.0186395 -0.08191 186 148 144
0.0746348 0.0268501 -0.0704043 133 76 69
0.0666659 0.02951 -0.0736472 167 105 100
0.068528 0.040602 -0.0840301 155 123 121
0.0696506 0.0312598 -0.0795618 185 130 122
0.0771219 0.0084619 -0.0834925 88 53 50
0.0667725 0.0132062 -0.0649588 114 64 59
0.0749668 0.0103435 -0.0892916 76 59 56
0.0796199 0.0141747 -0.103229 122 36 37
0.0730186 0.0340499 -0.0997905 111 40 39
0.0805868 0.0155964 -0.0754172 100 73 71
0.0709103 0.0103619 -0.0768157 113 81 64
0.0708766 0.0524903 -0.0809557 164 62 55
0.0801249 0.0323261 -0.0938965 255 221 223
0.0742279 0.0219116 -0.0835264 194 148 143
0.0681149 0.0407273 -0.0715658 147 88 81
0.0733998 0.0260916 -0.0797885 177 129 124
0.0743474 0.0214958 -0.0799871 175 138 134
0.0803639 0.0179438 -0.0955208 118 30 32
0.0751303 0.011963 -0.0844263 110 69 66
0.0645373 0.0039639 -0.0690525 64 20 19
0.0737654 0.0124907 -0.0857814 111 65 63
0.0762073 0.0147796 -0.0893707 85 49 46
0.0783639 0.0385988 -0.0939381 125 52 48
0.0705393 0.0200863 -0.0649856 127 68 64
0.0767256 0.033164 -0.0981099 122 35 35
0.0770562 0.0129766 -0.0908464 92 41 40
0.070836 0.0100887 -0.0762158 99 74 71
0.0805236 0.0356302 -0.088316 147 88 48
0.075509 0.0140911 -0.0929881 88 36 36
0.0765603 0.0149244 -0.0935221 94 37 35
0.0766301 0.0392376 -0.0933324 115 38 36
0.0739753 0.041679 -0.0946103 123 38 35
0.080705 0.038887 -0.084138 151 76 70
0.0706142 0.0184755 -0.0826093 182 147 143
0.0782815 0.0243802 -0.0959073 200 134 124
0.0831687 0.0431824 -0.0923321 138 23 24
0.0787838 0.0456307 -0.0808036 145 81 73
0.0767089 0.0103295 -0.0895918 86 55 53
0.079354 0.024548 -0.0998255 116 31 32
0.0764264 0.0493562 -0.0868515 195 109 98
0.0714786 0.0132619 -0.0960698 88 37 36
0.076898 0.0424498 -0.0906949 136 46 43
0.0737162 0.0224914 -0.0811504 176 134 130
0.0770481 0.0103379 -0.087922 79 48 46
0.0671641 0.0199941 -0.0978541 190 161 155
0.0686057 0.0321615 -0.0759353 167 110 104
0.079625 0.029292 -0.0970249 120 32 33
0.0764746 0.0403868 -0.0860395 151 76 69
0.077772 0.0308166 -0.0973558 114 41 41
0.0800388 0.0152293 -0.0923077 97 30 29
0.0769404 0.0152333 -0.0963743 104 32 32
0.0746792 0.0110919 -0.0856993 93 48 46
0.072343 0.0216305 -0.077874 159 103 99
0.0750489 0.0186155 -0.0763424 131 97 91
0.0762135 0.0228996 -0.100945 110 38 37
0.0685944 0.0350497 -0.0901696 172 147 145
0.0730853 0.0169344 -0.0803305 160 100 96
0.0704953 0.0110965 -0.0755423 100 70 64
0.0732365 0.0154675 -0.0913711 125 90 86
0.0731233 0.0212979 -0.0715669 141 104 96
0.0740145 0.0131923 -0.0970962 96 30 31
0.0805035 0.0154639 -0.0800874 118 96 88
0.0762898 0.0116867 -0.0865603 82 50 48
0.0773179 0.0203655 -0.098186 182 111 102
0.0732022 0.0281988 -0.08546 196 123 114
0.0711326 0.0148038 -0.0992965 98 28 28
0.0754592 0.0293285 -0.0735562 133 83 75
0.080727 0.0384013 -0.0853597 156 82 76
0.07273 0.0209419 -0.0657819 130 75 70
0.0708814 0.0189885 -0.0793271 156 96 93
0.0744502 0.0117482 -0.0591796 78 28 25
0.0708134 0.0256412 -0.0801123 180 130 125
0.0777622 0.008408 -0.0869723 82 42 41
0.0719372 0.0233417 -0.0882416 190 154 149
0.0699938 0.0180026 -0.0804067 166 124 121
0.0766241 0.0156094 -0.0946948 99 26 26
0.0794525 0.0162813 -0.0943678 110 38 37
0.0724255 0.012712 -0.0896101 109 73 69
0.0525924 0.0193917 -0.0682867 150 82 76
0.0766469 0.0381566 -0.0892798 134 66 61
0.0761767 0.0297193 -0.0976419 111 37 37
0.071466 0.0160527 -0.0908424 161 160 157
0.0750076 0.0120292 -0.0857816 110 67 64
0.0794381 0.00895085 -0.0891581 80 31 31
0.0850093 0.0102484 -0.0997064 117 36 36
0.0731723 0.0183578 -0.0706149 131 90 84
0.0795764 0.0345026 -0.0856637 149 133 124
0.0764981 0.024978 -0.0813149 181 130 126
0.0802754 0.00751881 -0.0739707 92 53 50
0.0747198 0.0269873 -0.0987852 163 146 141
0.0739256 0.030806 -0.0996159 113 42 41
0.0798975 0.014244 -0.0957992 113 36 36
0.0800782 0.023478 -0.100156 113 28 30
0.0783189 0.0149858 -0.0783522 110 78 86
0.0743198 0.0254126 -0.0805321 179 130 126
0.076532 0.025122 -0.079749 182 133 128
0.0751657 0.0348305 -0.0774279 151 121 110
0.080322 0.0394845 -0.0848167 165 75 71
0.0823296 0.0419679 -0.0782996 145 59 53
0.0770842 0.0134159 -0.085193 104 69 66
0.0714506 0.00958391 -0.0782162 103 58 66
0.0688239 0.0243968 -0.0771907 165 124 119
0.0811486 0.0210605 -0.0943774 210 107 93
0.0729344 0.023974 -0.0842643 188 140 136
0.0759591 0.0163847 -0.0764111 117 82 82
0.0750975 0.0188696 -0.0742273 133 104 99
0.0727627 0.0368851 -0.0999309 110 45 43
0.0799208 0.0163045 -0.0941682 111 38 37
0.0789902 0.0167468 -0.0504596 76 24 21
0.0672747 0.0271022 -0.0878669 196 142 132
0.0802671 0.0107133 -0.0967583 105 33 32
0.0667904 0.0252203 -0.0740155 157 86 80
0.0763266 0.0127286 -0.0936868 93 30 30
0.0721051 0.0320761 -0.0905242 173 139 139
0.0828852 0.0163188 -0.095355 122 35 35
0.0720512 0.00693713 -0.0884868 81 42 41
0.072431 0.00883283 -0.087209 93 49 47
0.0726361 0.0119032 -0.0877925 112 74 70
0.0835283 0.0216909 -0.100366 117 31 33
0.0775363 0.0120262 -0.0826245 100 63 61
0.0715501 0.0279369 -0.0870098 201 126 118
0.0804197 0.0340342 -0.0855956 147 98 112
0.0764062 0.0225101 -0.0985943 218 110 95
0.0677153 0.0189981 -0.0822405 172 135 131
0.0792184 0.0142948 -0.0950617 100 35 34
0.0780048 0.0252951 -0.102636 114 29 30
0.0734785 0.0127868 -0.0870011 112 71 68
0.0751188 0.0301026 -0.100331 117 43 43
0.058491 0.0137248 -0.0690324 134 84 80
0.0728184 0.0263002 -0.0775314 172 128 124
0.0795734 0.00820504 -0.0954262 104 40 38
0.0742392 0.0143955 -0.0759967 113 77 76
0.0808712 0.0316512 -0.096706 129 43 45
0.0835852 0.0235118 -0.0967289 113 28 30
0.0689358 0.0272853 -0.0760682 168 120 115
0.0742332 0.00919242 -0.0743573 83 48 45
0.0741839 0.0455381 -0.0862363 142 61 55
0.0745333 0.0270667 -0.0841082 192 125 117
0.0786306 0.0168253 -0.0961528 113 40 39
0.0802551 0.016702 -0.0938413 113 40 39
0.0660803 0.0123872 -0.0751127 129 79 74
0.0892239 0.0252189 -0.0610743 97 46 42
0.076086 0.0437452 -0.0857035 160 73 68
0.078639 0.0226036 -0.0805221 182 148 144
0.0816881 0.0187309 -0.0955374 119 30 31
0.074853 0.0219892 -0.0746053 143 164 151
0.0773911 0.0417167 -0.0859138 156 72 68
0.0708338 0.0113956 -0.0925341 92 76 72
0.0713392 0.0179882 -0.0728206 139 92 89
0.0817059 0.0140765 -0.0820734 84 60 59
0.073389 0.0359021 -0.0722367 126 75 72
0.0790514 0.0138701 -0.0812815 114 82 80
0.0697797 0.0253543 -0.0739804 153 84 78
0.0771913 0.0138155 -0.0861002 97 87 79
0.0776593 0.0167528 -0.0777671 130 94 94
0.0809296 0.0402077 -0.088753 125 39 37
0.0717201 0.0162967 -0.0783443 138 85 82
0.0798574 0.017578 -0.0956225 121 32 34
0.0719002 0.0163205 -0.0729574 124 77 71
0.0620794 0.0387225 -0.100079 170 134 130
0.0680476 0.0137436 -0.0734349 108 58 56
0.0773146 0.0388114 -0.0903366 100 27 26
0.0797418 0.028257 -0.0658531 111 51 46
0.0811604 0.0159519 -0.0945915 122 33 34
0.0693248 0.0431075 -0.0887804 153 82 76
0.0850989 0.0345908 -0.0943981 131 39 39
0.0728193 0.0276933 -0.0672684 135 80 73
0.0738972 0.0129699 -0.0708416 87 38 35
0.0779853 0.0122913 -0.0967394 99 33 32
0.072694 0.021958 -0.0824691 183 142 137
0.0823036 0.0310736 -0.0936252 137 255 255
0.0826784 0.0103685 -0.101045 119 37 37
0.0751525 0.0182202 -0.0778268 140 93 88
0.0778491 0.0157416 -0.0916445 100 43 42
0.0657104 0.0214169 -0.077004 154 94 89
0.0693445 0.024545 -0.0733916 151 81 76
0.0751981 0.0405693 -0.0884206 168 90 81
0.0782835 0.0332458 -0.0775449 140 95 88
0.0579247 0.0353253 -0.0828202 186 125 119
0.0690657 0.0214239 -0.0805775 166 131 128
0.0739783 0.0252203 -0.0676906 126 72 65
0.0777647 0.0143359 -0.0911743 88 36 36
0.0812343 0.0268874 -0.0864023 191 120 111
0.0701195 0.0319107 -0.0761461 159 98 90
0.0776568 0.0205555 -0.0993665 142 48 41
0.0738572 0.0117012 -0.08857 92 86 78
0.0795245 0.0252277 -0.0972959 107 40 39
0.0735298 0.0312604 -0.0720066 133 79 74
0.0613772 0.0330974 -0.0919345 173 116 110
0.0735831 0.00942687 -0.075888 94 60 60
0.0746135 0.0251991 -0.0972343 190 113 104
0.0744389 0.0227284 -0.0768613 159 100 95
0.0728514 0.0303749 -0.0727516 139 77 71
0.075173 0.0417485 -0.0888331 158 66 59
0.0750394 0.0136914 -0.0872643 108 72 69
0.0767199 0.0256112 -0.0681022 125 69 61
0.0693651 0.0207878 -0.0733091 150 90 85
0.0781556 0.0416453 -0.0873967 142 43 38
0.0688051 0.023698 -0.0754463 155 90 85
0.079732 0.0458212 -0.0739443 139 65 58
0.0720297 0.0234091 -0.10396 145 105 103
0.0641623 0.0271922 -0.0867429 195 144 135
0.0741375 0.0102119 -0.0950199 96 33 33
0.0722641 0.0434509 -0.0723533 125 77 70
0.0722199 0.0219717 -0.0815454 174 133 129
0.0756288 0.0195977 -0.0788787 158 101 96
0.0730814 0.0272878 -0.0955623 173 112 105
0.0784679 0.0244849 -0.0740457 142 107 98
0.0629845 0.0399281 -0.0990518 177 135 131
0.0752242 0.0300972 -0.0994488 113 40 41
0.0775419 0.0378248 -0.0968608 131 40 39
0.0800748 0.0317237 -0.0760907 133 81 71
0.0798005 0.0226643 -0.0904802 186 115 105
0.0726733 0.0270623 -0.0532672 99 50 45
0.0835061 0.0308047 -0.0983359 119 33 35
0.0733397 0.0139785 -0.0933751 90 35 34
0.0732089 0.0318903 -0.0704508 125 62 56
0.0779512 0.0151499 -0.0949194 100 31 31
0.0748669 0.0157041 -0.0775468 125 95 86
0.0812569 0.0404666 -0.0922593 148 47 45
0.0796069 0.0163541 -0.0926045 99 28 28
0.0750235 0.0336078 -0.0751244 143 106 96
0.0746598 0.0243544 -0.0726759 149 86 78
0.074879 0.0169421 -0.0706586 115 75 75
0.0651386 0.0131817 -0.0658913 127 69 65
0.0745745 0.0422365 -0.0952686 124 42 39
0.082544 0.0214883 -0.0778788 135 84 75
0.072227 0.0224315 -0.0790567 167 132 129
0.0714433 0.0248656 -0.0630031 122 73 66
0.0768706 0.0226385 -0.103202 116 31 32
0.0764638 0.0218097 -0.0742907 140 113 107
0.0745581 0.0255187 -0.0635988 118 75 68
0.0640338 0.0316324 -0.0933799 178 118 110
0.0807638 0.0238307 -0.0957943 107 37 36
0.0746712 0.0232724 -0.082269 184 140 136
0.0750946 0.0062572 -0.0779597 94 56 51
0.0695627 0.0271338 -0.0791745 173 126 121
0.0732492 0.00938859 -0.0860919 98 56 53
0.0746722 0.0271447 -0.0604627 110 54 48
0.0737284 0.0143499 -0.094386 91 38 37
0.0717388 0.0243659 -0.0771703 162 99 94
0.0676071 0.0253383 -0.0768648 167 124 119
0.0697224 0.026846 -0.0787104 173 128 122
0.0730683 0.0129772 -0.0885996 112 76 72
0.0709071 0.00596651 -0.0846558 108 70 69
0.07897 0.0397202 -0.0860813 179 91 85
0.0747669 0.0153528 -0.075984 114 79 77
0.0706839 0.0273863 -0.0785922 171 125 119
0.0755013 0.0263405 -0.0982489 167 144 139
0.0728572 0.00963305 -0.0768032 96 62 60
0.0740235 0.0371471 -0.080308 165 114 107
0.0766225 0.0191778 -0.0697616 120 78 73
0.0747424 0.0334526 -0.0975255 112 40 39
0.0782613 0.0290554 -0.0709626 117 52 47
0.0825089 0.0150353 -0.0777501 96 63 58
0.0719028 0.0215625 -0.0830259 187 144 139
0.0833453 0.0494551 -0.0921217 192 21 19
0.0763545 0.019385 -0.0992946 135 68 64
0.0690832 0.0226429 -0.0808716 171 131 127
0.0753379 0.0456555 -0.0907797 191 70 66
0.0716216 0.0185964 -0.0792399 162 100 96
0.0734885 0.0310169 -0.077531 153 98 90
0.0794041 0.0243086 -0.0977488 102 35 35
0.073027 0.0163153 -0.0680554 117 69 65
0.0678085 0.0173424 -0.0966854 171 161 157
0.0768491 0.0146486 -0.0875422 104 62 58
0.0817724 0.0239613 -0.096491 113 29 30
0.072952 0.013672 -0.0920188 86 46 44
0.074623 0.0203394 -0.101044 220 104 88
0.0720108 0.0221577 -0.0667487 135 70 63
0.0739645 0.0142705 -0.0916689 85 43 41
0.0764519 0.0167598 -0.0963652 110 37 36
0.0733629 0.00893602 -0.0731481 82 45 41
0.0835061 0.00588463 -0.0994531 110 29 30
0.0711959 0.0242171 -0.0748777 157 90 84
0.0775622 0.0203784 -0.0761594 136 128 123
0.0730626 0.014896 -0.0867086 169 159 155
0.0636099 0.028493 -0.0841134 187 136 131
0.0700883 0.025209 -0.0763859 159 97 92
0.0704252 0.0188446 -0.066718 121 78 73
0.078874 0.00903942 -0.0900459 83 38 38
0.074529 0.0251618 -0.0852911 187 134 127
0.0749809 0.0357094 -0.0718901 119 67 62
0.0652841 0.0258378 -0.0924357 197 133 122
0.0725603 0.0175552 -0.0714719 138 91 84
0.075176 0.0184413 -0.102091 118 29 30
0.0652772 0.0498738 -0.0816581 146 68 61
0.0738862 0.0124128 -0.0864535 111 69 66
0.0719601 0.0126443 -0.0889173 113 75 72
0.0824351 0.0402043 -0.0900965 132 49 45
0.0785723 0.0135252 -0.0944447 97 30 30
0.0776909 0.0363163 -0.0771983 138 103 94
0.0707486 0.0179936 -0.0798056 160 98 94
0.0748557 0.0338936 -0.0755921 139 101 92
0.0760153 0.0205368 -0.100145 211 103 89
0.0732093 0.0417313 -0.088435 169 89 81
0.0790629 0.0287375 -0.0965647 110 37 37
0.0737215 0.0244459 -0.083692 190 140 135
0.0778008 0.0290596 -0.101525 118 29 30
0.0818563 0.0148289 -0.09195 99 33 33
0.0728709 0.0143832 -0.0943743 90 35 35
0.0726032 0.0117992 -0.0750619 102 70 69
0.070903 0.0261948 -0.0826869 190 138 132
0.079861 0.0343738 -0.074207 124 90 79
0.0799105 0.0135452 -0.0894896 93 31 31
0.0778036 0.0145986 -0.0839845 114 70 67
0.0674201 0.00902953 -0.0580711 84 36 33
0.0688331 0.0315618 -0.0948402 183 127 121
0.0757321 0.0482074 -0.0857941 134 54 50
0.0688407 0.0376732 -0.0913873 171 138 132
0.0716871 0.0213663 -0.0798524 169 137 134
0.0785325 0.0331299 -0.0765362 147 99 92
0.0708088 0.0322272 -0.0851856 194 132 124
0.0717348 0.0105429 -0.0820301 118 75 72
0.0701986 0.024838 -0.080474 178 130 125
0.0656712 0.0263866 -0.0930695 191 123 111
0.0801654 0.0202629 -0.0786601 155 105 96
0.0762048 0.0256222 -0.0662237 117 64 59
0.0809944 0.0442145 -0.0829345 132 60 56
0.0817376 0.0141978 -0.0784328 94 62 60
0.0769814 0.0372136 -0.0968398 122 40 39
0.0721119 0.0402886 -0.0982877 112 42 39
0.0809611 0.0271295 -0.09555 124 107 99
0.0740731 0.0405681 -0.0893011 169 87 79
0.0694272 0.0172084 -0.0645986 128 88 84
0.071917 0.0112428 -0.0882268 112 72 67
0.069334 0.035984 -0.0908697 173 141 136
0.0780411 0.0362537 -0.0892832 161 73 70
0.0629466 0.027361 -0.0778101 170 121 116
0.0774169 0.0402738 -0.0888793 120 34 33
0.0727072 0.0236127 -0.0780437 164 102 97
0.0762456 0.0338768 -0.0774923 157 115 104
0.0726865 0.0094142 -0.0926047 85 55 53
0.0685832 0.0185597 -0.0784217 149 94 90
0.0748023 0.0118579 -0.0962675 95 31 31
0.0662937 0.0444229 -0.0895814 145 74 68
0.0736171 0.0127551 -0.0903025 104 66 62
0.0736858 0.013092 -0.0710616 94 46 43
0.082788 0.0459391 -0.0938953 138 24 25
0.0631551 0.0188079 -0.068388 141 79 75
0.0705165 0.0126874 -0.0809024 156 96 93
0.0702823 0.0214086 -0.0822238 177 135 131
0.0677597 0.0114268 -0.0785968 133 86 81
0.0702891 0.028052 -0.0817683 185 132 126
0.0804425 0.0166476 -0.0859136 119 74 68
0.078742 0.0231157 -0.0961954 212 117 104
0.073432 0.0229896 -0.072109 159 100 94
0.0677868 0.0130203 -0.0978552 106 49 48
0.0695031 0.0318612 -0.062092 122 62 56
0.0747857 0.00699519 -0.0928898 79 31 30
0.0798698 0.0399068 -0.0861915 163 58 56
0.0727656 0.00776113 -0.0909079 82 40 38
0.0698548 0.0155656 -0.0711836 123 76 71
0.0709497 0.0432797 -0.0895895 170 84 79
0.0774238 0.0064376 -0.0827328 103 53 49
0.0772851 0.0158789 -0.0908751 109 53 50
0.0786857 0.0170866 -0.0981197 120 33 34
0.0768192 0.0158635 -0.0764443 117 83 84
0.0751509 0.0229033 -0.0796015 173 135 131
0.07842 0.0111441 -0.0875581 84 56 54
0.0756106 0.034277 -0.0634585 118 67 61
0.0682564 0.0129197 -0.0756477 114 78 72
0.0726871 0.021638 -0.0772368 159 104 99
0.0706173 0.0316642 -0.0798339 185 127 119
0.0665246 0.0196324 -0.0792047 162 130 127
0.0697751 0.020436 -0.0778655 155 101 97
0.078553 0.0371966 -0.0884989 99 31 29
0.0765869 0.0218689 -0.0803281 184 148 144
0.0827528 0.0211054 -0.102627 117 31 33
0.0826917 0.0440135 -0.0912253 139 25 25
0.0696658 0.0306391 -0.0714439 141 79 74
0.0723448 0.0262854 -0.0779761 169 124 120
0.064806 0.0260918 -0.0913375 188 125 118
0.076205 0.0335625 -0.0533441 89 41 37
0.0775425 0.0119695 -0.0957516 97 31 31
0.0826001 0.0354867 -0.0855345 148 68 63
0.0754218 0.0136686 -0.0875027 109 73 68
0.0693408 0.0158019 -0.0752271 134 83 75
0.0551251 0.0233753 -0.0694824 154 83 77
0.0855268 0.0258659 -0.0961864 116 29 31
0.0725538 0.0225893 -0.0818175 182 137 133
0.0651178 0.0108632 -0.0938304 123 86 81
0.0732783 0.0287621 -0.0997813 148 155 152
0.0637313 0.0239112 -0.0743731 154 90 85
0.0726603 0.0309569 -0.0722555 131 72 66
0.070717 0.0419619 -0.0855106 145 84 76
0.0684492 0.0495589 -0.0843785 153 76 69
0.0716847 0.0116187 -0.0970639 93 31 31
0.0696939 0.0157955 -0.0770948 132 78 74
0.0786861 0.0150997 -0.0866956 87 55 52
0.0798044 0.0185498 -0.0985635 118 29 30
0.0693084 0.0217593 -0.0749992 150 90 85
0.0681676 0.0175847 -0.0748338 144 83 79
0.0794832 0.027463 -0.098119 115 29 31
0.0721402 0.0126643 -0.0988256 95 29 30
0.0718804 0.0225066 -0.0821488 183 137 133
0.0727771 0.00982969 -0.0743361 89 59 53
0.080842 0.017538 -0.101322 115 29 30
0.079071 0.0367575 -0.0859974 191 116 106
0.0733278 0.0109311 -0.0883259 90 85 75
0.0727186 0.0209798 -0.0834116 190 141 136
0.0748164 0.0108879 -0.0906514 90 51 49
0.072929 0.0387924 -0.0975105 102 32 30
0.0693114 0.0427952 -0.0902815 165 82 74
0.0693736 0.0119909 -0.0901943 114 77 74
0.068354 0.0288621 -0.0849314 189 122 115
0.0783663 0.0256132 -0.0719546 126 75 68
0.0740995 0.00779382 -0.0836545 104 68 66
0.0730866 0.0164637 -0.0724057 141 89 81
0.0765926 0.0176762 -0.0777458 120 84 89
0.0746682 0.0422717 -0.0702594 116 66 61
0.073965 0.0298304 -0.084757 195 121 112
0.0616506 0.0243309 -0.0711578 153 83 78
0.078746 0.0112698 -0.094569 100 36 35
0.07667 0.0121277 -0.0855201 82 50 48
0.0726479 0.0141057 -0.0932053 87 36 35
0.0737034 0.0464953 -0.0893415 130 33 30
0.0689257 0.0240037 -0.0771606 163 117 112
0.0727571 0.0137471 -0.0939697 90 35 34
0.0724184 0.0214745 -0.0767358 158 104 99
0.0765242 0.0333355 -0.0986478 123 35 35
0.0773272 0.027605 -0.102655 114 29 31
0.0772544 0.0138984 -0.0886542 87 50 48
0.0709038 0.00898983 -0.0557836 81 35 31
0.0692842 0.0262938 -0.0791422 173 127 122
0.0743159 0.00731561 -0.0681175 66 22 20
0.0714954 0.0197843 -0.0790081 161 103 100
0.0723435 0.015323 -0.079393 146 96 92
0.0729223 0.0270256 -0.100774 172 156 150
0.0691929 0.0297288 -0.0841922 188 121 113
0.0719301 0.0210076 -0.067932 136 80 73
0.0744795 0.0108877 -0.0922243 96 33 34
0.0644649 0.0243277 -0.0904904 191 137 130
0.0662515 0.00922913 -0.075597 106 71 65
0.0713454 0.00603747 -0.0679299 65 21 20
0.0770821 0.0152249 -0.0963017 104 32 32
0.0753133 0.0169822 -0.0808881 155 98 93
0.0749458 0.00279507 -0.0743793 89 45 43
0.0565605 0.0206347 -0.0727081 152 87 81
0.0773123 0.0206449 -0.0760517 139 127 123
0.0753603 0.00834035 -0.0944079 99 33 33
0.0706756 0.0245367 -0.0810904 180 131 126
0.0791127 0.0115558 -0.0905081 96 33 33
0.079649 0.0307027 -0.0997472 122 33 34
0.0745692 0.0327004 -0.063996 124 67 61
0.0779801 0.0276755 -0.0986412 106 37 37
0.0753858 0.0386785 -0.0887628 138 60 54
0.0725735 0.0159363 -0.10109 111 39 37
0.0792342 0.0127616 -0.0907081 96 32 32
0.0699922 0.021492 -0.0657209 127 65 59
0.0753069 0.00871278 -0.0732983 83 47 44
0.0659065 0.0221764 -0.0743492 154 90 85
0.0813704 0.0328721 -0.0964719 121 34 36
0.0783679 0.0431056 -0.0889184 152 48 45
0.0802285 0.0386278 -0.0888332 117 37 35
0.0746615 0.0215098 -0.100274 223 101 84
0.0711841 0.00824391 -0.0726037 84 51 45
0.0689649 0.028698 -0.100906 176 128 122
