ply
format ascii 1.0
comment Created by Open3D
element vertex 1196
property double x
property double y
property double z
property uchar red
property uchar green
property uchar blue
end_header
0.0872233 0.19531 -0.0414907 255 189 172
0.0728969 0.0940407 -0.0330613 0 0 0
0.070133 0.192171 -0.0270139 255 239 213
0.0797747 0.163458 -0.0306252 215 123 107
0.0829284 0.177843 -0.0443406 101 47 38
0.0673511 0.0910196 -0.0299623 0 0 0
0.0668823 0.207217 -0.0358587 255 187 162
0.080903 0.117607 -0.0217124 33 0 4
0.079583 0.169964 -0.0270631 131 71 60
0.065468 0.169339 -0.0290407 145 84 74
0.0650486 0.163167 -0.0348133 161 99 89
0.0861651 0.186703 -0.0275692 255 182 169
0.0851426 0.191133 -0.0241079 255 160 143
0.0621663 0.200162 -0.0383929 248 125 112
0.0560894 0.149925 -0.0443012 12 0 0
0.0751674 0.187528 -0.0248265 255 255 255
0.0885255 0.189997 -0.0267588 212 101 81
0.0742297 0.194829 -0.0217994 255 238 213
0.0777191 0.168199 -0.0519173 144 85 78
0.0716132 0.176331 -0.0282274 225 153 142
0.0726209 0.19131 -0.0230319 92 112 103
0.0862501 0.16478 -0.03305 134 72 61
0.0757442 0.197687 -0.0229809 255 138 97
0.0735226 0.203819 -0.0230374 255 255 255
0.0905553 0.204915 -0.0331723 255 247 223
0.0890455 0.19418 -0.0334091 255 155 139
0.0627831 0.18495 -0.0472973 255 144 107
0.0898752 0.199969 -0.0368294 255 233 211
0.0894759 0.19755 -0.0384139 255 255 230
0.0844242 0.157172 -0.0292011 188 128 118
0.0878619 0.193081 -0.0271802 255 192 174
0.089326 0.199624 -0.0350302 255 182 155
0.0858608 0.186218 -0.0266419 255 181 167
0.0895623 0.201051 -0.032318 255 142 124
0.0745211 0.198139 -0.0223677 255 255 255
0.0763176 0.193768 -0.0478292 255 156 136
0.0899824 0.194185 -0.0339703 255 156 144
0.0683015 0.197502 -0.0255241 245 128 110
0.0717111 0.195781 -0.0250654 255 137 120
0.0720982 0.170712 -0.0538959 183 101 86
0.0765788 0.155336 -0.0281352 167 92 83
0.0719229 0.18946 -0.0491801 255 169 150
0.0650697 0.202248 -0.0381632 255 117 95
0.062212 0.188299 -0.0466424 255 182 165
0.0647683 0.193991 -0.0413147 138 50 43
0.068908 0.113989 -0.051674 55 36 32
0.081444 0.164501 -0.0472922 139 95 91
0.0648754 0.1881 -0.0468556 255 231 204
0.0686529 0.170326 -0.0539502 180 100 88
0.0774405 0.137863 -0.0389319 99 59 53
0.065153 0.135566 -0.0388146 65 35 30
0.0814131 0.16126 -0.045901 184 110 101
0.089217 0.203832 -0.0323842 255 233 207
0.0845628 0.180814 -0.0414488 170 93 82
0.0893648 0.196516 -0.0392886 202 101 90
0.0746555 0.185598 -0.0243377 217 136 121
0.0617934 0.188601 -0.0470801 255 136 110
0.0692962 0.145802 -0.0320108 206 123 113
0.0789939 0.114702 -0.0452 51 20 18
0.0876369 0.182018 -0.0241193 255 255 255
0.0658061 0.197438 -0.0422348 255 138 113
0.0856901 0.187786 -0.0251829 255 255 255
0.0640321 0.174314 -0.0471869 153 63 55
0.0844741 0.184835 -0.0413094 191 101 90
0.0809216 0.146581 -0.0489183 53 0 0
0.0757278 0.203053 -0.0230331 255 114 82
0.070226 0.19412 -0.0458815 255 166 145
0.0612679 0.16667 -0.0398964 162 96 85
0.0680389 0.192515 -0.0476833 255 150 135
0.0780315 0.193802 -0.050001 255 175 175
0.0604708 0.195723 -0.041186 255 255 255
0.0753093 0.18524 -0.0244186 200 137 122
0.0696175 0.17197 -0.0525601 127 84 74
0.0799867 0.160006 -0.0283189 148 93 85
0.0762952 0.182244 -0.0267876 213 128 115
0.0784795 0.134136 -0.0424454 96 55 51
0.0832577 0.179942 -0.0433246 136 71 63
0.0846527 0.19301 -0.0374486 255 187 166
0.0794141 0.159861 -0.0455568 147 86 78
0.0789533 0.188389 -0.0261165 178 86 75
0.0847497 0.194669 -0.0240246 228 130 114
0.0786817 0.159196 -0.0478134 36 0 0
0.0644737 0.195517 -0.037832 255 178 156
0.0760367 0.203791 -0.0229825 255 255 255
0.0670247 0.192996 -0.0479561 255 182 162
0.0845397 0.187501 -0.0235691 255 255 255
0.0835805 0.186216 -0.0244282 255 161 146
0.0759229 0.130279 -0.0480896 18 11 0
0.0870824 0.188327 -0.0392424 255 161 143
0.0609171 0.16896 -0.0410986 161 90 80
0.062481 0.130847 -0.038796 128 83 72
0.0671495 0.174044 -0.0512898 166 106 100
0.0589777 0.184755 -0.0462057 163 71 60
0.0676245 0.110144 -0.0526163 255 255 255
0.0751813 0.130851 -0.0492071 34 23 22
0.0655298 0.175024 -0.0498499 175 96 84
0.0660992 0.172915 -0.0481539 70 18 10
0.0680852 0.192713 -0.0295247 255 191 171
0.0616075 0.190703 -0.0338239 255 228 197
0.0903721 0.196829 -0.0338327 255 229 204
0.0680364 0.192365 -0.0288216 255 201 182
0.0830717 0.161813 -0.0302218 149 88 79
0.0813166 0.158722 -0.0434738 153 97 90
0.0807417 0.15328 -0.0455395 166 89 77
0.0886417 0.196651 -0.02898 255 170 150
0.0646439 0.17193 -0.0478044 177 101 86
0.0642812 0.194838 -0.0361231 255 176 150
0.0846027 0.181088 -0.0478824 131 58 46
0.0635222 0.197282 -0.0371399 255 178 157
0.0884807 0.183394 -0.0263769 170 96 85
0.0911306 0.189716 -0.0346086 255 227 208
0.0653418 0.193741 -0.0322946 255 142 122
0.0740168 0.197755 -0.0236915 255 106 81
0.0689687 0.114504 -0.0505014 41 28 25
0.0849102 0.18478 -0.0262426 255 255 255
0.0916132 0.199294 -0.0318686 255 237 213
0.0608317 0.169885 -0.043582 144 76 68
0.0689676 0.193294 -0.0255889 244 119 96
0.0722136 0.180186 -0.0281501 180 99 88
0.0735509 0.194085 -0.0236061 221 108 95
0.0597783 0.169553 -0.0406568 162 101 96
0.0715431 0.19177 -0.0264322 223 90 78
0.0724313 0.191838 -0.0241765 255 255 241
0.0678837 0.194062 -0.0285552 255 179 160
0.0772589 0.192731 -0.0253016 255 120 101
0.0704092 0.19207 -0.0262964 254 213 194
0.0829162 0.181701 -0.048557 186 118 109
0.0792425 0.169404 -0.0274472 145 79 70
0.0850549 0.163813 -0.0317522 132 76 66
0.0877604 0.187364 -0.0279977 255 151 130
0.0893865 0.19533 -0.0382651 255 235 210
0.0901354 0.193224 -0.0369371 255 255 255
0.0753759 0.114849 -0.0437008 40 30 27
0.0812213 0.194196 -0.0458609 80 24 15
0.0640219 0.130603 -0.0650586 0 0 0
0.0662011 0.120929 -0.062733 64 38 34
0.0733929 0.113045 -0.0448801 19 15 12
0.0614557 0.106649 -0.0264537 0 0 0
0.0540757 0.126295 -0.0584097 0 0 0
0.089339 0.193961 -0.0352372 255 156 144
0.0621295 0.115304 -0.0430385 28 23 20
0.0614887 0.169572 -0.0358312 147 77 67
0.062289 0.192392 -0.0337986 255 255 236
0.0750734 0.124452 -0.0253368 80 85 78
0.0595118 0.149003 -0.0530205 74 21 18
0.0875864 0.0934481 -0.0397884 255 255 237
0.0904472 0.123168 -0.0403196 0 0 0
0.0653519 0.114333 -0.0350358 255 255 255
0.07798 0.0983676 -0.0351916 0 0 0
0.0592464 0.112567 -0.0383953 255 255 255
0.0591336 0.164809 -0.04232 140 143 135
0.082482 0.16717 -0.0278249 154 89 79
0.0595009 0.131827 -0.0606858 29 22 20
0.0795773 0.119462 -0.0362585 223 90 82
0.0894959 0.192169 -0.033571 255 172 157
0.087311 0.164558 -0.0306732 148 106 95
0.0732274 0.124701 -0.0566553 51 32 29
0.0747548 0.198991 -0.0247619 255 255 255
0.0639938 0.194825 -0.0339573 255 188 163
0.0779882 0.151186 -0.0533309 73 37 32
0.0858102 0.167711 -0.0408883 107 53 46
0.0643763 0.193786 -0.0327979 255 177 156
0.0816978 0.164991 -0.0279143 135 78 69
0.086782 0.177408 -0.0331064 171 95 83
0.0634528 0.176624 -0.0301061 191 155 141
0.0555371 0.123413 -0.0421715 17 0 0
0.0909905 0.19729 -0.0373259 255 159 136
0.0772618 0.142037 -0.049549 91 51 45
0.0669599 0.206101 -0.0373193 255 138 123
0.0819329 0.129531 -0.0303039 255 255 255
0.0795504 0.136339 -0.0516999 255 255 255
0.0929417 0.186034 -0.0422817 158 255 255
0.0862335 0.185078 -0.0253 163 92 80
0.0712288 0.18922 -0.0229959 255 255 255
0.084503 0.170588 -0.0494988 127 72 64
0.0571111 0.124088 -0.0559888 47 29 23
0.0676453 0.11962 -0.0598247 28 21 19
0.0672673 0.136456 -0.0311101 197 127 120
0.0671724 0.193032 -0.0304449 255 181 163
0.0587407 0.129551 -0.0637405 0 0 0
0.0625415 0.169145 -0.0326353 154 84 76
0.0650226 0.163475 -0.0356524 165 91 80
0.064194 0.202967 -0.036624 227 95 75
0.0737972 0.165692 -0.0303908 160 93 81
0.0494091 0.150886 -0.0411867 0 0 0
0.0793429 0.13582 -0.0312836 73 46 41
0.0701063 0.192162 -0.0271082 255 232 207
0.0645705 0.193796 -0.0320794 255 193 166
0.0777586 0.0901116 -0.0549291 0 0 0
0.058489 0.165009 -0.0397225 171 98 90
0.0750046 0.0673376 -0.0344809 0 0 0
0.0786474 0.199179 -0.0480635 246 124 109
0.0570511 0.148091 -0.0444793 73 37 33
0.0893337 0.180834 -0.0258368 177 99 88
0.0890673 0.197336 -0.0316156 255 155 132
0.0813333 0.163914 -0.029984 168 103 94
0.0861643 0.168731 -0.0303471 127 74 62
0.0889486 0.195327 -0.0346036 255 163 149
0.0547079 0.114434 -0.0277346 66 0 0
0.0626844 0.190925 -0.0340568 255 202 175
0.0711813 0.18952 -0.0232235 255 255 255
0.0768149 0.146143 -0.0548039 69 31 29
0.0592936 0.115681 -0.0702044 0 0 0
0.0900115 0.18862 -0.0357349 253 231 208
0.0888738 0.193514 -0.0362868 255 223 208
0.057872 0.125054 -0.0434192 23 9 0
0.0914756 0.197875 -0.0363389 255 164 135
0.0635687 0.142837 -0.0363147 94 55 49
0.0854296 0.181543 -0.0233891 161 88 75
0.0628084 0.171768 -0.0337027 140 75 65
0.0647547 0.206911 -0.0369385 255 153 135
0.0808625 0.167904 -0.0512826 127 71 64
0.0905124 0.195323 -0.0380182 255 255 255
0.0845036 0.179945 -0.0220285 192 111 101
0.0811242 0.168643 -0.05096 135 75 67
0.0716799 0.192285 -0.0237947 255 255 255
0.0848795 0.163557 -0.0352342 159 88 80
0.0898007 0.19646 -0.0395181 255 208 178
0.0845108 0.183527 -0.0215252 174 98 88
0.0618407 0.186869 -0.0310035 255 209 185
0.093576 0.19702 -0.0343611 255 156 137
0.0902487 0.196715 -0.0357469 255 255 255
0.0768195 0.20527 -0.0227637 255 218 197
0.0747538 0.191309 -0.0494061 255 158 142
0.0689416 0.173997 -0.0511736 127 82 72
0.0656014 0.157073 -0.0333904 138 76 65
0.0852992 0.187137 -0.0375251 109 38 27
0.0718673 0.171072 -0.0530835 154 94 84
0.0707605 0.191828 -0.0263327 255 228 202
0.0589167 0.146192 -0.0417146 73 36 32
0.0675033 0.194333 -0.0286014 255 255 255
0.0572281 0.118483 -0.0484014 36 19 16
0.0674144 0.191158 -0.02755 255 230 207
0.0645592 0.192804 -0.0419029 255 255 248
0.0806322 0.195421 -0.0474807 255 156 140
0.0743929 0.203121 -0.0232827 255 152 125
0.0828758 0.193926 -0.0460748 255 200 165
0.0758504 0.182488 -0.0271837 201 115 104
0.0843797 0.181594 -0.0413048 184 99 88
0.0795069 0.15984 -0.0454482 151 90 80
0.0842005 0.199185 -0.0434988 255 165 149
0.0604681 0.144197 -0.0396113 51 26 24
0.0663857 0.193349 -0.0455058 255 192 189
0.0843213 0.178622 -0.0416435 200 114 100
0.0799555 0.158591 -0.0444256 153 87 78
0.0694426 0.155059 -0.0321068 98 56 47
0.0800232 0.166626 -0.0490711 157 94 84
0.0831738 0.19723 -0.0451245 255 142 129
0.0658918 0.196931 -0.0428654 255 134 128
0.0869121 0.185671 -0.0423383 172 116 104
0.0678586 0.173541 -0.0507099 154 87 76
0.0770905 0.182328 -0.0268812 215 125 113
0.072517 0.160748 -0.0315029 165 97 85
0.080754 0.139686 -0.0405339 54 28 22
0.0668142 0.172284 -0.0501825 139 80 75
0.0682624 0.191098 -0.0490072 255 151 137
0.0624618 0.191988 -0.0327939 255 208 190
0.0532752 0.113985 -0.0460465 0 0 0
0.0764528 0.125519 -0.0523699 0 0 0
0.0834312 0.193323 -0.0230097 224 116 100
0.0787757 0.157843 -0.0487336 0 0 0
0.0879179 0.18561 -0.0430309 196 112 97
0.0808208 0.194963 -0.0484455 255 199 186
0.0817007 0.165444 -0.0469391 130 76 67
0.0663235 0.19039 -0.047563 255 181 150
0.0603465 0.168892 -0.0391165 143 77 68
0.0863346 0.186023 -0.0260705 255 255 255
0.0651949 0.172462 -0.0473125 155 88 78
0.0574661 0.146368 -0.0450984 72 29 23
0.0813029 0.160561 -0.0510975 237 140 116
0.0628726 0.166024 -0.0356721 154 88 77
0.0818052 0.153428 -0.0406115 0 0 0
0.0752615 0.13181 -0.0493577 54 29 26
0.0806151 0.165399 -0.047166 136 76 68
0.0871219 0.179376 -0.033882 120 54 46
0.0710864 0.187956 -0.0281788 225 129 116
0.0653746 0.171426 -0.0294561 133 77 68
0.0586738 0.191731 -0.0418074 255 255 255
0.0749878 0.20152 -0.0219531 255 162 138
0.0655548 0.191292 -0.0298767 255 223 205
0.0709819 0.191316 -0.0283741 255 193 166
0.0786079 0.138085 -0.0361002 64 36 34
0.0852941 0.186337 -0.0260842 255 255 255
0.064055 0.171695 -0.0470967 173 90 78
0.0792809 0.159824 -0.0455672 140 85 75
0.0671454 0.175453 -0.0480241 147 82 71
0.0626002 0.163914 -0.0380634 174 101 88
0.0846443 0.190912 -0.04033 255 255 245
0.0638869 0.181127 -0.047281 128 59 49
0.0685371 0.192461 -0.0293052 255 184 167
0.0794289 0.194632 -0.0233568 255 140 124
0.0801497 0.173773 -0.0256537 156 88 79
0.0800702 0.167034 -0.0275287 155 87 75
0.0689393 0.175197 -0.0505465 143 78 69
0.0901201 0.203917 -0.0337293 255 199 173
0.0864289 0.178595 -0.0378982 255 157 152
0.0661751 0.195167 -0.0409117 255 162 146
0.0863752 0.188373 -0.0249582 255 255 255
0.0743529 0.202788 -0.0232102 255 121 88
0.0710446 0.163908 -0.031235 147 84 77
0.0727603 0.160892 -0.0319835 172 105 92
0.0800453 0.162416 -0.045556 138 74 64
0.0632724 0.169118 -0.0472854 174 92 81
0.0609685 0.19141 -0.0318777 255 235 209
0.0905314 0.197124 -0.0352401 255 229 203
0.0612343 0.189796 -0.0362964 255 208 174
0.0716396 0.197386 -0.0247337 255 184 161
0.0634047 0.19728 -0.0317525 255 152 141
0.0608407 0.190177 -0.0337705 255 255 246
0.0741907 0.190129 -0.0268298 252 211 189
0.0846055 0.192512 -0.0399788 255 170 153
0.0640413 0.194542 -0.0339216 255 186 162
0.0895853 0.197701 -0.0385166 255 226 201
0.0649964 0.164797 -0.0271336 140 83 75
0.0681518 0.195403 -0.0442718 121 54 51
0.0742916 0.177189 -0.0279669 174 98 87
0.0659165 0.193479 -0.0304281 255 204 174
0.0682846 0.119872 -0.0318467 255 255 255
0.0711352 0.117201 -0.056164 29 22 18
0.0621541 0.115964 -0.0587962 46 32 28
0.0677209 0.115158 -0.0571207 33 25 22
0.0658408 0.177804 -0.0508056 157 90 84
0.0900757 0.196455 -0.0384608 255 255 241
0.0784739 0.131826 -0.0539253 13 0 0
0.0752457 0.177475 -0.0276448 181 105 93
0.0527336 0.141795 -0.0411472 143 183 185
0.0566981 0.141099 -0.0426012 54 0 0
0.0865819 0.169432 -0.0500577 0 0 0
0.0636791 0.174912 -0.0294194 255 176 166
0.0799308 0.123462 -0.0234898 0 0 0
0.0643701 0.114124 -0.0597791 41 26 25
0.0728904 0.176694 -0.0277855 203 121 110
0.0769816 0.12371 -0.0579032 38 40 34
0.065062 0.11179 -0.0411737 25 23 17
0.0632058 0.104573 -0.0418243 0 0 0
0.0747731 0.193787 -0.0245802 255 255 239
0.0795959 0.127241 -0.04372 126 72 64
0.0577505 0.0967052 -0.0694441 74 0 0
0.0782405 0.113067 -0.0173307 0 0 0
0.0587281 0.123608 -0.046532 58 35 32
0.0715607 0.12806 -0.0605759 33 22 19
0.0853033 0.108418 -0.053139 0 0 0
0.0781904 0.165807 -0.0263959 128 74 83
0.0794681 0.167643 -0.0274611 140 84 71
0.0661459 0.203207 -0.038426 255 140 127
0.0654522 0.173633 -0.0289807 158 101 91
0.0643863 0.17588 -0.0487967 166 93 82
0.0857916 0.186772 -0.027011 255 171 160
0.082296 0.167844 -0.0264189 172 99 96
0.0861934 0.177383 -0.0475893 255 204 194
0.0572383 0.122404 -0.0681706 0 0 0
0.0850336 0.189478 -0.0405624 194 255 255
0.082216 0.161672 -0.0401872 155 87 77
0.0856218 0.180049 -0.0378433 175 97 89
0.0618558 0.180775 -0.0473265 255 255 255
0.0728512 0.192608 -0.0242483 255 255 236
0.0739226 0.199115 -0.0230687 255 255 255
0.0832981 0.16206 -0.0344184 172 101 91
0.0550357 0.111627 -0.0625445 65 35 26
0.0721122 0.102728 -0.0659413 0 0 0
0.0864691 0.186908 -0.0279661 255 191 171
0.0626061 0.168387 -0.0324319 150 98 83
0.0742666 0.174125 -0.0259892 255 169 162
0.0665513 0.161453 -0.0352232 161 91 82
0.0626446 0.189077 -0.0420535 209 115 101
0.0736833 0.16423 -0.0289899 137 80 72
0.067947 0.167505 -0.0315433 131 77 66
0.0854579 0.197775 -0.0412744 255 181 166
0.0694037 0.190813 -0.028433 255 223 201
0.0728535 0.199191 -0.0234052 255 175 147
0.0629615 0.163689 -0.0369349 170 99 88
0.0760475 0.143713 -0.0570491 64 24 21
0.0726389 0.191857 -0.023902 255 255 255
0.0852973 0.187138 -0.0270335 255 157 141
0.0757284 0.205373 -0.0207817 210 255 255
0.0702819 0.114934 -0.0552199 37 27 24
0.0606217 0.114379 -0.0504395 28 23 17
0.0644707 0.192198 -0.0310578 255 211 182
0.0578588 0.119102 -0.0584309 53 30 27
0.0803104 0.163909 -0.02961 157 110 97
0.0772084 0.168803 -0.0280349 167 99 89
0.0631286 0.16398 -0.0382495 159 86 77
0.0575335 0.12434 -0.0564862 50 30 27
0.0752084 0.168818 -0.0273605 121 62 51
0.0504204 0.120148 -0.0526668 0 0 0
0.0821312 0.187684 -0.0248071 255 197 176
0.0580691 0.120081 -0.0671664 0 0 0
0.0541403 0.126409 -0.0598694 0 0 0
0.0728873 0.136988 -0.037481 94 54 50
0.0647775 0.113669 -0.043397 39 26 24
0.0623742 0.108177 -0.0422854 0 0 0
0.0589443 0.0904352 -0.0656567 0 0 0
0.0793897 0.129152 -0.0308124 255 255 255
0.0903009 0.106205 -0.0331094 0 0 0
0.051879 0.152546 -0.0411275 0 0 0
0.0566185 0.126041 -0.0457409 55 33 30
0.0717482 0.12705 -0.0600873 38 25 23
0.0780917 0.165953 -0.0265197 151 96 95
0.0655743 0.201737 -0.039644 255 143 128
0.0638486 0.192727 -0.0387476 153 65 58
0.0728149 0.192637 -0.0243623 255 255 235
0.0833105 0.134071 -0.0348064 163 89 78
0.0752744 0.147245 -0.0572181 80 46 41
0.0705859 0.198858 -0.0229585 255 255 255
0.0740609 0.144025 -0.0564422 72 40 36
0.0844335 0.169928 -0.0398559 119 56 46
0.0747184 0.203677 -0.0239432 255 216 186
0.0622287 0.17962 -0.0464026 145 87 77
0.0607809 0.118784 -0.0579869 40 31 27
0.0633175 0.201042 -0.0386753 255 159 144
0.0886716 0.18006 -0.0241839 190 113 104
0.0885128 0.189559 -0.0306899 255 157 140
0.0850763 0.190059 -0.0401923 255 255 255
0.0730522 0.112858 -0.0534736 55 18 18
0.0504046 0.113818 -0.0336226 0 0 0
0.0819637 0.163482 -0.0305655 159 107 97
0.0655314 0.12229 -0.0687563 0 0 0
0.0716335 0.189896 -0.0253709 255 133 108
0.0767922 0.162313 -0.0299238 160 88 74
0.0790533 0.134305 -0.0291485 66 39 26
0.0693823 0.156681 -0.0334563 166 93 78
0.0618567 0.19249 -0.0423913 110 26 17
0.075944 0.167391 -0.0274555 105 49 41
0.0863335 0.191455 -0.0385827 255 122 108
0.0498166 0.119908 -0.0273163 46 0 0
0.0844718 0.19205 -0.0417729 255 191 173
0.063737 0.16321 -0.0324464 186 147 132
0.0894809 0.1867 -0.0369374 49 255 255
0.0830382 0.163653 -0.0310268 153 85 74
0.0654342 0.199999 -0.0313692 255 127 110
0.0889616 0.185944 -0.0325155 184 101 91
0.0742195 0.200109 -0.023756 255 255 255
0.0697034 0.187635 -0.0276889 194 112 102
0.06873 0.173578 -0.0519437 143 77 64
0.0849581 0.179638 -0.041287 227 138 126
0.0864979 0.17886 -0.0372393 189 106 96
0.0874959 0.194358 -0.0362165 255 142 121
0.0858254 0.188043 -0.0419205 168 87 79
0.0712798 0.197451 -0.044995 255 153 136
0.0847161 0.187563 -0.0248992 166 112 93
0.0646004 0.187942 -0.0288957 255 233 212
0.0689998 0.192269 -0.0479236 226 127 115
0.0826198 0.193846 -0.0454891 255 140 132
0.0628344 0.135406 -0.0402278 62 34 29
0.0669519 0.114873 -0.0527598 35 27 24
0.0774643 0.186506 -0.02403 250 157 145
0.0836287 0.182265 -0.0424216 158 79 72
0.0658794 0.197612 -0.0428139 255 142 128
0.0838093 0.178327 -0.0410495 108 40 31
0.0892509 0.199024 -0.0381428 255 189 168
0.0792214 0.160527 -0.0461267 128 75 65
0.0796503 0.160101 -0.0450563 151 91 84
0.0676756 0.168147 -0.0323241 120 59 51
0.0648464 0.194989 -0.0430128 255 80 82
0.0693293 0.194531 -0.0460648 255 167 150
0.0856488 0.187179 -0.0244304 255 255 255
0.0832715 0.196001 -0.0468415 255 208 194
0.0797234 0.16389 -0.0494921 168 96 85
0.0683744 0.129904 -0.0349581 101 62 56
0.0613929 0.15148 -0.057925 60 31 28
0.0685144 0.192375 -0.0297441 255 172 152
0.0676638 0.112327 -0.0525512 255 255 255
0.0809882 0.163649 -0.0465675 132 72 62
0.0640212 0.197844 -0.0396621 255 146 130
0.0792737 0.138475 -0.0428499 71 41 38
0.0687451 0.192985 -0.0479726 255 160 139
0.0745491 0.186817 -0.0245644 232 149 139
0.0735929 0.157048 -0.0312123 192 112 100
0.0757901 0.170619 -0.0527815 165 84 75
0.0750184 0.182767 -0.0277169 233 139 124
0.0634637 0.141009 -0.0393542 82 44 40
0.072364 0.189619 -0.0233106 234 156 141
0.0834224 0.17011 -0.0413175 108 50 42
0.0795671 0.122063 -0.0443854 69 53 44
0.0691779 0.154762 -0.0330131 160 100 91
0.0746311 0.185806 -0.0272503 169 82 71
0.06586 0.179974 -0.0498321 158 83 74
0.0824419 0.196649 -0.0458143 255 141 123
0.0838175 0.157986 -0.0333511 185 109 94
0.0790537 0.166296 -0.0499048 148 83 73
0.0850869 0.194184 -0.024252 252 127 106
0.0661022 0.191286 -0.0475322 255 184 163
0.074507 0.171628 -0.0533254 184 104 94
0.0850084 0.186208 -0.0252618 255 255 255
0.0650584 0.17173 -0.0478409 47 0 0
0.0797832 0.163391 -0.0469507 135 76 67
0.0574809 0.149423 -0.0431469 60 29 25
0.0684515 0.194645 -0.046668 255 146 133
0.085583 0.185143 -0.0242356 255 255 255
0.0654588 0.19487 -0.0317759 255 196 167
0.073381 0.186606 -0.0278238 217 132 119
0.0861521 0.187603 -0.040865 177 95 85
0.0570306 0.150331 -0.0466904 81 44 39
0.0684834 0.155659 -0.0327253 89 49 41
0.0759047 0.138596 -0.0523141 87 57 52
0.0740887 0.185318 -0.0232805 215 139 125
0.0556097 0.146487 -0.0397801 0 0 0
0.0757617 0.183854 -0.0271892 231 139 124
0.0819385 0.107007 -0.0331593 255 255 255
0.0806964 0.176657 -0.0511593 131 49 43
0.0672876 0.192582 -0.0293861 255 179 147
0.0672382 0.113652 -0.0515289 52 24 20
0.0627314 0.171646 -0.0447213 167 91 81
0.0616651 0.169202 -0.0444091 153 85 71
0.0790664 0.162103 -0.0469877 127 73 67
0.073399 0.174964 -0.0282562 141 74 61
0.0751514 0.190217 -0.0501254 44 0 0
0.0702915 0.178521 -0.0286875 183 97 85
0.0689104 0.19282 -0.0291763 255 182 161
0.0655112 0.162539 -0.0345261 148 89 78
0.0840606 0.186426 -0.0256836 255 170 161
0.0584456 0.149271 -0.0488623 96 53 47
0.0644422 0.188269 -0.0281299 185 106 95
0.0837987 0.180039 -0.0456173 172 99 92
0.058401 0.143409 -0.0429363 72 39 33
0.0787577 0.160375 -0.0471101 31 0 0
0.0635443 0.19801 -0.0320132 255 189 166
0.0793504 0.16055 -0.0444997 141 77 68
0.0634114 0.170119 -0.0455045 141 78 70
0.0703026 0.199818 -0.0239598 255 88 65
0.0867143 0.193163 -0.0368462 255 127 109
0.0613822 0.190284 -0.0354685 255 205 180
0.0801464 0.170425 -0.0512513 154 88 80
0.0760971 0.188749 -0.0262376 255 135 115
0.0604674 0.18657 -0.0408688 172 84 77
0.0788961 0.200688 -0.0476041 230 106 93
0.0617381 0.167973 -0.0316127 117 63 56
0.0778224 0.146801 -0.0546677 79 42 38
0.0651701 0.104097 -0.0315734 255 255 255
0.0739923 0.19055 -0.0493824 255 158 151
0.0814877 0.195046 -0.0479356 255 191 173
0.0742806 0.203886 -0.023437 255 162 134
0.0671054 0.194462 -0.0301601 255 183 154
0.0759881 0.186044 -0.0509187 133 68 61
0.0801266 0.182982 -0.0257102 208 118 104
0.0727525 0.158456 -0.0306752 173 99 86
0.0709298 0.156228 -0.0336416 153 92 83
0.078904 0.165394 -0.0484374 140 85 76
0.0831977 0.160383 -0.0382659 159 93 84
0.0739094 0.190536 -0.0259126 248 248 224
0.0900654 0.184051 -0.0350817 173 94 83
0.085866 0.186667 -0.0259274 255 255 255
0.0896879 0.195373 -0.0381511 255 255 255
0.0917618 0.189117 -0.0286117 255 202 197
0.0734341 0.154505 -0.0236318 106 59 46
0.0604324 0.188579 -0.0447996 250 139 129
0.0767766 0.201021 -0.0231545 255 235 210
0.0906808 0.19328 -0.0328438 255 146 130
0.0514215 0.119632 -0.0494749 0 0 0
0.0854905 0.164605 -0.032511 161 92 80
0.0746956 0.189311 -0.0258257 255 132 105
0.0622903 0.179816 -0.0463986 146 73 61
0.0734608 0.190468 -0.0258093 221 255 238
0.0721992 0.198898 -0.0245752 255 255 255
0.0733985 0.19671 -0.0241119 255 253 228
0.0695455 0.129104 -0.0369786 66 37 33
0.0814682 0.166591 -0.0501313 155 84 76
0.0653276 0.133745 -0.0627191 29 21 19
0.0740246 0.20262 -0.0243876 255 255 255
0.0799151 0.138485 -0.0377551 77 46 41
0.0608185 0.194115 -0.0413081 255 255 255
0.0848425 0.166835 -0.0279877 169 129 133
0.0768823 0.196744 -0.0240799 255 192 171
0.0889626 0.183003 -0.0265405 255 227 234
0.0412936 0.138854 -0.0424866 0 0 0
0.078972 0.167631 -0.0272793 163 97 88
0.0815814 0.133126 -0.0438353 52 5 2
0.0757823 0.203309 -0.0244267 255 255 243
0.0732996 0.141654 -0.0341534 91 52 46
0.0747516 0.170066 -0.0273578 125 72 61
0.0784329 0.160185 -0.0279532 115 72 62
0.0602958 0.15579 -0.0533109 70 38 32
0.0704574 0.119216 -0.0162701 0 0 0
0.0505332 0.115574 -0.028287 3 0 0
0.0766509 0.0887308 -0.0547221 0 0 0
0.0514384 0.0969413 -0.0508656 75 0 0
0.0620345 0.114291 -0.0481627 37 25 23
0.0512393 0.122956 -0.0238968 0 0 0
0.0872866 0.179487 -0.0376365 171 93 84
0.0691953 0.192238 -0.0292275 255 180 156
0.0587436 0.173195 -0.0336424 38 0 0
0.0634909 0.121297 -0.0384956 255 190 171
0.0738023 0.112215 -0.0467274 58 40 39
0.0724919 0.20283 -0.0237585 255 255 255
0.0763024 0.129776 -0.0477384 76 46 43
0.0481142 0.120809 -0.0518414 0 0 0
0.0795261 0.0717599 -0.0278732 118 61 62
0.0731647 0.198804 -0.0232619 255 195 170
0.0831354 0.183845 -0.0232562 206 116 104
0.0520335 0.114218 -0.0431428 0 0 0
0.0631792 0.185364 -0.0274837 199 118 104
0.0696455 0.190041 -0.0259258 255 255 236
0.0752724 0.142189 -0.0552973 90 53 48
0.0621711 0.166192 -0.0303766 199 202 204
0.0697324 0.190739 -0.0281663 239 238 213
0.0759846 0.201373 -0.0225597 255 136 115
0.0777926 0.199666 -0.049695 255 188 180
0.0692934 0.190093 -0.0254296 226 148 124
0.0601593 0.167445 -0.0355862 112 50 45
0.0833627 0.165474 -0.0450872 189 128 119
0.0837051 0.161806 -0.0340552 168 98 90
0.0872023 0.179463 -0.0331737 121 61 51
0.0711221 0.131286 -0.0619706 21 15 13
0.0959275 0.183942 -0.0361732 255 255 255
0.0939371 0.17981 -0.0249237 205 104 93
0.0771723 0.191357 -0.0494105 255 170 158
0.0890609 0.18903 -0.0375667 0 255 255
0.0677826 0.193045 -0.029438 255 196 170
0.050276 0.117925 -0.0508919 0 0 0
0.0781388 0.128951 -0.0231406 0 0 0
0.0865332 0.186895 -0.027604 255 169 146
0.0839687 0.19091 -0.0462726 255 255 255
0.0649936 0.112076 -0.0428306 33 28 25
0.0881365 0.200604 -0.0371121 255 239 214
0.0601545 0.130597 -0.0360153 0 0 0
0.0656742 0.134108 -0.0655758 10 0 0
0.0827153 0.0569243 -0.0424371 0 0 0
0.0778739 0.141199 -0.0355177 87 50 46
0.0592176 0.125558 -0.0415015 101 55 50
0.0613501 0.132338 -0.0654407 0 11 11
0.0477617 0.138624 -0.0449777 0 0 0
0.0621509 0.179107 -0.0467816 153 72 61
0.077353 0.131209 -0.0421147 90 50 47
0.0709848 0.142063 -0.034807 107 59 51
0.0870699 0.187124 -0.0280699 255 197 188
0.0789711 0.161772 -0.0287408 187 114 103
0.0555412 0.0824577 -0.0495057 0 0 0
0.0753025 0.202351 -0.0225871 255 154 128
0.0515547 0.119692 -0.0302465 75 0 0
0.0575011 0.150151 -0.0511362 116 97 92
0.0741271 0.203926 -0.0236405 255 133 100
0.0722052 0.0812076 -0.055086 0 0 0
0.0502664 0.0809417 -0.0498074 163 80 71
0.0528215 0.100447 -0.052521 0 83 66
0.0778404 0.123971 -0.0275345 170 109 89
0.0586109 0.168382 -0.034993 255 220 206
0.0499964 0.125902 -0.0220324 0 0 0
0.0761505 0.200464 -0.0233783 255 255 255
0.0677074 0.192994 -0.0292315 255 205 181
0.0725244 0.192301 -0.0241895 255 255 250
0.0688543 0.113427 -0.0559517 36 27 24
0.0511311 0.11296 -0.0339325 0 0 0
0.0906056 0.112918 -0.0185832 0 0 0
0.0722633 0.18282 -0.028332 208 116 104
0.0865441 0.188292 -0.0275317 255 213 197
0.0799103 0.182382 -0.0259171 151 78 68
0.0587796 0.121288 -0.0441012 59 41 37
0.0521432 0.125062 -0.0490145 0 0 0
0.0677024 0.161561 -0.034782 153 88 77
0.0623513 0.164808 -0.0346749 144 76 62
0.0885659 0.198926 -0.0362708 255 248 220
0.0824956 0.172383 -0.0430604 108 46 37
0.0833236 0.160786 -0.0382491 157 93 84
0.0743827 0.201608 -0.0220635 255 182 159
0.0855052 0.170744 -0.0495864 0 0 0
0.063729 0.182983 -0.0472968 161 94 86
0.0838242 0.194452 -0.0428522 255 177 162
0.0843724 0.167038 -0.0467081 9 0 0
0.0839248 0.176512 -0.0477198 43 0 0
0.0588439 0.187764 -0.0326408 215 103 94
0.0618292 0.162786 -0.0358902 154 83 74
0.0830203 0.0759066 -0.0337828 215 185 147
0.0611724 0.179467 -0.0470381 199 120 112
0.0874568 0.192658 -0.0389174 255 255 255
0.075132 0.131941 -0.0495813 61 29 31
0.0633607 0.198738 -0.0357311 255 171 150
0.0758065 0.203971 -0.0218606 240 255 255
0.0932519 0.185102 -0.0386783 49 255 255
0.0834984 0.161749 -0.0305758 143 86 75
0.0755875 0.195263 -0.0235771 255 254 225
0.0516814 0.11766 -0.0512625 0 0 0
0.0818349 0.124042 -0.0238705 0 0 0
0.0902208 0.198474 -0.036397 255 255 233
0.0869497 0.18541 -0.0256682 255 255 246
0.0648777 0.170879 -0.0286729 165 79 65
0.0778769 0.163546 -0.0315853 187 111 98
0.0854628 0.187696 -0.0361775 83 25 16
0.0688411 0.114942 -0.0522107 46 27 23
0.0836769 0.181872 -0.0419207 185 99 89
0.06737 0.174317 -0.0512155 164 86 76
0.0735812 0.192671 -0.0269528 255 214 193
0.0667979 0.194618 -0.0447959 255 233 198
0.0822206 0.196405 -0.0463672 255 156 142
0.0839708 0.194491 -0.0465706 255 161 141
0.0797343 0.160486 -0.0455094 155 90 80
0.0686312 0.129012 -0.0353455 52 39 32
0.0800963 0.144558 -0.0370148 52 25 23
0.0832157 0.160403 -0.0382176 156 93 84
0.0818969 0.151278 -0.0363152 61 27 21
0.0693691 0.159689 -0.0309341 61 13 8
0.0860523 0.186388 -0.0250208 255 255 255
0.0778757 0.163995 -0.0296425 189 108 94
0.0848073 0.183566 -0.0391771 172 89 78
0.0668622 0.192562 -0.0461519 255 223 194
0.0821474 0.146465 -0.0463119 47 4 0
0.0816873 0.161328 -0.0438868 137 84 76
0.0740818 0.168551 -0.033549 156 90 81
0.0751194 0.199837 -0.0470803 255 140 123
0.0647867 0.173327 -0.0518647 138 69 58
0.0676683 0.192862 -0.0304017 255 148 129
0.0609645 0.147014 -0.0402077 77 41 36
0.0781998 0.167497 -0.0517604 139 80 71
0.0773947 0.182896 -0.0264805 220 126 112
0.0906767 0.192296 -0.0305835 255 255 240
0.0657374 0.173 -0.0481975 174 97 84
0.0717196 0.163555 -0.0306513 145 82 72
0.0883202 0.19958 -0.0377055 255 255 240
0.083104 0.156273 -0.0328171 194 109 100
0.0764237 0.123549 -0.0454931 0 0 0
0.0609622 0.17059 -0.041812 121 39 32
0.0755511 0.19043 -0.0500374 240 152 133
0.085845 0.18825 -0.0415799 204 96 85
0.0770213 0.171642 -0.053471 166 97 89
0.0789345 0.157179 -0.0453097 38 0 0
0.0777337 0.181475 -0.0526363 158 95 86
0.0845788 0.185043 -0.0225413 255 255 255
0.0642914 0.174815 -0.0476459 161 73 64
0.0711342 0.171415 -0.0556241 172 109 100
0.0831609 0.174712 -0.0430589 145 74 64
0.0573353 0.144666 -0.0444078 87 49 45
0.0702838 0.171945 -0.053414 164 88 76
0.0817147 0.165277 -0.0452901 118 62 53
0.0853546 0.186437 -0.0245743 255 255 255
0.0908069 0.182549 -0.0307155 169 98 90
0.0712514 0.188805 -0.0285904 211 111 97
0.0811933 0.161058 -0.0469542 156 80 69
0.0583102 0.148163 -0.039307 28 0 0
0.0827469 0.176319 -0.0483591 108 50 43
0.0774827 0.138131 -0.0469607 75 39 35
0.0833481 0.176419 -0.0471139 103 55 50
0.0827743 0.175531 -0.0474569 140 77 68
0.0809122 0.199608 -0.0232562 255 142 126
0.0744435 0.19118 -0.0269595 255 172 151
0.0753792 0.18992 -0.0498944 221 124 105
0.0840466 0.196047 -0.0445622 255 169 137
0.0700184 0.194246 -0.0471726 255 156 129
0.0684865 0.113136 -0.0502322 36 26 24
0.0853339 0.188416 -0.025066 255 255 255
0.079096 0.166615 -0.052157 162 100 95
0.0613019 0.172577 -0.0442785 167 103 93
0.0576008 0.155192 -0.0397638 75 59 55
0.063336 0.172695 -0.0473973 166 83 75
0.0640352 0.174924 -0.0480757 162 75 65
0.0722238 0.188458 -0.0499312 255 164 145
0.0769463 0.144336 -0.0571207 93 47 44
0.087051 0.179495 -0.0336573 135 65 56
0.0860433 0.194629 -0.042137 255 185 162
0.0853757 0.186196 -0.0244079 255 255 255
0.063581 0.174493 -0.0481381 179 88 81
0.0860513 0.185597 -0.0429776 255 133 119
0.0604746 0.16853 -0.0405763 147 88 78
0.0806876 0.168347 -0.0510309 141 79 72
0.0715207 0.188867 -0.0222351 205 115 95
0.0637918 0.175468 -0.0479215 160 72 64
0.0608213 0.166815 -0.0413598 176 96 85
0.0674724 0.109609 -0.0525896 255 255 255
0.0648401 0.194546 -0.0345768 255 165 144
0.0901128 0.195593 -0.0377834 255 255 255
0.0836574 0.175774 -0.0472879 153 104 104
0.0641752 0.193924 -0.0432371 255 209 189
0.0798134 0.160578 -0.0454016 142 85 77
0.0851205 0.185487 -0.024993 255 255 255
0.0861347 0.179492 -0.0347848 140 73 63
0.077791 0.140825 -0.0344804 61 32 27
0.0647078 0.174485 -0.0490833 166 98 85
0.0860623 0.186751 -0.0257895 255 255 255
0.0655744 0.191263 -0.047091 163 72 61
0.0837501 0.183014 -0.0233744 161 90 78
0.0800435 0.165775 -0.0500678 169 96 85
0.0743092 0.199744 -0.0211733 255 255 255
0.0622412 0.165111 -0.0392422 155 87 77
0.0629013 0.201281 -0.0383488 255 164 148
0.0706705 0.190184 -0.0250672 255 183 163
0.0863167 0.188873 -0.0238828 217 80 65
0.0632549 0.189221 -0.0295338 255 228 207
0.0809477 0.162964 -0.0448725 140 77 69
0.0867008 0.188805 -0.0237958 255 255 255
0.0640486 0.195349 -0.0338262 245 129 108
0.0787662 0.194786 -0.0500569 255 207 193
0.0852884 0.187613 -0.0244417 255 255 255
0.0644512 0.17463 -0.0481213 173 92 78
0.0641272 0.171826 -0.0453834 144 83 72
0.0621565 0.180596 -0.0449698 156 84 73
0.0613189 0.169154 -0.0443855 154 95 82
0.0790199 0.159774 -0.0460394 124 74 67
0.0665347 0.174094 -0.04814 131 73 63
0.0807092 0.156451 -0.0463522 7 0 0
0.0758335 0.190692 -0.020245 255 137 115
0.063751 0.171749 -0.0455578 169 91 79
0.0776175 0.202204 -0.0469016 255 130 117
0.0667941 0.149119 -0.0299576 255 255 255
0.0660655 0.194541 -0.0301163 255 242 216
0.0591856 0.16482 -0.0426385 120 88 76
0.0854766 0.186984 -0.0239401 255 255 255
0.0701295 0.19047 -0.0279041 225 244 224
0.0849705 0.192278 -0.0430055 255 230 214
0.0730297 0.200169 -0.0239827 255 255 255
0.0815869 0.133026 -0.0440698 33 0 0
0.0788657 0.161612 -0.0283755 130 84 77
0.0887911 0.18419 -0.0311556 182 101 86
0.0769278 0.199864 -0.0216018 255 211 179
0.0765654 0.13923 -0.0344403 38 11 6
0.0756855 0.172413 -0.027626 162 94 85
0.0789004 0.165329 -0.0523061 184 116 106
0.0705409 0.189018 -0.0284778 208 126 114
0.08102 0.139864 -0.0392563 55 34 32
0.0570262 0.119165 -0.0520962 62 39 33
0.0795651 0.141718 -0.0454896 65 31 27
0.077949 0.138467 -0.0397732 92 58 49
0.0572777 0.117958 -0.0532229 44 23 19
0.0688578 0.123032 -0.0619793 35 28 27
0.0809101 0.140766 -0.0384205 61 32 28
0.0830461 0.160882 -0.0476257 81 27 18
0.0620495 0.147878 -0.0381303 85 50 45
0.063861 0.0933471 -0.0573584 63 0 0
0.0615384 0.12467 -0.0617495 31 22 19
0.0743944 0.158963 -0.0283061 160 87 75
0.0680896 0.112214 -0.0434439 39 27 24
0.0898416 0.197789 -0.0336066 255 255 250
0.061909 0.189521 -0.04289 255 255 255
0.0825453 0.098947 -0.0219377 0 0 0
0.070283 0.116934 -0.0694615 0 0 0
0.0599253 0.118695 -0.0549544 35 26 22
0.0664687 0.0871489 -0.0327981 0 0 0
0.0612099 0.0933283 -0.0419199 0 0 0
0.0736748 0.101541 -0.0204532 0 0 0
0.0818866 0.147112 -0.036538 82 44 39
0.0818366 0.161686 -0.0370217 144 82 72
0.068595 0.17845 -0.0296025 185 101 88
0.0479247 0.0938605 -0.0551788 67 35 20
0.0567453 0.0898182 -0.0312451 0 0 0
0.0693807 0.183633 -0.0257028 255 141 118
0.08699 0.188094 -0.030482 255 157 139
0.0576184 0.0703355 -0.0420556 0 0 0
0.0757128 0.128335 -0.0489893 107 57 51
0.0769132 0.112931 -0.056167 0 0 0
0.0791533 0.164533 -0.0532457 177 92 94
0.0562871 0.111159 -0.0533722 0 29 27
0.0729012 0.193116 -0.0247421 255 255 254
0.0649574 0.141776 -0.0381961 56 25 21
0.0819853 0.144933 -0.0380843 52 25 21
0.0742946 0.199207 -0.0239174 255 255 255
0.075976 0.145128 -0.0316944 27 8 4
0.0837215 0.136636 -0.037222 233 158 144
0.088802 0.115096 -0.0201627 0 0 0
0.0717826 0.107948 -0.049799 21 21 15
0.0921351 0.111879 -0.0198614 0 0 0
0.0694134 0.111481 -0.0648016 47 36 39
0.0847955 0.170803 -0.0288131 144 85 77
0.0755139 0.139525 -0.0347039 96 61 55
0.0854832 0.173847 -0.0395536 195 109 101
0.0839692 0.18468 -0.047706 229 170 161
0.0838917 0.168138 -0.0462251 103 31 25
0.0566878 0.0955583 -0.04344 0 0 0
0.0826148 0.161845 -0.0504058 115 39 32
0.0578909 0.123225 -0.0576675 46 23 20
0.070765 0.174403 -0.0541577 173 100 90
0.0518073 0.124241 -0.0549831 0 0 0
0.0715307 0.103282 -0.067651 0 0 0
0.0951286 0.186076 -0.0365371 0 255 255
0.0863859 0.166618 -0.0297462 133 73 65
0.0811703 0.140609 -0.0392159 54 28 22
0.0820695 0.188322 -0.0236796 223 139 128
0.0750086 0.130498 -0.053816 78 44 40
0.0740061 0.1109 -0.0514834 18 17 16
0.0550348 0.127259 -0.048626 41 26 22
0.089316 0.191327 -0.0372735 255 252 237
0.0572651 0.127005 -0.0423711 118 73 65
0.088368 0.199021 -0.0376443 255 255 231
0.0833076 0.196778 -0.0466397 255 223 207
0.0793651 0.122907 -0.0497515 26 98 98
0.0883639 0.191296 -0.0424538 255 255 254
0.0849316 0.165963 -0.0321856 136 74 63
0.0828111 0.165626 -0.0284289 146 86 76
0.0547391 0.0932126 -0.0564635 62 73 57
0.0854156 0.166223 -0.0465685 180 134 117
0.0577656 0.0912264 -0.0302204 0 0 0
0.0889201 0.174015 -0.0377906 163 85 78
0.0638919 0.198004 -0.0366426 255 162 143
0.091107 0.19464 -0.0374633 255 255 255
0.0771636 0.205025 -0.0218083 255 180 158
0.0817567 0.159269 -0.0283621 171 100 94
0.0535907 0.0908445 -0.0511635 255 188 172
0.0674494 0.11798 -0.0687301 0 0 0
0.0873042 0.189476 -0.0295742 255 171 147
0.0904835 0.193993 -0.0357255 255 255 255
0.0883196 0.184636 -0.0407546 0 255 255
0.0749993 0.203913 -0.0215495 255 255 255
0.0570271 0.124593 -0.0455231 50 30 25
0.0789384 0.137373 -0.0362496 67 38 35
0.0679167 0.128373 -0.0626832 32 24 21
0.0690431 0.143053 -0.0364583 68 33 29
0.0795879 0.13923 -0.0388658 64 31 29
0.0686578 0.126651 -0.062214 32 23 20
0.0702054 0.124859 -0.0624904 34 25 21
0.058208 0.0981273 -0.026547 0 0 0
0.0626551 0.114611 -0.0234831 255 255 255
0.071883 0.111277 -0.0561276 0 0 0
0.0608273 0.126898 -0.0650643 5 14 15
0.0803101 0.139644 -0.0364073 77 37 34
0.0738356 0.121781 -0.0298727 255 255 255
0.0695272 0.171067 -0.0278432 173 102 90
0.0771196 0.119182 -0.0180443 0 0 0
0.0720433 0.117546 -0.0698962 0 0 0
0.0613812 0.168964 -0.0359034 150 82 72
0.0883743 0.194559 -0.0405102 255 255 241
0.0575881 0.149548 -0.0524713 65 62 56
0.0632899 0.0893912 -0.0413086 0 0 0
0.0666605 0.0996156 -0.0289112 0 0 0
0.0679645 0.126734 -0.06611 0 0 0
0.0788642 0.135526 -0.0427082 103 63 56
0.0810214 0.140211 -0.0361115 54 26 23
0.0614331 0.165616 -0.0350528 171 88 79
0.0722492 0.113084 -0.0435965 34 26 23
0.0874823 0.188031 -0.0295275 255 175 154
0.0625069 0.165154 -0.0364825 164 92 80
0.0777022 0.134195 -0.0518381 0 0 0
0.0712897 0.113134 -0.0541319 47 32 29
0.067139 0.159214 -0.033696 132 74 65
0.0799861 0.165768 -0.0521163 177 119 122
0.047042 0.103145 -0.0493707 0 0 0
0.0555424 0.166571 -0.0407056 255 255 255
0.0853863 0.155909 -0.049752 173 92 76
0.0854166 0.16432 -0.0319399 121 68 58
0.062911 0.137953 -0.037817 81 46 42
0.0810617 0.139689 -0.039449 47 26 21
0.0642345 0.173786 -0.0483846 187 101 87
0.0751085 0.100987 -0.0470823 0 0 0
0.0799868 0.136015 -0.0312486 77 40 39
0.0848998 0.138214 -0.0363738 132 41 33
0.0761213 0.0545894 -0.0346216 0 0 0
0.0841793 0.106836 -0.0241923 0 0 0
0.0687783 0.110648 -0.0487164 26 19 16
0.080517 0.102898 -0.0210868 0 0 0
0.0738472 0.0988197 -0.0216484 0 0 0
0.0571337 0.152417 -0.0456784 51 24 20
0.0788392 0.167777 -0.0272258 157 92 79
0.0849006 0.172321 -0.0402738 204 129 123
0.0839469 0.183549 -0.0483622 215 144 139
0.08448 0.171057 -0.0493671 104 60 54
0.0905317 0.194741 -0.0372842 255 255 255
0.0816298 0.16113 -0.0485066 159 95 82
0.0579134 0.120716 -0.0562044 51 33 28
0.0674329 0.193079 -0.0298196 255 195 173
0.0825914 0.164903 -0.0295082 155 90 78
0.0714883 0.171298 -0.0550136 191 101 90
0.090495 0.191117 -0.0321215 255 139 121
0.0504449 0.12077 -0.050921 0 0 0
0.0629942 0.0932786 -0.0465824 62 37 30
0.0842621 0.192954 -0.040848 255 178 159
0.0651427 0.192526 -0.0308277 255 179 153
0.0785762 0.123014 -0.0113315 176 0 0
0.0669407 0.160426 -0.0345095 149 90 81
0.067285 0.177872 -0.0517984 154 89 80
0.0787068 0.188692 -0.0215677 233 125 114
0.075191 0.112703 -0.0550798 7 0 0
0.0766366 0.198541 -0.0489209 255 174 152
0.0886328 0.183212 -0.0384629 170 100 90
0.0869824 0.199125 -0.0388512 255 149 127
0.0604531 0.117789 -0.0428937 27 21 18
0.0825724 0.143955 -0.0342635 197 128 121
0.0534769 0.0946749 -0.0543705 0 42 25
0.0836902 0.163232 -0.0484085 206 125 115
0.0843593 0.193536 -0.0433258 255 211 198
0.0861409 0.190046 -0.0255769 255 179 160
0.0695774 0.184817 -0.0211309 54 255 255
0.0793481 0.133498 -0.0506615 255 255 255
0.0583539 0.133738 -0.0387738 251 181 156
0.089747 0.172717 -0.0364533 159 82 72
0.0645842 0.19724 -0.0326351 255 163 148
0.057992 0.161329 -0.0447066 49 11 3
0.051375 0.0943592 -0.0542489 0 0 0
0.0714238 0.118306 -0.0714754 0 0 0
0.0859276 0.19293 -0.0372702 206 121 107
0.086527 0.187914 -0.0251132 173 122 91
0.0549097 0.127641 -0.0476974 49 32 28
0.0642359 0.203536 -0.0366567 255 153 130
0.0754121 0.190358 -0.0499961 255 170 159
0.0677173 0.158722 -0.0582241 100 50 42
0.0620611 0.155278 -0.050697 101 57 51
0.065599 0.186132 -0.0502774 161 78 70
0.0833805 0.190583 -0.0426732 255 255 255
0.074519 0.189545 -0.026392 249 178 157
0.0820623 0.162008 -0.0297362 157 96 83
0.0742595 0.19579 -0.0244961 255 147 125
0.0685652 0.189164 -0.0494547 255 187 167
0.0728004 0.190476 -0.0492972 255 181 164
0.0684426 0.19295 -0.0467693 255 155 136
0.0611447 0.144324 -0.0414593 82 49 43
0.0653319 0.115618 -0.0556078 31 22 18
0.0725165 0.197694 -0.0251162 255 99 63
0.0592733 0.138177 -0.0620609 0 0 0
0.0788187 0.139745 -0.0371152 72 34 30
0.082824 0.160875 -0.0387052 159 94 86
0.0707759 0.196586 -0.0454811 255 172 150
0.080048 0.161592 -0.0336284 198 119 108
0.0686404 0.163467 -0.0320825 121 58 52
0.0634674 0.194258 -0.0327695 243 210 196
0.0852771 0.179777 -0.0376918 89 28 17
0.0761314 0.137036 -0.0377101 99 59 54
0.0769605 0.137047 -0.0392931 60 34 33
0.0698221 0.158887 -0.0340644 154 91 83
0.0626681 0.144537 -0.0390118 71 37 33
0.0715982 0.192625 -0.0476583 255 163 144
0.0742045 0.141726 -0.0337822 93 52 46
0.0912228 0.193701 -0.0344054 255 255 255
0.0568982 0.12741 -0.041478 0 0 0
0.082581 0.18612 -0.0234225 255 169 152
0.0810078 0.195188 -0.0462899 255 165 147
0.0758894 0.12958 -0.048292 0 0 0
0.0786033 0.162858 -0.0315541 207 118 103
0.0881976 0.19526 -0.0264805 255 157 128
0.0854772 0.189418 -0.041266 177 91 82
0.0544572 0.129459 -0.0454005 56 29 23
0.0637068 0.203237 -0.0374694 255 210 193
0.0765581 0.195376 -0.0231255 255 184 163
0.0790784 0.162135 -0.0476457 106 53 48
0.0856282 0.17975 -0.0383018 167 92 82
0.0769806 0.193175 -0.0484454 255 180 154
0.0832713 0.174849 -0.0431525 136 67 57
0.0662694 0.17247 -0.049767 151 78 70
0.0837594 0.181886 -0.0469158 201 116 107
0.0835334 0.186317 -0.0245458 251 140 130
0.0750877 0.195377 -0.0239498 255 255 243
0.0738495 0.140446 -0.0364725 110 68 62
0.0805942 0.161855 -0.0452933 149 86 76
0.0849842 0.184763 -0.0241148 255 255 255
0.0886397 0.19672 -0.0266763 255 174 146
0.0809812 0.178503 -0.0510341 109 57 49
0.0769456 0.14841 -0.0546701 72 31 27
0.0767905 0.197564 -0.0503033 255 160 145
0.0799674 0.176004 -0.0517841 153 83 75
0.0819583 0.16102 -0.0358849 151 91 82
0.077496 0.188108 -0.0497828 49 0 0
0.0741882 0.189793 -0.0498714 239 142 131
0.0805514 0.14571 -0.0431466 49 23 20
0.0856574 0.183278 -0.0368908 177 98 85
0.0689306 0.192789 -0.027745 255 232 204
0.0643954 0.114597 -0.055013 33 14 10
0.0782266 0.141283 -0.0349535 64 32 28
0.0852218 0.183598 -0.0389024 177 90 77
0.0710521 0.172835 -0.0564035 174 115 108
0.0790876 0.164478 -0.0481016 148 87 77
0.0828956 0.189517 -0.0239023 255 198 176
0.0578524 0.146843 -0.0462076 84 46 40
0.0666985 0.198043 -0.0423023 255 167 148
0.0825312 0.11094 -0.0350214 255 255 255
0.0816555 0.161186 -0.0334433 193 114 99
0.0826778 0.176193 -0.0440782 93 36 30
0.0756938 0.193262 -0.0483023 255 185 167
0.0881526 0.191274 -0.0369698 181 83 70
0.0656425 0.192348 -0.0297175 255 133 115
0.0667925 0.196214 -0.0406873 127 53 47
0.0830111 0.196795 -0.0444529 255 174 157
0.0855201 0.187991 -0.0250075 255 255 255
0.0856357 0.185251 -0.0421985 188 92 84
0.0813864 0.164464 -0.0472104 143 98 89
0.0785819 0.165086 -0.0532235 0 0 0
0.0832955 0.178942 -0.0429341 140 68 60
0.078778 0.160379 -0.0467435 50 0 0
0.0772673 0.130884 -0.0517894 0 0 0
0.0639095 0.173614 -0.0480228 191 116 98
0.0633155 0.173222 -0.0476993 173 111 103
0.0858299 0.170553 -0.0361846 167 103 92
0.0873066 0.198919 -0.0395135 255 115 90
0.0643651 0.203297 -0.0373785 190 73 76
0.0628113 0.194969 -0.0310855 255 156 161
0.0569571 0.15558 -0.0438667 0 0 0
0.0867196 0.198677 -0.0419144 255 177 163
0.076438 0.170953 -0.0253493 17 0 0
0.082341 0.167278 -0.0487683 144 82 73
0.0707867 0.17073 -0.0533465 155 90 81
0.0793201 0.159481 -0.0456767 133 84 77
0.0814158 0.150592 -0.0419455 0 0 0
0.0729065 0.18705 -0.027761 237 135 121
0.0711384 0.192505 -0.0264681 255 154 127
0.0745305 0.193265 -0.0231983 255 255 250
0.0791509 0.175886 -0.0262952 173 99 88
0.060833 0.18978 -0.0368472 255 247 208
0.087707 0.197318 -0.0402578 255 123 100
0.074842 0.14047 -0.0348759 118 72 63
0.076928 0.198514 -0.022213 255 255 255
0.0693172 0.11392 -0.0524091 50 34 31
0.0678487 0.161484 -0.0347916 151 92 81
0.0630431 0.195859 -0.0344856 249 142 124
0.0793641 0.177407 -0.051751 125 49 44
0.0869918 0.192711 -0.0366865 255 71 54
0.0664674 0.114482 -0.0487871 32 27 25
0.0622308 0.172106 -0.0448511 168 92 81
0.0602121 0.164427 -0.0445736 157 88 75
0.083194 0.18572 -0.0224087 255 255 242
0.074366 0.199215 -0.0228614 255 255 255
0.0773816 0.19225 -0.0488357 246 163 153
0.0614441 0.171307 -0.043939 165 94 83
0.0742333 0.198975 -0.0237746 255 255 255
0.0793268 0.138433 -0.0379118 67 31 25
0.0815165 0.161382 -0.0334502 185 114 102
0.0815224 0.183772 -0.0225515 214 111 94
0.0755491 0.195049 -0.0240642 255 255 255
0.070286 0.191363 -0.0257978 224 112 97
0.0625055 0.19959 -0.0346975 255 169 150
0.0779988 0.138453 -0.0360775 72 44 40
0.0797589 0.162032 -0.0323812 193 125 111
0.0866204 0.188327 -0.0252187 255 255 255
0.0795784 0.19748 -0.0478633 255 175 162
0.0773541 0.182329 -0.0267251 147 64 54
0.0848598 0.183178 -0.0401878 188 98 87
0.085587 0.176342 -0.0379554 153 87 80
0.0632097 0.202747 -0.0356603 255 156 127
0.0753066 0.159688 -0.0313795 209 118 101
0.0834681 0.182415 -0.0426306 113 45 34
0.0843625 0.18836 -0.0247489 255 255 255
0.0853395 0.186593 -0.0257209 255 255 255
0.0610769 0.181083 -0.0442891 208 110 100
0.0789291 0.168768 -0.0516937 141 85 77
0.0862544 0.176147 -0.0294727 126 62 53
0.0636677 0.180004 -0.0313593 177 88 79
0.0647467 0.196819 -0.0427848 243 120 102
0.0620712 0.191537 -0.029119 255 255 255
0.0712539 0.181494 -0.0286384 186 105 93
0.0791324 0.160277 -0.0464201 124 79 72
0.072146 0.192037 -0.0251851 255 209 188
0.0866619 0.190866 -0.0429986 255 185 170
0.0754502 0.135789 -0.0501796 82 46 40
0.0661061 0.13777 -0.0384662 65 36 32
0.0719932 0.201336 -0.0238843 255 255 255
0.0834932 0.195312 -0.0441001 255 170 153
0.0664717 0.177148 -0.0508589 170 100 93
0.0653031 0.196729 -0.0396154 255 174 155
0.0747926 0.171734 -0.0268651 195 132 124
0.083615 0.139731 -0.0328972 120 100 85
0.0903743 0.193754 -0.0353922 255 255 233
0.0761491 0.194862 -0.0243197 255 255 255
0.0724921 0.191877 -0.0242877 255 255 245
0.0639323 0.195186 -0.031482 255 224 193
0.064765 0.195695 -0.0345755 255 186 161
0.0630475 0.19237 -0.0332966 255 233 202
0.0590951 0.118004 -0.0597174 54 40 38
0.0681686 0.119136 -0.0616572 71 47 43
0.0618287 0.114347 -0.0430838 32 25 24
0.068225 0.156423 -0.0338132 160 97 91
0.0817257 0.158748 -0.0322912 185 134 119
0.0634336 0.195812 -0.0326967 255 0 0
0.0546995 0.153001 -0.046142 74 40 35
0.0477053 0.149404 -0.0322366 0 0 0
0.067278 0.149248 -0.0329922 230 145 132
0.0751715 0.133757 -0.0524326 79 45 42
0.0746727 0.142775 -0.0561326 65 34 32
0.0686747 0.171901 -0.030237 131 59 49
0.0749361 0.139893 -0.0566725 93 54 45
0.0811571 0.0747784 -0.0405297 148 122 121
0.0860903 0.181431 -0.0363278 164 85 76
0.0616798 0.0849634 -0.0416093 0 0 0
0.0805488 0.0714122 -0.039617 161 118 0
0.0643709 0.128126 -0.0627254 35 25 22
0.0595506 0.126578 -0.0603061 39 26 23
0.0794096 0.137373 -0.0373004 69 32 29
0.0821403 0.164736 -0.0279161 125 70 61
0.0818736 0.185874 -0.0489023 169 98 88
0.0603374 0.16727 -0.0388939 173 107 94
0.064162 0.123378 -0.0630663 38 25 23
0.0743402 0.171585 -0.0272523 122 68 57
0.0853429 0.185075 -0.0449959 255 255 255
0.060582 0.173458 -0.0430283 151 74 67
0.0766523 0.199332 -0.0187931 221 255 255
0.076697 0.167326 -0.0289697 134 75 66
0.0801545 0.16785 -0.0270625 153 90 78
0.0773937 0.133605 -0.0370876 98 54 47
0.0837445 0.161974 -0.0418805 136 79 71
0.0832739 0.17757 -0.0440125 153 91 81
0.0639497 0.0961977 -0.0420586 0 0 0
0.064814 0.132274 -0.0626585 37 25 23
0.0638704 0.158406 -0.0334456 190 139 124
0.0581996 0.173272 -0.0349145 214 115 102
0.0624207 0.138048 -0.0389844 27 0 0
0.0755754 0.190552 -0.0247143 255 255 233
0.0741984 0.069468 -0.0349424 0 0 0
0.0809467 0.167502 -0.0487411 151 88 79
0.0599077 0.178868 -0.0358051 170 96 87
0.0554789 0.0956832 -0.0267427 0 0 0
0.0724451 0.123568 -0.0303863 255 255 255
0.0700248 0.155891 -0.0595499 91 45 39
0.0513834 0.120554 -0.0317613 229 183 0
0.0624143 0.108762 -0.0422667 0 0 0
0.0840786 0.171723 -0.0403619 135 76 68
0.0669713 0.180736 -0.0503595 135 74 65
0.0846662 0.165709 -0.0390213 109 52 43
0.0835366 0.173497 -0.0406769 129 66 57
0.0835501 0.165078 -0.0282267 137 85 76
0.0857352 0.178181 -0.0379564 137 78 69
0.077273 0.109747 -0.0347474 0 0 0
0.0772376 0.0918593 -0.0540206 0 0 0
0.0772745 0.167504 -0.0273093 135 67 56
0.060119 0.149431 -0.0533903 51 37 36
0.0766394 0.152961 -0.0574136 48 28 21
0.0899672 0.188997 -0.0353113 255 112 98
