ply
format ascii 1.0
comment Created by Open3D
element vertex 1193
property double x
property double y
property double z
property uchar red
property uchar green
property uchar blue
end_header
0.0781159 0.171748 -0.0265736 244 154 136
0.0768395 0.170463 -0.026915 255 168 152
0.0595096 0.174724 -0.0336319 229 132 120
0.0869972 0.167619 -0.0437749 218 107 94
0.0740768 0.127677 -0.0389004 183 113 107
0.0780321 0.186827 -0.0448167 165 108 97
0.0707023 0.167034 -0.0343178 170 100 91
0.0774603 0.128668 -0.0395639 170 108 100
0.0774101 0.181011 -0.045521 193 119 107
0.0739802 0.170696 -0.037104 130 79 72
0.0709378 0.144249 -0.0570141 81 43 39
0.0675517 0.136117 -0.0568741 77 43 42
0.0547767 0.170385 -0.0345543 202 70 63
0.0651607 0.176918 -0.0389002 205 119 105
0.0584936 0.160553 -0.0471292 134 75 62
0.0639792 0.162335 -0.0558246 156 86 79
0.0597574 0.159284 -0.0445601 186 117 95
0.0564716 0.152354 -0.0420696 138 0 0
0.0636985 0.156342 -0.0527825 64 29 25
0.063876 0.146479 -0.0573463 92 53 48
0.072422 0.160419 -0.0585835 152 71 65
0.0571848 0.159179 -0.0434085 166 93 85
0.060678 0.159358 -0.0389823 146 74 59
0.0652669 0.141761 -0.0614868 75 45 43
0.0746024 0.162817 -0.0575714 171 108 97
0.0613223 0.15572 -0.0427157 103 89 92
0.0638856 0.142149 -0.0579363 71 32 28
0.0529791 0.122661 -0.0473005 187 135 128
0.0622128 0.158311 -0.0345175 165 87 75
0.0620139 0.156498 -0.0382513 169 95 85
0.0455575 0.109541 -0.0540715 0 0 0
0.0564311 0.164956 -0.0292349 205 118 106
0.0691524 0.164025 -0.0360848 166 98 86
0.0622898 0.1667 -0.0296586 185 106 93
0.0754009 0.158575 -0.055091 161 92 83
0.0624155 0.12561 -0.0416377 103 72 64
0.0617085 0.124315 -0.0439866 75 54 49
0.064827 0.0954938 -0.0401166 63 59 55
0.0737479 0.0832045 -0.0374632 0 6 2
0.0605919 0.10278 -0.0412667 57 58 56
0.0676603 0.130541 -0.0556895 74 44 43
0.0685544 0.137827 -0.0514801 50 35 30
0.0751194 0.14749 -0.0469924 93 47 43
0.0632334 0.155201 -0.0406281 106 54 48
0.0743231 0.133372 -0.0483251 37 29 34
0.0678638 0.0925581 -0.0472054 42 36 35
0.0736365 0.168076 -0.0560697 96 37 25
0.0749025 0.149143 -0.0472789 86 43 39
0.0661145 0.101909 -0.0361508 49 22 20
0.0775684 0.157669 -0.0452642 133 68 58
0.081883 0.134104 -0.04406 42 6 1
0.0798312 0.157769 -0.049699 155 80 72
0.0798638 0.134706 -0.0473307 72 40 36
0.0671493 0.162641 -0.036391 178 111 96
0.0777983 0.159944 -0.0487024 121 64 53
0.0629114 0.151472 -0.0399342 67 33 28
0.0746137 0.136395 -0.0433981 49 38 35
0.0824568 0.169975 -0.0526821 136 73 66
0.078543 0.124641 -0.0407837 130 64 60
0.075817 0.140936 -0.0382978 76 48 43
0.0752313 0.16163 -0.0381858 96 57 54
0.0767018 0.160682 -0.0357873 100 70 66
0.0785449 0.114593 -0.0379914 134 70 61
0.0773765 0.14533 -0.0440589 105 52 48
0.0849734 0.0902259 -0.0393436 51 32 29
0.0821037 0.151992 -0.0343432 129 73 65
0.0823998 0.153675 -0.0332646 105 55 47
0.0731019 0.167965 -0.035133 187 120 108
0.078011 0.161936 -0.0336793 231 146 129
0.0733344 0.161867 -0.0329339 192 130 120
0.0760986 0.158389 -0.0321974 173 95 83
0.0833944 0.165921 -0.0412662 167 95 86
0.0739914 0.162471 -0.0305228 143 89 73
0.077971 0.171369 -0.0348835 167 116 104
0.082976 0.162188 -0.0245512 123 66 59
0.0868297 0.169225 -0.0431257 255 131 111
0.0748385 0.175699 -0.0288934 255 161 149
0.0850177 0.165014 -0.033201 158 91 85
0.0617915 0.164713 -0.0385573 194 96 94
0.0599699 0.181692 -0.0420326 111 78 64
0.0683868 0.174305 -0.0544287 161 93 83
0.0659166 0.164425 -0.0569512 131 66 57
0.0614613 0.168999 -0.043813 166 85 71
0.0627856 0.170274 -0.052266 130 68 62
0.0591132 0.166934 -0.050871 157 82 74
0.0573597 0.13871 -0.049095 75 44 40
0.0747161 0.169204 -0.0529984 177 103 102
0.0602664 0.140942 -0.054731 91 52 49
0.0593208 0.138772 -0.0543412 86 54 49
0.0572615 0.159859 -0.0443782 170 108 101
0.062853 0.165738 -0.0363604 141 88 84
0.0632413 0.166873 -0.03194 175 100 90
0.0775038 0.156542 -0.0511325 165 96 87
0.0745956 0.148389 -0.0486639 92 55 51
0.0805541 0.0821173 -0.0336875 16 0 0
0.0759206 0.146471 -0.0471887 82 44 39
0.0757632 0.141612 -0.0455218 106 65 58
0.0604481 0.152699 -0.0380497 163 135 118
0.0811451 0.153829 -0.0420898 135 52 40
0.066645 0.16731 -0.0302558 195 117 104
0.0834582 0.161779 -0.0432686 147 60 48
0.0813913 0.162755 -0.0428353 140 73 65
0.0758757 0.100067 -0.0341128 143 98 94
0.0805329 0.167625 -0.0403954 156 109 98
0.085846 0.155361 -0.0423304 158 115 103
0.074243 0.138028 -0.0458107 45 39 37
0.079755 0.173206 -0.0353783 246 150 138
0.0760254 0.159149 -0.0319641 198 125 115
0.0826278 0.158469 -0.0426037 154 89 78
0.0780441 0.160547 -0.0341467 212 126 111
0.0835454 0.153624 -0.0395963 200 111 100
0.0790668 0.16677 -0.0356141 203 128 114
0.0760977 0.168477 -0.0266692 174 93 82
0.0849832 0.164386 -0.0394765 146 86 78
0.0813314 0.156458 -0.0253504 116 67 57
0.0895114 0.172728 -0.0300059 255 153 130
0.0713668 0.165014 -0.0256785 152 72 64
0.0782764 0.169802 -0.026809 214 132 117
0.0769469 0.154526 -0.0274502 133 85 75
0.0841366 0.167036 -0.0290579 197 112 103
0.0866226 0.170951 -0.0302643 108 32 20
0.059956 0.172728 -0.0488914 139 76 65
0.0620775 0.164241 -0.0303287 159 79 69
0.0751219 0.157014 -0.0497677 116 83 78
0.059898 0.144713 -0.0375305 225 165 150
0.078782 0.170208 -0.0440306 115 61 54
0.0675059 0.170825 -0.0260507 187 72 61
0.0666708 0.166775 -0.0311001 184 108 95
0.0631727 0.172153 -0.0299001 144 76 64
0.0614317 0.180112 -0.0454474 120 48 38
0.0660943 0.169331 -0.038027 162 90 82
0.0626372 0.169471 -0.0347031 164 83 72
0.0799969 0.159344 -0.0361179 207 131 119
0.0803697 0.160164 -0.0354611 211 137 119
0.0852399 0.159192 -0.0377635 162 94 85
0.0908781 0.157906 -0.028902 164 92 83
0.0767603 0.162092 -0.0323291 166 91 75
0.0621441 0.167732 -0.0431471 171 109 99
0.0680449 0.165385 -0.0306258 160 86 76
0.0662698 0.167412 -0.0304883 184 114 103
0.0668219 0.162791 -0.0349469 185 117 104
0.0644943 0.172722 -0.0398633 161 110 103
0.0637719 0.176136 -0.035308 139 79 65
0.0809546 0.162362 -0.037323 182 102 90
0.0752695 0.166955 -0.0250584 194 112 101
0.0734983 0.175751 -0.0518181 135 71 61
0.0768154 0.169779 -0.0245026 186 111 107
0.0710927 0.166945 -0.0534662 170 93 86
0.0819357 0.179584 -0.0457441 255 126 113
0.0784127 0.164558 -0.0354279 205 123 110
0.0736493 0.172519 -0.0294641 224 143 126
0.0603134 0.171225 -0.0408394 174 82 77
0.0760445 0.169699 -0.053678 169 93 88
0.0721197 0.174598 -0.0300391 243 154 136
0.0673333 0.164226 -0.0368003 159 84 74
0.0818999 0.172981 -0.0457932 202 125 117
0.0715908 0.15538 -0.0337192 174 115 111
0.0804928 0.163258 -0.0274572 147 88 80
0.0726732 0.17881 -0.03002 255 182 170
0.0852633 0.173491 -0.0406858 221 106 94
0.0774946 0.177883 -0.032368 209 117 100
0.0610897 0.160336 -0.0363769 144 90 77
0.0620355 0.160212 -0.0324514 166 104 98
0.0809621 0.159153 -0.0353415 172 107 95
0.0838419 0.153845 -0.0357231 134 88 84
0.0678827 0.175086 -0.0302177 239 148 132
0.0732576 0.14401 -0.054363 83 55 54
0.0643994 0.162062 -0.0342717 136 81 70
0.0638499 0.158119 -0.0369507 140 76 66
0.0854986 0.184484 -0.0275958 255 168 154
0.0687668 0.129781 -0.0513725 58 40 35
0.0733819 0.0879094 -0.0424144 40 41 39
0.0649469 0.161901 -0.0276976 159 72 62
0.0794341 0.187943 -0.0478713 255 158 143
0.0755144 0.140479 -0.037718 94 57 50
0.0775088 0.166521 -0.0471753 155 101 95
0.0611676 0.181651 -0.0274864 255 185 166
0.062347 0.161264 -0.0345228 153 95 84
0.0829824 0.188165 -0.0285284 255 149 130
0.0607272 0.162445 -0.0530804 128 71 64
0.0815819 0.158566 -0.0427191 168 108 104
0.0811986 0.157114 -0.0380417 155 89 80
0.0778563 0.169468 -0.0268092 243 162 145
0.079364 0.169575 -0.0260871 255 157 139
0.0602609 0.179909 -0.0275624 254 119 107
0.0780996 0.136329 -0.0438419 120 72 70
0.0819733 0.163012 -0.0352274 188 107 97
0.057655 0.160945 -0.047359 157 98 88
0.0546325 0.161331 -0.0400203 151 65 56
0.061621 0.16272 -0.0536144 153 75 67
0.0661547 0.16323 -0.0584117 129 68 59
0.061233 0.146846 -0.0540568 83 48 43
0.0601844 0.154042 -0.0517134 39 0 0
0.0623412 0.165575 -0.0322128 156 111 100
0.0620368 0.164379 -0.0266514 211 119 107
0.0642949 0.169888 -0.028836 164 98 87
0.0805336 0.166261 -0.0559494 175 109 103
0.0621232 0.162599 -0.0332077 158 90 77
0.0764667 0.15138 -0.0554272 157 90 85
0.0777766 0.160926 -0.0534348 120 56 49
0.0690004 0.129965 -0.0550558 70 46 43
0.07866 0.154449 -0.0523949 138 72 63
0.0649208 0.148537 -0.0390392 101 61 55
0.064702 0.165171 -0.0309038 193 117 106
0.0803359 0.148803 -0.0460264 127 49 38
0.0823477 0.176004 -0.0532743 118 37 28
0.0659745 0.149403 -0.0395569 106 81 76
0.077322 0.150945 -0.0491731 137 81 73
0.0813767 0.163743 -0.0439401 141 94 86
0.076576 0.153996 -0.0514753 123 71 65
0.0756285 0.141731 -0.0450803 86 52 50
0.08113 0.154815 -0.0410471 145 84 74
0.0641699 0.145545 -0.0374001 108 46 39
0.0845858 0.171672 -0.0450286 237 132 128
0.0770671 0.157494 -0.0372609 77 52 47
0.0763879 0.0843867 -0.0417438 112 75 74
0.0656958 0.13801 -0.0357322 117 61 53
0.0811774 0.160357 -0.0432626 136 72 64
0.0788505 0.152174 -0.0470082 171 92 80
0.0698054 0.143733 -0.0377983 115 77 76
0.0783773 0.150521 -0.0331414 133 80 66
0.0846462 0.154626 -0.0334549 48 0 0
0.0770494 0.157594 -0.0392407 91 56 52
0.0776283 0.171607 -0.0245995 166 84 76
0.076326 0.161977 -0.0337238 183 104 92
0.0739088 0.158583 -0.0331055 207 128 120
0.0860848 0.157144 -0.0320603 141 95 95
0.0765281 0.161429 -0.0330424 190 114 100
0.0826158 0.151178 -0.0399153 102 45 35
0.0852895 0.159422 -0.0374106 164 105 98
0.07916 0.163008 -0.0335263 209 126 111
0.0705332 0.156097 -0.0338687 155 120 113
0.076214 0.162029 -0.0338064 181 113 104
0.0772515 0.181482 -0.0293047 253 163 151
0.0547353 0.175663 -0.0360864 255 207 178
0.0615027 0.160094 -0.0495686 182 92 81
0.058079 0.161317 -0.0445267 154 95 86
0.0628191 0.164462 -0.0467678 156 91 75
0.0745044 0.159002 -0.0554539 185 107 99
0.0556914 0.161886 -0.0462455 126 80 71
0.0677226 0.161826 -0.054181 168 92 82
0.0597617 0.143307 -0.0513424 87 49 45
0.0602934 0.160428 -0.0411567 157 81 74
0.065224 0.167891 -0.0388081 132 64 58
0.0654395 0.157771 -0.0362185 164 101 88
0.0740749 0.137968 -0.0513884 102 64 63
0.0771873 0.155302 -0.0563361 104 45 45
0.0753579 0.14508 -0.047741 83 42 36
0.0644889 0.144759 -0.0383771 104 80 74
0.0796137 0.156527 -0.0431155 120 65 57
0.0781647 0.163078 -0.0433687 152 87 80
0.0826241 0.153148 -0.0533629 129 72 62
0.0774897 0.157346 -0.0454008 143 87 78
0.080773 0.169363 -0.0450795 183 107 98
0.0772817 0.134634 -0.042946 106 58 55
0.0807676 0.155815 -0.0415703 154 91 84
0.0815958 0.153023 -0.052226 113 58 50
0.0860269 0.167897 -0.038749 173 99 89
0.083502 0.159472 -0.043296 169 96 86
0.0794832 0.164683 -0.034438 209 132 115
0.0704166 0.112395 -0.0320431 113 74 63
0.0837257 0.163539 -0.0271474 167 96 89
0.0827161 0.163402 -0.0382431 147 90 83
0.0689851 0.182428 -0.0309986 86 44 35
0.0863526 0.152891 -0.033589 137 76 70
0.0802345 0.162815 -0.0264354 152 79 66
0.0882411 0.170328 -0.0378189 255 163 140
0.0764455 0.169438 -0.026403 219 147 133
0.0811906 0.162668 -0.0259115 170 99 92
0.0776534 0.143267 -0.0336682 186 136 126
0.0616018 0.169533 -0.032258 142 68 64
0.073303 0.17188 -0.0306988 199 121 110
0.0701132 0.172123 -0.0275361 255 156 147
0.0583251 0.161101 -0.0451969 175 110 104
0.0688896 0.164638 -0.036428 160 98 88
0.0656177 0.166364 -0.0304816 183 101 87
0.0805013 0.14318 -0.050802 127 71 57
0.0838033 0.166369 -0.0404558 163 91 84
0.0735173 0.145345 -0.0553525 83 38 39
0.0619805 0.165684 -0.0323873 181 103 95
0.0676637 0.16726 -0.0366744 156 77 65
0.0783133 0.162648 -0.0474779 132 73 61
0.0849075 0.159831 -0.033912 126 79 71
0.0605297 0.175642 -0.0369092 249 138 121
0.063206 0.173166 -0.0299131 192 106 95
0.0825564 0.163303 -0.0374974 160 95 79
0.0746811 0.170481 -0.0299372 218 147 135
0.0603894 0.168715 -0.0328717 194 64 56
0.0725961 0.168667 -0.0531552 162 103 94
0.0776965 0.131583 -0.0437004 82 48 36
0.0648521 0.168725 -0.0314738 184 108 95
0.0729947 0.175142 -0.0299363 242 142 131
0.0575206 0.146322 -0.0408299 180 124 119
0.0815676 0.17441 -0.0447409 205 125 115
0.0706186 0.178354 -0.0284077 255 110 96
0.0726078 0.175149 -0.0294421 255 190 169
0.0610084 0.159543 -0.038406 150 84 77
0.0813089 0.155894 -0.0376346 179 104 98
0.0736192 0.146307 -0.0522198 47 25 26
0.0823326 0.172702 -0.046318 174 87 76
0.0625238 0.159234 -0.0384584 150 87 76
0.0614533 0.161987 -0.0335569 172 105 93
0.0811694 0.166123 -0.0436991 158 85 79
0.0647149 0.162063 -0.0353432 158 89 75
0.0779889 0.171145 -0.0265305 255 166 149
0.0640304 0.149385 -0.0446355 91 57 59
0.0671433 0.162524 -0.0359881 177 104 88
0.0702556 0.171337 -0.0309237 254 159 141
0.0716414 0.180761 -0.0304224 237 156 142
0.0628003 0.158597 -0.0377149 166 99 89
0.0565783 0.161477 -0.0436414 111 74 75
0.0759006 0.165938 -0.0546533 157 80 74
0.0734511 0.164111 -0.0554083 156 87 89
0.0574644 0.168574 -0.0323954 182 94 91
0.0653841 0.148206 -0.0504283 76 46 44
0.0601355 0.142696 -0.0490626 37 40 41
0.0638303 0.161252 -0.0318629 145 81 66
0.0596211 0.164402 -0.0346342 189 113 107
0.0660034 0.160292 -0.0353465 159 89 79
0.075684 0.157147 -0.053535 137 81 73
0.0776604 0.150493 -0.0466122 56 33 25
0.0742616 0.145828 -0.0483883 84 61 62
0.0584088 0.16785 -0.0331492 188 114 103
0.0827901 0.152401 -0.054567 90 53 38
0.0731366 0.140396 -0.048993 70 55 54
0.0769079 0.142795 -0.0447982 85 48 42
0.0630797 0.151334 -0.0393931 93 51 44
0.0784061 0.164839 -0.049232 161 105 101
0.0752707 0.162734 -0.0536006 172 96 87
0.0805632 0.159971 -0.0434706 131 68 61
0.081238 0.163045 -0.0477907 87 31 24
0.0771187 0.153538 -0.050803 143 84 74
0.0796799 0.1614 -0.0494239 138 77 70
0.0771719 0.155847 -0.0469564 150 97 89
0.0747319 0.161776 -0.0361618 116 86 80
0.077285 0.108243 -0.041769 118 72 68
0.0745628 0.13054 -0.0376612 99 60 53
0.0811271 0.167613 -0.0436227 166 94 85
0.0811884 0.15662 -0.0405634 157 90 80
0.0772773 0.134713 -0.0401238 169 107 97
0.0807573 0.156635 -0.0417172 150 85 76
0.0833043 0.123012 -0.0404836 42 28 28
0.0769523 0.132578 -0.0430751 81 32 32
0.0766004 0.16238 -0.0334316 214 135 120
0.068526 0.177422 -0.0284264 255 94 81
0.0857306 0.162253 -0.039511 168 94 86
0.0778282 0.160566 -0.0342566 207 127 114
0.0749458 0.166888 -0.030219 157 109 103
0.0849428 0.176567 -0.0434736 255 209 190
0.060137 0.158964 -0.0409702 158 95 86
0.0587618 0.164696 -0.0487363 150 86 78
0.0589107 0.158384 -0.044735 164 85 76
0.0758967 0.168314 -0.0521963 157 100 91
0.0582967 0.140725 -0.0496829 87 53 48
0.0645573 0.16741 -0.0393939 138 51 37
0.0623356 0.136367 -0.0526807 76 51 48
0.0647047 0.156818 -0.0367372 170 110 100
0.0736578 0.139556 -0.0530805 84 53 52
0.0666491 0.142256 -0.0381704 104 64 54
0.0788195 0.15164 -0.0474316 141 88 84
0.0787686 0.159495 -0.0489714 125 74 62
0.0779134 0.161641 -0.0502994 156 99 95
0.0825336 0.160656 -0.0430699 174 102 93
0.0801589 0.144353 -0.0347483 177 95 77
0.0843988 0.154909 -0.0384813 121 74 59
0.0853129 0.163277 -0.0441072 219 116 101
0.0812707 0.143792 -0.0303311 166 127 118
0.0778912 0.158121 -0.0338975 202 134 127
0.0814989 0.157471 -0.0366474 168 100 91
0.0783785 0.16138 -0.0340792 177 105 90
0.0852636 0.159005 -0.0348118 124 82 75
0.0845337 0.145663 -0.0297373 150 101 85
0.0766732 0.158537 -0.0296896 170 99 91
0.0844944 0.154408 -0.03411 128 67 53
0.0767234 0.170955 -0.0481869 150 99 94
0.0815937 0.159624 -0.0410207 109 46 38
0.084763 0.164995 -0.0324549 165 96 86
0.0716472 0.169793 -0.0273459 183 109 100
0.079295 0.163149 -0.0319568 185 114 102
0.0592693 0.158547 -0.0420866 167 91 82
0.0831959 0.164254 -0.0561638 168 49 27
0.0828688 0.149748 -0.0448362 136 78 63
0.0799155 0.153031 -0.0353938 161 77 69
0.0748728 0.138493 -0.0572093 78 32 33
0.0602337 0.165424 -0.034202 177 108 100
0.0625148 0.163621 -0.0290599 175 102 94
0.0608994 0.16818 -0.0514956 164 95 89
0.0867327 0.154973 -0.0406777 156 85 75
0.0733486 0.164381 -0.0213206 185 59 52
0.0786711 0.173659 -0.0261013 114 57 45
0.0724438 0.15077 -0.0335843 174 114 101
0.0766531 0.137352 -0.0436007 93 51 50
0.0751994 0.172237 -0.0284682 232 149 137
0.0547958 0.157836 -0.0470541 132 71 63
0.0596951 0.158145 -0.0428547 203 135 123
0.0664009 0.152909 -0.0376468 137 92 83
0.0864758 0.153219 -0.0383577 140 86 81
0.0751842 0.142103 -0.0555527 89 55 50
0.0823438 0.172542 -0.0442172 195 104 91
0.0825714 0.169076 -0.0425215 201 119 105
0.0759086 0.171509 -0.0291686 184 116 105
0.0690631 0.164576 -0.0370077 123 66 58
0.0610392 0.16181 -0.0340421 160 104 95
0.0570013 0.159893 -0.0339648 154 88 76
0.0596216 0.150759 -0.0460959 94 57 53
0.0784015 0.160573 -0.0600257 154 81 74
0.0779841 0.165919 -0.0326369 166 103 85
0.0868443 0.169678 -0.0257932 255 175 159
0.057847 0.173017 -0.030729 237 133 121
0.075472 0.172261 -0.0276077 237 165 149
0.0618027 0.159116 -0.03907 158 93 82
0.0752474 0.171489 -0.0286066 170 88 75
0.0792463 0.175845 -0.0276201 243 141 125
0.0677618 0.170693 -0.0291283 229 164 153
0.0605032 0.142248 -0.0553965 159 97 97
0.0661814 0.179951 -0.049334 144 79 71
0.0617021 0.161701 -0.0562504 143 77 69
0.0575245 0.162851 -0.0451209 144 81 73
0.0605716 0.160336 -0.0566069 117 57 50
0.0590031 0.162943 -0.0552505 157 116 121
0.0599652 0.155691 -0.0512983 40 0 0
0.0612353 0.150512 -0.0525025 71 49 51
0.0555974 0.154825 -0.0460019 163 72 84
0.0626713 0.151278 -0.0515978 77 45 37
0.0729574 0.151385 -0.0588709 126 99 85
0.0626558 0.163967 -0.0403811 157 81 72
0.063242 0.155273 -0.0385487 134 83 75
0.0609861 0.166471 -0.0272927 207 126 114
0.0723405 0.145581 -0.060437 90 57 47
0.0789293 0.161245 -0.0535167 150 92 81
0.0606152 0.166446 -0.037413 141 101 91
0.0617672 0.161203 -0.0316112 185 97 82
0.0745453 0.143939 -0.0470049 104 59 55
0.0758813 0.148296 -0.0509571 79 58 64
0.0729712 0.14305 -0.053757 93 53 51
0.0777928 0.140554 -0.0437052 82 62 59
0.0818286 0.148918 -0.057197 145 88 88
0.0636328 0.151331 -0.0392725 103 58 49
0.0605125 0.163223 -0.0328783 167 94 87
0.0817408 0.151737 -0.0463568 101 53 42
0.0783485 0.155879 -0.0516387 138 75 65
0.0767543 0.155727 -0.0519667 148 87 78
0.0763463 0.155212 -0.0519386 123 73 65
0.0764084 0.140626 -0.0435751 89 57 54
0.0776331 0.156704 -0.0452102 141 82 73
0.0834384 0.150268 -0.0506797 150 82 71
0.0760624 0.152332 -0.0367348 82 52 44
0.0748257 0.133745 -0.0481392 72 31 28
0.0732684 0.105317 -0.0385939 101 59 55
0.0807403 0.169775 -0.045311 178 110 102
0.0825141 0.151098 -0.0427096 129 59 57
0.0791006 0.155776 -0.0434961 142 82 71
0.0793482 0.167027 -0.0278028 170 100 88
0.0829887 0.157283 -0.0403221 144 83 73
0.0776953 0.164924 -0.0286981 160 101 92
0.081438 0.15874 -0.0397387 151 89 76
0.07817 0.147978 -0.0327201 142 100 91
0.0763331 0.17161 -0.0308034 183 111 97
0.0796034 0.163826 -0.0367182 154 91 78
0.0832843 0.150318 -0.0302698 159 116 107
0.0694951 0.175255 -0.0277341 208 53 49
0.0775762 0.158797 -0.0297875 154 95 80
0.0756261 0.173566 -0.0280348 229 162 149
0.0735407 0.160684 -0.0571625 170 82 76
0.0623473 0.167827 -0.0468608 171 77 66
0.0643337 0.160131 -0.0543514 149 70 59
0.0745327 0.156089 -0.0564368 186 99 99
0.0571513 0.148534 -0.0495603 146 76 80
0.0628453 0.134438 -0.041953 54 31 28
0.0758383 0.14049 -0.0547378 85 54 52
0.0811836 0.152323 -0.0403822 128 79 71
0.0651956 0.16129 -0.0332801 137 102 89
0.0785475 0.151686 -0.0479724 166 100 90
0.081041 0.16495 -0.0430362 151 102 94
0.0802733 0.162691 -0.0433447 147 87 75
0.077628 0.159666 -0.0459978 140 79 70
0.076339 0.150993 -0.0367481 116 76 66
0.0823267 0.174136 -0.0443156 195 107 94
0.0806773 0.132088 -0.0368169 33 12 8
0.078194 0.155646 -0.030462 132 85 75
0.0667262 0.122021 -0.0349054 92 40 36
0.0814692 0.156166 -0.0344281 173 111 102
0.0797679 0.16462 -0.0337726 183 109 94
0.0857867 0.158098 -0.0364904 149 89 83
0.0761311 0.163192 -0.0312768 169 102 90
0.0854758 0.162935 -0.0246539 159 99 95
0.0836058 0.153324 -0.0333003 122 69 61
0.0752551 0.159977 -0.0328362 188 131 122
0.0850234 0.160145 -0.0380629 157 100 90
0.0842052 0.160027 -0.0262023 157 91 86
0.0871246 0.170248 -0.041099 255 133 111
0.074367 0.149594 -0.048221 83 49 44
0.0746835 0.168 -0.0239632 146 62 53
0.0757562 0.160866 -0.0325861 194 110 88
0.0708912 0.17129 -0.0271577 255 160 150
0.0683241 0.138134 -0.0567546 43 23 21
0.0616302 0.166583 -0.0329969 179 108 100
0.0856968 0.157898 -0.0357473 147 87 78
0.0679226 0.160979 -0.0219862 160 58 51
0.0773652 0.129473 -0.0407252 146 95 86
0.0701451 0.161228 -0.034932 172 109 98
0.0741708 0.175557 -0.0290646 236 135 120
0.0830706 0.157283 -0.0344651 119 64 54
0.0760204 0.175782 -0.0243863 251 115 95
0.0595593 0.164919 -0.0355601 155 78 66
0.0561237 0.161605 -0.0497637 145 89 80
0.0808327 0.169589 -0.0364822 201 121 109
0.0814307 0.151117 -0.0477996 132 86 82
0.0587332 0.160864 -0.037382 164 93 84
0.0637327 0.159859 -0.0329354 145 82 68
0.0576132 0.142229 -0.0463404 89 53 49
0.0815714 0.166215 -0.0443291 219 119 112
0.0830865 0.158891 -0.0359944 165 102 86
0.0787437 0.169982 -0.0261908 255 159 145
0.0560805 0.174719 -0.0336558 253 138 125
0.0660781 0.162099 -0.0329666 152 89 79
0.0579805 0.177792 -0.0308024 163 79 73
0.0751583 0.158233 -0.0553079 182 102 96
0.0688605 0.163518 -0.0551542 177 103 96
0.0572253 0.162184 -0.0392398 133 80 68
0.0588804 0.14658 -0.0485852 68 27 31
0.0640476 0.160635 -0.0341362 135 74 65
0.0756408 0.142125 -0.053355 85 48 51
0.0741198 0.132587 -0.049378 106 44 45
0.0760877 0.142577 -0.0443271 92 50 46
0.0769085 0.16466 -0.0491405 161 94 87
0.0786053 0.160828 -0.0445076 134 82 69
0.0831972 0.151478 -0.0422856 133 66 65
0.0708536 0.134842 -0.0376865 85 63 65
0.0804973 0.16994 -0.0441496 168 98 91
0.0755367 0.140927 -0.0368192 101 55 46
0.0772554 0.13358 -0.04236 100 58 55
0.0809679 0.148076 -0.0416903 110 67 60
0.0819281 0.159693 -0.0446404 134 96 85
0.0884047 0.157138 -0.0412881 95 34 27
0.0792987 0.158976 -0.0420575 121 60 55
0.0831192 0.153866 -0.0275435 120 76 72
0.0830165 0.137833 -0.0421715 115 51 54
0.0790252 0.133924 -0.0429202 77 28 18
0.0853125 0.160601 -0.0339777 17 0 0
0.0747707 0.162673 -0.0314294 133 100 102
0.0784304 0.161049 -0.0280833 171 107 97
0.0810416 0.153822 -0.0340973 192 127 115
0.0844 0.158191 -0.0288549 137 85 80
0.0777739 0.156084 -0.0345914 185 125 118
0.0847001 0.161154 -0.0406114 164 102 92
0.0808205 0.170116 -0.0287142 158 110 101
0.087066 0.165842 -0.0227871 120 63 53
0.089987 0.157844 -0.0343523 153 74 59
0.0743352 0.165686 -0.0302734 144 94 82
0.0728198 0.180194 -0.0286117 255 242 229
0.0753765 0.174181 -0.0280793 255 165 152
0.0716498 0.164273 -0.0551615 164 92 84
0.0649909 0.158338 -0.0543971 144 82 75
0.0665132 0.16312 -0.0549936 149 77 68
0.0585886 0.137469 -0.0534403 95 58 53
0.0548093 0.150211 -0.0263614 185 109 103
0.0741176 0.141707 -0.0501573 81 48 41
0.0828541 0.143835 -0.0510831 43 0 0
0.0641858 0.135608 -0.0400331 105 64 58
0.0833934 0.160791 -0.0427924 169 93 85
0.0647133 0.162753 -0.0307052 180 104 92
0.0844488 0.15713 -0.0418306 130 70 59
0.0779254 0.107875 -0.0359066 56 33 31
0.0818754 0.153538 -0.0316879 134 86 79
0.0811528 0.167018 -0.043546 157 97 85
0.0837323 0.164049 -0.0409399 155 93 87
0.0677118 0.164645 -0.0312661 168 95 82
0.0784144 0.153127 -0.0328942 218 140 114
0.0636286 0.172885 -0.0488026 171 86 73
0.080488 0.156927 -0.0440446 121 63 52
0.0813749 0.165919 -0.0367736 165 106 94
0.0762067 0.165895 -0.0337314 207 124 109
0.0689643 0.166438 -0.0328134 163 103 97
0.0590899 0.160405 -0.0461477 152 96 87
0.0784889 0.16225 -0.0487122 155 98 87
0.0792725 0.154693 -0.0432463 133 75 67
0.0812619 0.154101 -0.0375153 182 115 101
0.0610845 0.15984 -0.0403253 153 85 76
0.0849644 0.161638 -0.0376662 157 106 96
0.0609136 0.167138 -0.0471524 180 107 97
0.0688985 0.173288 -0.0298962 213 136 125
0.0585081 0.168387 -0.0360814 213 115 109
0.0781274 0.140012 -0.043019 77 47 43
0.0738312 0.175452 -0.0253245 247 150 129
0.0636985 0.150949 -0.0386993 107 77 65
0.0837944 0.156815 -0.0360433 142 83 75
0.0820863 0.172302 -0.0473639 204 128 122
0.0672224 0.164851 -0.0346619 129 84 75
0.0602855 0.161622 -0.0348522 158 109 98
0.0844893 0.172508 -0.0447749 233 112 102
0.0586748 0.143951 -0.0482224 95 57 52
0.081265 0.151867 -0.0377547 185 111 101
0.0793132 0.165468 -0.0266736 182 102 90
0.0608673 0.179223 -0.0317881 255 116 101
0.0679717 0.157585 -0.0323133 141 91 86
0.0712318 0.155413 -0.0579701 214 116 108
0.0675742 0.171691 -0.0306193 227 150 139
0.0724937 0.176991 -0.0238458 255 172 143
0.0646294 0.166886 -0.056456 210 113 104
0.0612732 0.171832 -0.0509491 124 73 68
0.056561 0.168917 -0.0407822 177 86 79
0.0650829 0.166468 -0.0508434 165 92 82
0.069979 0.178685 -0.0507714 130 67 62
0.0710528 0.166831 -0.0590663 165 100 95
0.0551746 0.175771 -0.0446264 200 103 94
0.0670415 0.172186 -0.0536243 123 55 50
0.0569135 0.172274 -0.037016 189 82 75
0.0574059 0.164778 -0.0387287 166 109 105
0.0599922 0.160497 -0.0562607 113 51 48
0.0568547 0.158108 -0.0462755 114 75 68
0.0574062 0.161937 -0.045766 116 42 38
0.0654894 0.160257 -0.055326 156 89 78
0.0564974 0.168423 -0.0403003 193 106 100
0.0564054 0.168643 -0.0419675 210 125 116
0.0574219 0.164911 -0.0478105 170 92 85
0.0585792 0.157046 -0.0426199 148 72 66
0.0712642 0.163062 -0.0561244 144 85 79
0.0752084 0.166972 -0.0582833 178 99 95
0.0636851 0.159747 -0.0560412 155 84 77
0.060295 0.171448 -0.0318638 145 69 58
0.0585791 0.157986 -0.0474894 200 104 103
0.057987 0.160748 -0.0488665 156 86 80
0.0641209 0.163386 -0.0510714 163 88 79
0.0736911 0.174546 -0.0524712 112 48 46
0.0694694 0.164929 -0.053408 174 99 89
0.0542652 0.162195 -0.0432725 132 64 57
0.0615523 0.175007 -0.05026 128 45 41
0.0755232 0.164477 -0.0564231 153 97 90
0.0620502 0.165367 -0.0546798 152 79 73
0.0595907 0.168422 -0.0487205 145 79 72
0.0721501 0.166288 -0.053152 158 86 84
0.0629422 0.167172 -0.0471051 199 119 109
0.0712524 0.173271 -0.0523777 119 63 56
0.0767059 0.168522 -0.056577 136 66 59
0.0637049 0.170989 -0.0527762 163 77 68
0.0770856 0.178533 -0.0515865 39 7 0
0.0617805 0.161605 -0.033977 151 102 84
0.0693986 0.161099 -0.0563273 133 72 67
0.0734966 0.172002 -0.0557379 115 40 34
0.0747903 0.164607 -0.0567917 149 78 69
0.0757004 0.171687 -0.0511625 169 102 85
0.0580535 0.167867 -0.0344859 204 130 120
0.0721613 0.167457 -0.0577504 138 67 59
0.056067 0.164918 -0.0457143 127 54 50
0.0612806 0.163072 -0.0430052 162 99 87
0.0585483 0.167943 -0.0325025 239 143 140
0.0669494 0.166284 -0.0312074 182 108 98
0.0608614 0.164353 -0.0333583 186 109 104
0.0608217 0.175582 -0.035304 221 114 104
0.0625358 0.165823 -0.0452289 174 94 85
0.0752745 0.161851 -0.0575698 168 82 82
0.0769285 0.163856 -0.0567262 133 58 50
0.0609023 0.163835 -0.0468742 176 99 88
0.0745003 0.166588 -0.0586817 168 89 82
0.0742342 0.165929 -0.055424 158 91 75
0.0600627 0.168411 -0.0353491 103 37 17
0.0651136 0.158466 -0.0591611 93 0 0
0.0580851 0.17079 -0.0475722 129 46 34
0.0616865 0.161353 -0.0402363 154 92 81
0.0578768 0.165861 -0.0383932 183 118 110
0.0622514 0.167318 -0.0425024 168 111 98
0.0591661 0.170104 -0.0332189 198 87 81
0.0758888 0.156664 -0.0535365 160 97 88
0.0744086 0.158893 -0.0547851 116 48 41
0.0732319 0.166779 -0.0560721 151 78 71
0.070288 0.176041 -0.0511175 148 79 71
0.0762905 0.163112 -0.0552454 145 77 71
0.0644248 0.16098 -0.0376721 182 115 104
0.0751192 0.159199 -0.0553549 122 71 61
0.0633873 0.162766 -0.0289604 120 78 61
0.0781138 0.165114 -0.0555944 143 72 64
0.0615088 0.162553 -0.0420106 165 89 81
0.0723037 0.163567 -0.0563684 151 92 88
0.0697522 0.162154 -0.0580336 79 30 29
0.0569045 0.169706 -0.0396251 191 102 97
0.058214 0.16426 -0.0497654 115 28 11
0.0578074 0.169832 -0.036012 204 108 99
0.0787447 0.161153 -0.054637 157 85 78
0.059554 0.171503 -0.0346105 224 114 106
0.060313 0.17053 -0.0374271 180 113 99
0.0754259 0.159166 -0.0561067 143 75 69
0.0773524 0.16317 -0.0556781 169 99 93
0.0681363 0.164508 -0.0357588 183 117 108
0.0793285 0.166064 -0.0513782 128 72 71
0.0712605 0.173571 -0.0303022 242 152 143
0.0624752 0.167359 -0.0456114 184 102 95
0.0552048 0.174424 -0.035112 216 169 149
0.0782168 0.160643 -0.0492381 153 95 81
0.0786023 0.171625 -0.0551932 92 35 31
0.06495 0.160965 -0.0371816 149 82 73
0.0774223 0.171414 -0.0496438 148 62 56
0.0773779 0.164054 -0.0502807 115 74 62
0.0780504 0.160179 -0.0534761 129 62 56
0.074786 0.159742 -0.0502111 106 65 63
0.0800406 0.166309 -0.0479451 139 79 70
0.0785686 0.167747 -0.0553684 149 92 83
0.0621372 0.162925 -0.0318261 161 87 76
0.079687 0.165164 -0.0548577 129 51 46
0.0630149 0.169625 -0.0292269 160 89 73
0.0625542 0.163759 -0.0315598 171 100 89
0.0797169 0.164652 -0.0521161 72 14 9
0.0700481 0.174435 -0.029786 255 181 169
0.0655205 0.157626 -0.0363568 177 128 120
0.0608686 0.171841 -0.0316858 138 64 50
0.0866637 0.157789 -0.0530566 180 88 77
0.0788861 0.162355 -0.0491822 152 110 105
0.0811308 0.156657 -0.052281 116 63 55
0.0665402 0.167349 -0.0325071 177 102 96
0.0628015 0.159612 -0.036872 130 63 58
0.0672381 0.165209 -0.0309221 180 108 97
0.0770024 0.161109 -0.0523215 134 79 70
0.075783 0.148346 -0.0471932 79 40 34
0.0598549 0.167445 -0.0317377 139 70 62
0.0798018 0.162204 -0.0446346 138 83 75
0.0801798 0.167043 -0.0526477 118 44 38
0.0623442 0.166022 -0.0331507 116 53 47
0.0809731 0.162048 -0.0449337 130 85 79
0.0802907 0.162511 -0.0508547 118 65 57
0.0806509 0.153872 -0.0495758 117 59 53
0.0795408 0.160262 -0.0484173 131 69 67
0.0601494 0.162342 -0.0353304 151 90 78
0.0816971 0.17202 -0.0468541 85 36 34
0.0740554 0.161391 -0.0581709 149 81 74
0.0756884 0.135423 -0.0421829 43 35 32
0.0596128 0.162416 -0.0342302 82 0 0
0.0728531 0.171907 -0.030717 214 132 123
0.0804944 0.154558 -0.0434686 158 88 78
0.0828585 0.167913 -0.0512401 150 75 65
0.0660909 0.173849 -0.0292469 136 62 54
0.0833268 0.160298 -0.0433168 110 16 7
0.0606519 0.170353 -0.0309933 104 36 18
0.0792623 0.159181 -0.0433582 131 69 59
0.0784862 0.164216 -0.0442745 124 65 55
0.0812982 0.164012 -0.0453596 150 83 74
0.0819564 0.170604 -0.0437103 100 26 18
0.0702893 0.168513 -0.0328223 60 9 0
0.0659428 0.16754 -0.0313141 186 112 101
0.0698106 0.169861 -0.0308833 212 133 124
0.0710559 0.169923 -0.0311962 179 137 123
0.0821234 0.160821 -0.0425638 137 67 57
0.0629703 0.169492 -0.0265188 156 70 60
0.0699217 0.169435 -0.0309302 56 0 0
0.0664164 0.16885 -0.0328523 171 98 87
0.0668585 0.173928 -0.0290838 134 52 40
0.0635713 0.161093 -0.0342585 165 102 90
0.0675843 0.169889 -0.0301361 202 133 128
0.0607236 0.165868 -0.0336177 162 93 85
0.0781398 0.157378 -0.0457257 90 15 9
0.0645316 0.172652 -0.0281896 159 56 42
0.0663407 0.165099 -0.0312101 125 73 59
0.0741274 0.171051 -0.0363278 77 45 37
0.0748115 0.13432 -0.0384354 101 63 56
0.0597272 0.175917 -0.0305365 175 80 77
0.0676738 0.169329 -0.0307896 207 129 116
0.0709003 0.162911 -0.0354241 173 103 93
0.0601305 0.175579 -0.0300728 187 121 117
0.0680712 0.167937 -0.0322267 104 42 24
0.0661154 0.167524 -0.0304532 189 114 106
0.0687358 0.168338 -0.032731 188 114 104
0.0781487 0.158745 -0.029382 106 67 60
0.0740001 0.165067 -0.0311412 153 102 106
0.0771589 0.158792 -0.0296625 142 85 80
0.0763835 0.150066 -0.0380316 102 64 57
0.0847936 0.157842 -0.042956 102 45 39
0.0623745 0.157294 -0.0343683 142 94 77
0.0661195 0.163225 -0.0303217 195 128 120
0.0776746 0.155688 -0.0302559 133 86 79
0.0721515 0.174436 -0.0302984 255 160 148
0.0827355 0.16426 -0.0420299 205 131 118
0.0817888 0.154052 -0.0304742 135 75 67
0.0771808 0.154359 -0.0378168 67 41 28
0.0869546 0.149761 -0.0425935 117 66 54
0.0853458 0.162011 -0.0385792 158 86 80
0.0790024 0.157612 -0.0274099 139 85 69
0.0830501 0.1574 -0.0420574 131 72 61
0.0701206 0.17037 -0.0260622 154 48 41
0.0691113 0.177101 -0.0294474 99 46 36
0.0852087 0.161819 -0.035228 96 42 40
0.0792755 0.15734 -0.0335204 255 186 166
0.0829846 0.153239 -0.0293934 90 44 32
0.0826677 0.17875 -0.0436857 222 84 78
0.0707952 0.171374 -0.0312633 186 114 98
0.0638717 0.169779 -0.0292236 161 84 72
0.0692858 0.170524 -0.0309767 209 133 122
0.066481 0.159668 -0.0341291 140 95 92
0.0794525 0.160825 -0.0323887 151 86 74
0.0696695 0.170768 -0.0328507 197 128 122
0.0822619 0.153367 -0.0353814 177 113 99
0.0826262 0.16741 -0.0450911 156 86 80
0.0815257 0.168234 -0.0450906 202 120 112
0.0704252 0.171795 -0.0306752 128 55 46
0.0785539 0.179028 -0.0346292 255 161 145
0.0759743 0.157987 -0.0294763 175 117 117
0.0748813 0.163323 -0.030459 155 93 90
0.0800576 0.160576 -0.0264752 171 114 104
0.0814604 0.152453 -0.0303909 123 82 73
0.0713687 0.174373 -0.0301816 255 194 181
0.0834582 0.157048 -0.0382115 181 111 96
0.0801567 0.146284 -0.0344906 145 89 78
0.0686804 0.174487 -0.0273188 255 171 159
0.0738653 0.168456 -0.0298435 210 125 119
0.0803426 0.16193 -0.0370411 190 117 107
0.0728853 0.164675 -0.0342315 200 136 123
0.0762931 0.160603 -0.0321829 198 133 125
0.082227 0.180662 -0.0436606 255 174 154
0.0750129 0.164573 -0.028561 31 0 0
0.0714708 0.175764 -0.0299618 255 183 165
0.0769771 0.165281 -0.030321 164 100 89
0.0715269 0.174411 -0.0271176 170 24 20
0.0744617 0.164598 -0.028627 181 114 107
0.0708208 0.173265 -0.0302389 238 150 141
0.0813012 0.157164 -0.0377782 188 120 112
0.0792891 0.161267 -0.0333857 163 81 58
0.0789011 0.165171 -0.029147 141 84 74
0.0728751 0.163603 -0.0341427 209 142 132
0.0799589 0.165144 -0.0334093 189 131 120
0.0802939 0.162102 -0.032532 153 95 85
0.0787349 0.163478 -0.0312657 171 136 133
0.0787237 0.158523 -0.0343455 185 82 67
0.0778851 0.165132 -0.0290348 159 102 94
0.0811301 0.155773 -0.0361459 172 103 90
0.0785156 0.156194 -0.0311221 183 110 96
0.0861658 0.14509 -0.0346501 103 52 41
0.084026 0.161957 -0.0321282 137 79 78
0.085234 0.160047 -0.0414383 178 87 73
0.0833444 0.166679 -0.0299112 132 76 70
0.08153 0.160636 -0.0358511 156 92 83
0.0839951 0.16212 -0.0339155 129 72 65
0.075636 0.173494 -0.0275675 231 137 130
0.0778905 0.166172 -0.0277476 166 124 113
0.081392 0.150844 -0.0310323 153 105 91
0.0841457 0.153541 -0.0380217 148 82 71
0.0722616 0.175439 -0.0277697 255 182 168
0.0746063 0.171057 -0.0294753 212 134 122
0.0840884 0.151246 -0.0281933 108 62 54
0.0835871 0.167649 -0.0428182 201 112 99
0.0819953 0.160765 -0.0290071 137 89 81
0.0838938 0.154868 -0.0285014 112 64 57
0.0791213 0.156914 -0.0294221 146 92 88
0.0910289 0.164892 -0.0337803 133 34 34
0.0780975 0.16586 -0.0284824 74 12 0
0.0847768 0.155226 -0.0294207 112 67 60
0.081163 0.158982 -0.0342556 164 101 89
0.0768402 0.163682 -0.0274336 143 90 88
0.0852145 0.170078 -0.0276221 115 62 47
0.084789 0.168725 -0.0381359 169 95 88
0.0868728 0.16009 -0.0245202 163 95 88
0.0845049 0.162856 -0.0385628 210 137 117
0.0769659 0.160528 -0.0332466 253 157 146
0.0811733 0.152563 -0.035871 210 127 107
0.0833936 0.167141 -0.0281996 166 102 92
0.0848148 0.158158 -0.0295863 79 35 32
0.0775595 0.162952 -0.0286464 151 102 95
0.0718884 0.171485 -0.0318189 194 135 137
0.0866526 0.159866 -0.0359072 120 63 51
0.0858717 0.171287 -0.0336299 175 93 84
0.0740194 0.184529 -0.0268621 255 255 255
0.0778449 0.167103 -0.0285155 184 112 93
0.0743725 0.172492 -0.0287265 255 190 182
0.0823775 0.167285 -0.0424008 152 82 76
0.075358 0.156944 -0.0316411 193 123 112
0.0865215 0.162479 -0.0279902 167 94 84
0.0704041 0.171493 -0.0309321 206 116 103
0.0728806 0.173034 -0.0300756 231 132 124
0.0814858 0.156672 -0.0369078 179 112 96
0.0809814 0.167352 -0.0272329 129 71 56
0.0848716 0.160433 -0.0289636 123 75 66
0.0850503 0.154969 -0.034552 150 90 82
0.0825213 0.169512 -0.0269882 150 70 57
0.0721051 0.174104 -0.0277959 255 163 152
0.0865699 0.169798 -0.0287455 185 98 91
0.085565 0.155509 -0.034098 129 69 67
0.0762303 0.162736 -0.0277319 147 90 88
0.0905071 0.161414 -0.0319364 164 113 113
0.0848054 0.160337 -0.0387009 151 95 87
0.0757838 0.162659 -0.0292608 184 93 88
0.081212 0.159214 -0.0380676 160 96 86
0.0877144 0.158413 -0.0345843 120 52 41
0.0780967 0.158077 -0.0277149 179 111 100
0.0865958 0.177467 -0.0301572 247 157 131
0.0815143 0.176994 -0.02428 194 53 15
0.090376 0.174333 -0.0354989 219 136 120
0.0900428 0.161574 -0.0301889 161 97 85
0.0677459 0.167509 -0.0563058 158 84 74
0.0639046 0.172871 -0.0410516 183 125 117
0.0566202 0.167959 -0.0386876 222 128 119
0.0609558 0.160799 -0.0411879 161 89 80
0.0652688 0.160878 -0.056822 190 114 106
0.057324 0.163936 -0.0401275 152 16 21
0.0747453 0.154367 -0.0567043 241 117 121
0.0694474 0.167428 -0.053913 177 113 102
0.0575448 0.161366 -0.0458877 148 84 75
0.0614233 0.161531 -0.0488781 168 87 74
0.0598903 0.154276 -0.0503089 58 27 26
0.0744285 0.16115 -0.0579481 156 70 73
0.0598335 0.157368 -0.0522244 131 45 41
0.0740108 0.155645 -0.0561143 169 98 93
0.0564752 0.138386 -0.0502573 111 76 65
0.0593265 0.146934 -0.0397012 123 76 69
0.0612915 0.163091 -0.0431823 165 96 85
0.0748001 0.155741 -0.0557652 62 0 0
0.0693611 0.166858 -0.0316039 182 87 72
0.0768549 0.16086 -0.054637 142 90 79
0.0664042 0.147207 -0.0432427 3 9 10
0.0655771 0.163683 -0.0310465 157 85 73
0.0526687 0.166136 -0.0332814 177 93 86
0.0634877 0.151354 -0.0397285 90 50 47
0.0770214 0.138603 -0.0419185 77 46 43
0.0742908 0.14189 -0.0509408 97 54 47
0.0745786 0.142867 -0.0517203 108 54 48
0.0828697 0.156213 -0.0578865 138 70 62
0.0765654 0.145615 -0.0451687 81 36 29
0.0638719 0.151337 -0.0394651 120 68 62
0.079443 0.152885 -0.0430875 119 72 63
0.062451 0.128967 -0.0425301 74 47 44
0.063349 0.143355 -0.0384424 101 67 60
0.0760895 0.163887 -0.0503315 155 96 89
0.0698024 0.138896 -0.0464645 48 34 31
0.0776528 0.160383 -0.0539223 114 50 42
0.0785382 0.165953 -0.04937 165 118 110
0.0782035 0.148836 -0.051924 159 98 90
0.0776267 0.156369 -0.0392814 74 41 37
0.0780495 0.155674 -0.048351 141 79 71
0.079836 0.153288 -0.042677 137 85 76
0.0769392 0.139644 -0.0429566 99 52 47
0.0788229 0.15094 -0.0311612 114 34 23
0.0815156 0.168101 -0.0430316 187 111 100
0.0810598 0.153231 -0.0436343 146 69 53
0.0813263 0.158591 -0.0419228 146 89 81
0.0712293 0.149949 -0.0350621 54 0 0
0.0763995 0.148989 -0.0371959 100 66 58
0.0838059 0.133 -0.0434683 97 45 35
0.0876607 0.152832 -0.0316348 82 37 29
0.078137 0.133241 -0.0429782 95 38 35
0.0771772 0.138539 -0.0404435 60 34 30
0.0825853 0.151611 -0.0303182 127 76 72
0.073566 0.167561 -0.0348821 177 102 91
0.078855 0.163823 -0.0352301 193 114 102
0.0797951 0.165287 -0.0365904 176 105 94
0.0837736 0.158592 -0.0288786 150 89 82
0.0786623 0.156031 -0.0332913 235 147 131
0.0788247 0.163539 -0.0341227 222 139 126
0.0848138 0.16939 -0.0334647 163 102 89
0.0740865 0.167949 -0.0287152 205 119 106
0.0745079 0.16247 -0.02439 162 107 92
0.077758 0.161339 -0.0316609 217 125 107
0.0782373 0.159105 -0.0291147 145 89 80
0.0866857 0.181444 -0.0290031 174 88 77
0.0803473 0.161252 -0.0268772 148 90 80
0.0848925 0.174971 -0.0411182 255 139 122
0.0728348 0.181744 -0.0275379 255 255 255
0.0751642 0.175243 -0.0286982 255 181 168
0.0569931 0.169847 -0.0441642 173 98 88
0.0557065 0.170699 -0.0352296 238 112 99
0.0541067 0.168887 -0.0387148 255 147 133
0.0720924 0.163755 -0.0538344 164 94 82
0.0606573 0.159689 -0.042986 159 94 85
0.0622094 0.163274 -0.0538395 123 65 58
0.0594957 0.155194 -0.0461463 162 118 109
0.0549962 0.16977 -0.0377811 116 0 0
0.0731262 0.166954 -0.0527232 148 81 74
0.0507663 0.159655 -0.0409077 199 68 80
0.0581769 0.144102 -0.0443425 77 41 36
0.0647086 0.16174 -0.0499957 105 75 65
0.0606265 0.162977 -0.0428101 154 90 81
0.057227 0.147958 -0.0499446 92 52 38
0.0603718 0.158305 -0.0446098 148 92 84
0.0627331 0.167713 -0.0413595 165 103 98
0.0774683 0.1628 -0.0497585 150 95 83
0.0638659 0.160221 -0.0377066 152 83 73
0.0782704 0.151638 -0.0581809 152 64 57
0.0742868 0.152484 -0.0535575 109 35 31
0.0747466 0.138971 -0.0486408 116 57 49
0.077714 0.15602 -0.0485959 155 87 80
0.0772779 0.156658 -0.0476061 127 69 61
0.0825594 0.167825 -0.0429638 185 102 90
0.0667198 0.165159 -0.0303292 181 102 90
0.0793334 0.152573 -0.0433185 116 70 62
0.0858594 0.15782 -0.0409053 179 99 89
0.0772456 0.117039 -0.040601 127 79 69
0.0635208 0.164592 -0.0275768 188 111 99
0.0783008 0.161663 -0.0331209 234 151 138
0.0869381 0.155945 -0.0390865 142 83 78
0.0744637 0.159499 -0.0327473 215 137 120
0.0835292 0.175281 -0.0409551 79 26 6
0.0817098 0.14859 -0.0380852 183 109 95
0.0755195 0.167385 -0.0299596 164 105 99
0.084969 0.154535 -0.0361838 143 80 69
0.084683 0.158596 -0.0373978 130 84 83
0.0844837 0.178572 -0.0342036 168 127 116
0.0905345 0.162207 -0.0325496 165 99 93
0.0759021 0.168286 -0.0286948 191 109 98
0.0864511 0.173538 -0.041605 241 175 158
0.076894 0.156236 -0.0210879 164 105 91
0.0658503 0.180185 -0.0470035 200 121 108
0.0806161 0.155603 -0.0418752 148 85 79
0.0736808 0.168851 -0.0311743 173 130 123
0.0831503 0.153559 -0.0441907 183 96 93
0.0812988 0.161467 -0.0377843 179 108 93
0.0804087 0.167707 -0.0375789 158 86 83
0.0752833 0.170179 -0.0293482 197 120 108
0.0766995 0.16323 -0.0314639 181 109 93
0.0674043 0.17496 -0.0274111 255 155 136
0.0784176 0.161585 -0.0472438 126 76 66
0.0613575 0.171443 -0.0333572 146 57 47
0.0841725 0.160825 -0.0396379 165 104 95
0.0612913 0.166712 -0.0312772 194 111 100
0.0750171 0.142748 -0.0460367 83 53 47
0.0853695 0.16 -0.0357214 138 81 76
0.0615008 0.171442 -0.0317471 188 89 82
0.0632504 0.168912 -0.0452562 165 82 69
0.0867228 0.158795 -0.0278894 129 77 67
0.0688774 0.170784 -0.0306881 202 124 111
0.0702511 0.165051 -0.053654 153 78 72
0.0580564 0.167163 -0.0350762 196 139 131
0.075101 0.172593 -0.0280926 230 160 148
0.0632093 0.162785 -0.0378536 154 87 78
0.0802864 0.16391 -0.0397169 125 66 55
0.0741143 0.180771 -0.0298064 248 178 165
0.0727049 0.165042 -0.0533567 168 95 86
0.0675525 0.149137 -0.0596135 49 29 22
0.0654341 0.159675 -0.035031 197 110 98
0.0670765 0.145794 -0.0389767 65 77 78
0.0743461 0.144515 -0.0481454 81 47 44
0.08848 0.152722 -0.0333728 133 74 65
0.0723286 0.176115 -0.0300361 248 155 143
0.0692824 0.147035 -0.0374757 114 85 78
0.0788493 0.159125 -0.0437378 146 81 74
0.0588726 0.162897 -0.0501706 157 88 78
0.0794277 0.166433 -0.0415944 158 105 96
0.0735204 0.169731 -0.0266408 164 100 88
0.0750694 0.139736 -0.0364205 100 58 50
0.0624472 0.160776 -0.0354352 152 90 83
0.0602094 0.143709 -0.0479208 42 55 55
0.081642 0.165402 -0.0448956 188 104 90
0.080832 0.157316 -0.0360254 172 106 91
0.0600554 0.179089 -0.033192 255 113 105
0.0687007 0.162697 -0.0340235 148 92 84
0.0740339 0.158877 -0.055332 182 111 100
0.0689937 0.176265 -0.0303497 233 157 142
0.0633021 0.149798 -0.039819 86 65 57
0.0770705 0.171598 -0.0264725 239 164 147
0.0726379 0.180648 -0.0311242 157 79 64
0.0675263 0.164185 -0.0581136 142 72 66
0.059919 0.155964 -0.0419112 134 82 76
0.0634044 0.162467 -0.0552645 164 94 85
0.0593118 0.171123 -0.0375849 111 17 3
0.0704235 0.163988 -0.0537945 185 103 93
0.0654094 0.158239 -0.0540976 35 0 0
0.058427 0.14614 -0.0507303 95 51 45
0.0577461 0.159916 -0.0420555 165 101 99
0.0592091 0.161364 -0.0460136 169 96 87
0.072957 0.157479 -0.0548072 43 2 0
0.0583852 0.165226 -0.0386498 135 79 67
0.0580952 0.1606 -0.0389224 167 86 79
0.0587197 0.150653 -0.041179 133 82 76
0.0777783 0.159001 -0.0536354 126 66 57
0.0741045 0.154364 -0.0509152 63 49 46
0.073672 0.144933 -0.0538248 104 49 46
0.0735849 0.144454 -0.05296 102 61 56
0.0759312 0.156571 -0.0551294 185 95 92
0.0616197 0.153864 -0.041426 105 69 65
0.059438 0.153076 -0.0434329 69 53 50
0.0791669 0.147696 -0.0502853 125 63 54
0.0652212 0.159403 -0.0397245 115 79 75
0.0813229 0.145631 -0.052333 116 60 58
0.0811905 0.159986 -0.0462372 130 79 74
0.0778588 0.155802 -0.0446553 136 78 71
0.0824867 0.170469 -0.0452723 236 137 126
0.072549 0.154336 -0.0373568 101 58 58
0.0756414 0.146694 -0.0370975 116 72 64
0.0880358 0.165662 -0.0411019 176 79 67
0.0823891 0.164011 -0.0431985 206 124 112
0.08025 0.157445 -0.0423312 122 55 45
0.0810755 0.152766 -0.0409428 144 92 81
0.0763192 0.148148 -0.0324076 43 0 0
0.0757867 0.143257 -0.0370754 120 78 71
0.0735464 0.150491 -0.0339465 177 126 117
0.0843381 0.155593 -0.0366328 60 0 0
0.0811852 0.162827 -0.0453414 152 89 77
0.0791605 0.158149 -0.0314261 165 97 84
0.0810265 0.153169 -0.0413989 153 97 88
0.0807385 0.168793 -0.0283043 181 106 97
0.081321 0.15022 -0.0372001 181 107 96
0.0859572 0.155587 -0.03495 141 84 81
0.0836579 0.163562 -0.0359915 149 84 80
0.0830539 0.158217 -0.0296859 156 100 88
0.078304 0.164666 -0.0265494 133 84 73
0.0811827 0.173763 -0.0283678 121 74 64
0.0759186 0.169497 -0.0235124 160 62 56
0.073517 0.18064 -0.0286404 255 235 221
0.0776432 0.174813 -0.0280987 255 175 162
0.0872634 0.176088 -0.0216366 237 125 112
0.0840311 0.169704 -0.040886 192 104 91
0.0511038 0.163774 -0.0416146 255 118 109
0.0530242 0.171032 -0.0352666 243 162 155
0.0571457 0.159087 -0.0440387 156 82 74
0.0587154 0.159876 -0.0423677 135 73 68
0.0572652 0.163645 -0.0330487 213 128 115
0.0741428 0.16472 -0.0533323 124 44 43
0.0634583 0.169865 -0.0338075 172 92 84
0.0597224 0.153403 -0.0262399 223 133 124
0.0745947 0.153499 -0.0498702 75 35 27
0.0794103 0.159752 -0.0440519 133 80 68
0.0670537 0.148532 -0.0359905 149 102 93
0.0650427 0.144591 -0.0395873 119 66 57
0.0639991 0.165267 -0.0309937 185 113 102
0.0785308 0.159286 -0.0455517 179 108 100
0.0813878 0.165829 -0.043391 160 103 94
0.0813944 0.149183 -0.0395737 123 80 70
0.0822454 0.165984 -0.0450781 195 116 105
0.0840962 0.158218 -0.0433728 155 81 68
0.0802587 0.160017 -0.0425955 132 81 75
0.0776987 0.160683 -0.0336927 218 128 112
0.0825279 0.177744 -0.0443716 178 72 62
0.0809458 0.153061 -0.0349252 147 98 79
0.0762877 0.179325 -0.0251245 255 140 125
0.0887969 0.167106 -0.0339771 160 61 52
0.0639418 0.172447 -0.0465371 164 84 72
0.0736473 0.159629 -0.0325526 187 117 103
0.0782736 0.164233 -0.0446055 132 74 65
0.0813471 0.166486 -0.0456618 207 114 114
0.0852703 0.17819 -0.023382 184 99 88
0.0673281 0.163509 -0.0356721 167 100 85
0.0866688 0.171474 -0.0419165 255 161 138
0.0852152 0.15869 -0.0384535 159 97 90
0.0588963 0.142322 -0.0522823 86 49 43
0.0682878 0.164253 -0.0314242 172 93 80
0.0829487 0.177027 -0.0462607 255 149 127
0.0732627 0.16976 -0.0313713 199 132 130
0.074999 0.173819 -0.0283582 252 159 145
0.0753689 0.177881 -0.026801 255 188 169
0.0694658 0.155062 -0.0342175 159 98 86
0.068702 0.161922 -0.0552473 176 97 88
0.0695155 0.16338 -0.0338712 178 120 105
0.0680176 0.15128 -0.0365937 145 89 82
0.0630825 0.156328 -0.040854 91 54 50
0.0813964 0.157173 -0.040932 139 79 68
0.0732844 0.173221 -0.0299309 235 150 141
0.0678521 0.164557 -0.0343007 157 97 87
0.0603665 0.16824 -0.0387738 165 115 106
0.0860491 0.164459 -0.0482578 242 142 131
0.0732743 0.172674 -0.0328112 188 105 91
0.0749971 0.138685 -0.0368484 101 61 53
0.0867873 0.169831 -0.0416038 218 101 92
0.0801754 0.154929 -0.0354501 213 140 127
0.0666393 0.17352 -0.0312917 197 114 104
0.0729183 0.167129 -0.0334569 183 118 111
0.0822012 0.169231 -0.0591827 255 184 171
0.0588944 0.16441 -0.0492434 154 85 75
0.0625696 0.157148 -0.0374591 182 113 102
0.0575431 0.165365 -0.0471161 157 85 76
0.0571972 0.170016 -0.0465848 144 76 63
0.0570877 0.168918 -0.0476993 148 40 37
0.0569295 0.160719 -0.0439642 156 103 95
0.0525272 0.171308 -0.0418281 181 130 120
0.0568699 0.165656 -0.0362294 124 71 55
0.0684552 0.176086 -0.0519664 112 35 29
0.0529873 0.168947 -0.0368147 193 102 95
0.0635601 0.178963 -0.04715 108 53 46
0.0641041 0.176736 -0.0491231 97 34 26
0.0709733 0.163536 -0.0588208 98 26 20
0.0569456 0.161948 -0.044109 141 91 84
0.0764212 0.162543 -0.0562438 109 36 31
0.0577236 0.168848 -0.0432683 147 78 72
0.0552504 0.16483 -0.0429113 168 90 86
0.0557382 0.168092 -0.0432599 145 45 42
0.0567449 0.164197 -0.0449329 106 33 23
0.0581432 0.171721 -0.0466696 116 53 48
0.0648755 0.159365 -0.0336763 146 94 80
0.0568419 0.165858 -0.0406628 160 75 73
0.0594329 0.167773 -0.0456496 113 45 30
0.0604648 0.162921 -0.05239 126 75 68
0.0598314 0.161166 -0.04964 151 49 44
0.0544709 0.168102 -0.0384663 181 33 27
0.053322 0.166513 -0.0380339 207 116 104
0.0592921 0.169906 -0.0512806 140 66 61
0.072106 0.163992 -0.0583652 79 31 21
0.0722264 0.17056 -0.0570304 121 44 41
0.0600976 0.16547 -0.0499083 169 98 94
0.0528505 0.176721 -0.048958 145 93 85
0.0589823 0.16444 -0.0439044 176 96 81
0.0571033 0.167028 -0.0416274 163 82 72
0.0789219 0.160153 -0.0536129 140 80 69
0.080173 0.164827 -0.055933 142 65 59
0.0555036 0.165982 -0.0487516 149 76 69
0.0583149 0.163842 -0.0370132 193 122 115
0.0649499 0.167376 -0.055225 156 91 84
0.0748087 0.171849 -0.0557498 114 42 34
0.0576478 0.161167 -0.0465683 151 85 75
0.056136 0.165366 -0.0443939 152 79 70
0.0631323 0.167188 -0.0486182 156 81 72
