ply
format ascii 1.0
comment Created by Open3D
element vertex 1160
property double x
property double y
property double z
property uchar red
property uchar green
property uchar blue
end_header
0.0711549 0.015469 -0.0543194 136 110 98
0.0684805 0.0127258 -0.063854 184 131 128
0.0685218 0.035135 -0.0712829 182 129 106
0.0788096 0.032198 -0.10422 255 236 210
0.0759063 0.0240269 -0.0699186 49 0 0
0.0793437 0.0205862 -0.0697648 255 255 255
0.0742987 0.0256996 -0.071482 63 0 0
0.0849691 0.0357071 -0.0923917 203 111 85
0.0729977 0.00723142 -0.0842597 255 189 199
0.061719 0.0263953 -0.0430329 0 0 0
0.0700498 0.00774133 -0.0817953 255 255 255
0.0842253 0.029528 -0.0938461 255 255 255
0.0766133 0.0278475 -0.0710867 255 0 0
0.0766752 0.0304656 -0.0826688 156 0 0
0.0827138 0.0259189 -0.094242 255 144 136
0.0770553 0.022822 -0.0764169 232 127 121
0.0805137 0.0285516 -0.103396 233 194 179
0.0767816 0.0240231 -0.0681984 125 14 0
0.063513 0.0200664 -0.0914292 139 51 42
0.0715746 0.0160254 -0.0615744 104 44 44
0.0809137 0.0288362 -0.103073 253 255 215
0.0804532 0.0372488 -0.0923454 180 123 114
0.0754452 0.0249463 -0.0728213 236 132 124
0.0786746 0.0297788 -0.0822594 142 0 0
0.0604395 0.0140415 -0.0641346 125 70 64
0.0851958 0.0284342 -0.0958622 153 108 102
0.0741587 0.025012 -0.0697466 247 181 156
0.0790789 0.0200685 -0.0727312 255 0 0
0.0690856 0.0100709 -0.0807688 255 255 255
0.0791167 0.0369874 -0.100473 248 247 235
0.0713693 0.0175755 -0.063776 116 64 61
0.0776037 0.0259484 -0.0754841 255 203 158
0.0802548 0.0323953 -0.103422 255 251 224
0.0755318 0.0291768 -0.0842883 30 0 0
0.0763841 0.0235906 -0.0698338 255 236 228
0.0775784 0.0186612 -0.099589 247 134 129
0.0760829 0.0321458 -0.0876189 0 0 0
0.0779175 0.0221602 -0.0808702 193 78 80
0.0782114 0.037011 -0.102012 246 239 223
0.0784947 0.0290119 -0.0690018 211 255 255
0.0642521 0.0182159 -0.0787124 122 69 63
0.073705 0.0210317 -0.0565234 72 20 0
0.0700752 0.0365548 -0.0794195 255 172 164
0.0636237 0.0158454 -0.0879711 159 79 67
0.078108 0.0183963 -0.0753582 255 220 216
0.0830359 0.034581 -0.0961765 116 255 0
0.0846799 0.0269532 -0.0969984 246 214 0
0.0773139 0.0200146 -0.0683532 215 108 100
0.0739158 0.017834 -0.0690391 176 121 113
0.0744294 0.0146794 -0.070757 91 22 21
0.0808519 0.0262423 -0.103044 255 125 99
0.0814759 0.0288603 -0.103792 203 54 36
0.0799647 0.0155622 -0.0892503 95 0 0
0.0761567 0.0201707 -0.0795544 72 14 5
0.0686693 0.0105955 -0.0645707 71 33 34
0.0690148 0.0342478 -0.0759265 244 135 137
0.0801119 0.030832 -0.103882 255 255 247
0.072059 0.0342592 -0.0922697 255 183 167
0.0806637 0.0277863 -0.102406 255 255 255
0.0825403 0.0356899 -0.0939192 141 161 146
0.0780838 0.0302314 -0.102131 255 234 209
0.0854569 0.0226404 -0.0824616 81 0 0
0.0851131 0.0315312 -0.0957505 241 230 108
0.070443 0.00701286 -0.0701892 73 16 14
0.0820407 0.0202638 -0.102863 186 59 53
0.0698472 0.00914751 -0.0733769 86 36 34
0.08143 0.0182223 -0.0829364 100 0 0
0.0784171 0.0299657 -0.106545 255 255 255
0.078765 0.0302971 -0.105186 242 255 255
0.0790048 0.0321895 -0.105622 249 255 255
0.079343 0.0351291 -0.104503 255 255 255
0.0802254 0.0326223 -0.105376 255 255 255
0.0795028 0.0335687 -0.104989 252 188 164
0.0802901 0.0355327 -0.103686 255 219 196
0.0756923 0.0302963 -0.0856369 237 91 80
0.0783188 0.0289381 -0.106424 255 255 255
0.0764058 0.0213554 -0.100907 240 125 116
0.0792846 0.0326305 -0.10538 255 150 131
0.0805033 0.0363274 -0.103675 244 255 255
0.07911 0.031504 -0.106008 255 255 255
0.0791841 0.0306102 -0.104475 255 255 225
0.0809783 0.0366382 -0.0983434 255 233 214
0.0628801 0.0133069 -0.0814907 196 123 117
0.0733439 0.00937498 -0.0798168 255 255 255
0.0718198 0.0298245 -0.072479 65 40 36
0.0796494 0.0294946 -0.0862701 64 5 0
0.0787579 0.0258143 -0.103488 255 255 255
0.0803792 0.0316291 -0.102075 255 255 255
0.0813528 0.0248076 -0.101201 255 0 0
0.0812213 0.0339206 -0.0978971 50 0 255
0.0801073 0.0335546 -0.104189 255 255 234
0.0787798 0.0367242 -0.10278 244 245 228
0.0784521 0.0372866 -0.101845 252 248 253
0.0789308 0.0192776 -0.0885474 202 85 81
0.0824897 0.0251496 -0.103696 213 60 53
0.0688811 0.0355189 -0.080203 188 95 86
0.0800463 0.0328015 -0.104441 255 239 217
0.0824067 0.0237483 -0.105609 199 23 23
0.0861686 0.0327224 -0.0950369 247 50 1
0.0679011 0.0112403 -0.0657795 116 32 27
0.0707271 0.0335985 -0.0830752 90 4 0
0.085229 0.0239145 -0.0969656 250 0 0
0.0868026 0.0361237 -0.0907168 216 54 87
0.0766221 0.0369933 -0.091625 141 74 66
0.0757195 0.0378977 -0.0808891 179 84 78
0.0683026 0.0236768 -0.0473828 45 23 23
0.0642331 0.0276831 -0.0377724 13 0 0
0.0703043 0.0222518 -0.0457709 30 29 26
0.0642655 0.00627597 -0.0824672 255 135 127
0.0841236 0.0310956 -0.0984477 248 255 255
0.0818649 0.0344267 -0.100717 255 179 158
0.0826014 0.0318814 -0.0989795 226 0 0
0.0827879 0.0356454 -0.0950771 173 201 179
0.0853487 0.029177 -0.0935906 0 0 49
0.0846957 0.0352407 -0.0867364 255 255 255
0.0884135 0.0219031 -0.0980358 0 255 0
0.0829739 0.0340334 -0.104846 0 113 192
0.0803802 0.0317545 -0.10225 249 130 104
0.0874351 0.0315407 -0.0927064 199 255 243
0.0594007 0.0136418 -0.0656595 27 70 52
0.075711 0.0368195 -0.089252 147 69 62
0.0788729 0.0379513 -0.100481 251 225 204
0.0661602 0.028091 0.00611798 133 125 125
0.084395 0.00699989 -0.0847844 118 0 0
0.0770736 0.0128119 -0.0710113 149 97 94
0.0691794 0.0253583 -0.0486143 32 15 16
0.0817384 0.0295397 -0.089214 149 0 0
0.0721916 0.00702837 -0.0862565 202 124 112
0.0621036 0.0240951 -0.0371645 86 0 0
0.0650549 0.0248819 -0.0496713 79 60 59
0.0822112 0.0284248 -0.099068 255 253 0
0.083182 0.0371104 -0.0903434 164 92 98
0.0833441 0.0355105 -0.0968702 160 244 186
0.0878228 0.0295657 -0.0956675 255 255 255
0.0892682 0.0269024 -0.0990737 0 215 189
0.08927 0.0363656 -0.0884142 0 0 100
0.0600183 0.00482635 -0.0577886 49 0 0
0.0827983 0.0337032 -0.105838 0 113 192
0.07094 0.0361682 -0.0779421 177 56 55
0.0615789 -0.0041056 -0.0603535 204 0 0
0.0804895 0.0364062 -0.0946609 245 255 255
0.0821092 0.0358968 -0.0959964 251 255 255
0.0835109 0.0370079 -0.0893557 200 255 244
0.084084 0.0338057 -0.0880099 255 255 255
0.0815202 0.0359129 -0.0874035 109 255 255
0.0808008 0.0264278 -0.0856661 255 239 236
0.073437 0.0334805 -0.0745808 235 116 112
0.0790057 0.0364893 -0.0860583 118 255 255
0.0808397 0.0328056 -0.0768684 255 255 255
0.0769507 0.0300984 -0.0806919 255 255 255
0.0764014 0.0308327 -0.0808708 255 255 255
0.0785485 0.0120374 -0.07804 255 170 170
0.0770251 0.0380259 -0.081778 255 217 178
0.0776896 0.0319408 -0.0782842 113 255 255
0.0608867 0.0192927 -0.0483558 255 163 125
0.0608007 0.0194569 -0.0477614 193 119 129
0.0604335 0.0172331 -0.0513484 240 150 111
0.079606 0.0292626 -0.105748 255 255 255
0.0793794 0.0367875 -0.104294 251 255 255
0.0794881 0.0311367 -0.106152 243 255 255
0.0794294 0.031002 -0.103593 240 255 244
0.078886 0.0293051 -0.105846 249 244 234
0.0783241 0.0281318 -0.105192 245 248 230
0.0767662 0.0270087 -0.106223 239 255 255
0.0798205 0.028293 -0.106244 245 253 237
0.0792874 0.0312777 -0.105045 247 255 255
0.0788392 0.0296069 -0.104839 240 232 255
0.0798555 0.0368948 -0.10479 248 255 255
0.0793324 0.0311174 -0.10462 247 255 255
0.0795395 0.0293787 -0.105685 255 255 255
0.0805496 0.0339428 -0.104809 247 252 255
0.0791443 0.0318118 -0.103475 241 242 224
0.0787006 0.0297063 -0.103118 255 255 255
0.0789068 0.0310555 -0.105347 249 255 255
0.0791362 0.0350558 -0.104115 255 255 255
0.0790567 0.0277082 -0.10459 247 255 255
0.0775884 0.0269212 -0.106297 246 255 238
0.0792383 0.0273303 -0.106519 243 255 253
0.0784779 0.0304457 -0.106097 254 255 255
0.0770192 0.0273004 -0.105794 251 255 236
0.0806721 0.0315383 -0.102978 251 255 255
0.07977 0.0330682 -0.105287 246 251 255
0.0797697 0.0372665 -0.104786 247 247 255
0.0823585 0.0254082 -0.100814 255 255 252
0.0783876 0.0195405 -0.100019 247 142 145
0.0830003 0.0226149 -0.0968197 255 192 160
0.0837062 0.0232383 -0.100515 193 0 0
0.0814736 0.0204472 -0.0900712 153 0 0
0.0801296 0.016439 -0.0944895 255 255 255
0.0813754 0.0326028 -0.0881899 230 122 117
0.0818851 0.0370004 -0.0916561 165 220 200
0.073334 0.0152598 -0.0980064 195 99 91
0.0753387 0.0171419 -0.0969036 178 103 102
0.0789841 0.0164 -0.0947556 95 0 0
0.0805152 0.0324516 -0.0928909 214 127 115
0.0764822 0.0322265 -0.0914994 255 123 116
0.0778263 0.0113845 -0.0863563 216 120 121
0.079493 0.012367 -0.0850703 180 102 93
0.0747105 0.0131497 -0.0929096 255 189 187
0.0774121 0.0370152 -0.0877224 134 61 54
0.0759118 0.0108425 -0.0842611 203 124 120
0.0739683 0.0136062 -0.082495 166 70 64
0.0783575 0.0319806 -0.0770226 255 255 255
0.0698256 0.0113276 -0.080782 190 144 145
0.0764144 0.0256754 -0.0810545 223 111 106
0.0748425 0.0216264 -0.0733229 46 13 13
0.0713787 0.0134108 -0.0824648 131 50 40
0.0770173 0.0231573 -0.0797435 215 124 118
0.0794585 0.0311807 -0.0764745 219 191 170
0.0730361 0.0162027 -0.075052 132 91 78
0.076387 0.0152244 -0.0742609 93 33 31
0.0717188 0.012304 -0.083719 151 49 45
0.0760749 0.0322304 -0.0850877 210 144 127
0.0694797 0.0115702 -0.0830894 168 79 75
0.0665623 0.0105524 -0.0801328 186 68 64
0.0761463 0.030268 -0.0815828 206 93 73
0.0780425 0.0316727 -0.0851901 234 174 166
0.0719234 0.00739892 -0.0730266 116 66 66
0.0702355 0.0101462 -0.0838217 189 86 77
0.0705105 0.0139655 -0.0835501 94 0 0
0.0784587 0.0310477 -0.084548 91 0 0
0.0684903 0.0103262 -0.0781577 69 0 0
0.0692274 0.00489677 -0.0759063 255 255 255
0.0649578 0.00512478 -0.0695071 255 197 175
0.0684921 0.0136629 -0.0800682 186 89 83
0.067884 0.0127521 -0.081536 209 92 93
0.0755261 0.0292588 -0.0821131 230 163 149
0.0708812 0.0153943 -0.0589238 113 77 69
0.0689442 0.0125463 -0.062776 156 112 110
0.0650585 0.0122462 -0.0790169 188 56 52
0.0689598 0.0354353 -0.0753188 147 77 70
0.0754536 0.0378425 -0.0843228 149 74 73
0.0633835 0.0185881 -0.0911228 141 77 71
0.0632183 0.0196061 -0.0799463 110 35 38
0.0760582 0.0348937 -0.0836901 191 130 125
0.0800955 0.0295286 -0.104611 255 255 255
0.0781632 0.0301674 -0.104867 249 255 255
0.0792508 0.0316255 -0.105781 241 255 255
0.0761184 0.0265944 -0.106669 244 242 227
0.0797557 0.0302005 -0.106077 241 241 219
0.0792478 0.0288373 -0.105737 255 255 239
0.0813608 0.0175772 -0.091027 255 231 210
0.0843423 0.0250286 -0.0957198 133 52 31
0.0744592 0.0151087 -0.0954408 168 91 81
0.075425 0.0258023 -0.0804808 205 98 90
0.077779 0.0256388 -0.0845881 218 105 101
0.0739611 0.011281 -0.0625858 181 121 117
0.0773402 0.0329359 -0.0838441 255 255 255
0.0653464 0.0181031 -0.0922491 140 45 38
0.0638075 0.00977844 -0.0624717 123 78 75
0.0765058 0.026162 -0.106626 243 255 235
0.0797598 0.0289085 -0.103822 251 225 203
0.0807869 0.0265675 -0.103719 238 207 189
0.0815687 0.0235378 -0.103579 255 189 173
0.0804781 0.0305481 -0.104835 254 195 165
0.0816225 0.0362008 -0.0931306 151 196 172
0.081933 0.0279944 -0.0943384 201 66 48
0.0791662 0.0370125 -0.0912543 175 92 79
0.0699547 0.0141955 -0.0941402 149 76 60
0.0763768 0.0247678 -0.0797836 222 114 112
0.0763167 0.0307851 -0.0848237 255 255 255
0.0760878 0.0269234 -0.070264 221 255 255
0.074041 0.0322185 -0.0818974 249 127 128
0.0732361 0.0327841 -0.0750273 134 12 3
0.0805427 0.0282983 -0.103256 255 190 174
0.0727348 0.0271402 -0.100718 255 255 255
0.0793287 0.031735 -0.106086 240 255 255
0.0804775 0.0330801 -0.10382 255 255 253
0.0798437 0.0337869 -0.104347 254 255 255
0.0796591 0.0163693 -0.0987494 255 168 152
0.0800675 0.0368723 -0.090354 159 94 82
0.0773329 0.0371777 -0.0850971 158 125 117
0.076086 0.0270934 -0.080056 255 169 152
0.079201 0.0309644 -0.10467 255 255 255
0.0788698 0.0321307 -0.100614 221 255 255
0.0778735 0.0139305 -0.0763597 147 107 106
0.0763908 0.0250879 -0.0803835 221 109 104
0.071591 0.0355249 -0.0784414 255 255 255
0.0674881 0.0333726 -0.0803828 142 95 83
0.0749715 0.0291335 -0.0709944 160 70 60
0.0811603 0.0284737 -0.103082 229 243 221
0.0737569 0.0318287 -0.0755116 132 0 0
0.0811441 0.0224817 -0.103924 255 225 206
0.0748757 0.0305433 -0.0873366 238 149 136
0.0847578 0.0235769 -0.0803037 255 214 225
0.0754873 0.0299284 -0.0852769 255 158 143
0.0739498 0.016526 -0.098105 255 227 210
0.0685725 0.0119542 -0.081809 103 0 0
0.0690981 0.0347508 -0.0803793 143 83 75
0.0691644 0.0354346 -0.07611 204 131 128
0.0732377 0.0296433 -0.080221 44 0 0
0.0691851 0.0117539 -0.0785979 255 157 185
0.0808678 0.0265028 -0.0848766 255 210 207
0.0747107 0.0282578 -0.0733837 98 0 0
0.0770963 0.0188382 -0.0985971 255 168 150
0.0789922 0.0229448 -0.0992039 255 149 150
0.0806363 0.0294667 -0.10232 255 211 175
0.0754048 0.0302773 -0.0795542 234 156 135
0.0793701 0.0276139 -0.101194 255 173 155
0.0764345 0.0200526 -0.0828705 93 35 30
0.0649307 0.0123665 -0.0813045 187 65 60
0.0693822 0.0132955 -0.0809803 164 67 61
0.0686285 0.0103439 -0.0770652 255 176 163
0.074223 0.0284966 -0.0740147 152 71 47
0.0716018 0.00463936 -0.0795789 255 248 241
0.0727631 0.0203645 -0.0527059 160 71 69
0.0793801 0.0199852 -0.0904266 178 73 63
0.0851377 0.0353621 -0.0904555 138 204 188
0.0723147 0.0143144 -0.086399 170 83 77
0.0725179 0.00818385 -0.0819467 251 155 154
0.0685852 0.00772644 -0.0812876 82 0 0
0.068884 0.0114442 -0.0791132 84 0 0
0.0680676 0.0130428 -0.0814154 170 58 56
0.069763 0.0106024 -0.0772383 93 0 0
0.0750984 0.0350303 -0.0813101 173 0 17
0.0687573 0.011478 -0.0635458 104 46 45
0.0686929 0.0141148 -0.0807014 213 118 108
0.0682975 0.0346979 -0.075567 139 75 66
0.0736201 0.029192 -0.0799969 205 121 104
0.0645496 0.0163996 -0.0821442 255 255 255
0.0781442 0.0180051 -0.0997879 255 218 206
0.0762583 0.0228763 -0.0771902 122 57 38
0.0710232 0.011704 -0.0916434 124 61 54
0.0767995 0.0266949 -0.0761995 144 125 111
0.0778118 0.0235229 -0.0713059 236 255 255
0.0810862 0.0294504 -0.103504 237 248 223
0.0749754 0.0288876 -0.07662 148 42 41
0.0675614 0.0122641 -0.0638565 118 87 77
0.0813109 0.0275078 -0.103199 231 217 202
0.0733982 0.0272624 -0.0517717 255 194 170
0.0761328 0.0171052 -0.0970892 211 194 185
0.0778998 0.023287 -0.0736267 193 84 74
0.077946 0.0303913 -0.0851939 130 11 0
0.0707863 0.00867788 -0.0801252 255 255 255
0.07065 0.0129099 -0.0834247 163 78 75
0.0839804 0.0297012 -0.0968239 246 174 168
0.07594 0.023919 -0.0717719 79 0 67
0.0750584 0.0266128 -0.0798659 202 113 131
0.0760637 0.0243347 -0.073043 114 13 5
0.0807493 0.0367365 -0.0898987 166 101 84
0.0844131 0.021916 -0.0887835 237 255 239
0.0767328 0.0246804 -0.0787939 198 73 67
0.0775528 0.0401125 -0.0997509 255 165 130
0.0858301 0.0184054 -0.0981474 255 255 255
0.0784132 0.0286833 -0.0922704 4 94 65
0.0673199 0.00973013 -0.0778375 131 0 0
0.0679433 0.0125824 -0.0844133 76 0 0
0.0831831 0.0289931 -0.0992425 255 255 255
0.0771283 0.024926 -0.0801273 201 64 58
0.0822107 0.0362208 -0.0753858 170 255 255
0.0733794 0.0277966 -0.072729 0 40 62
0.0697442 0.0343908 -0.0797408 209 97 92
0.0662847 0.00920423 -0.0635492 102 76 71
0.0732378 0.0297525 -0.0586686 255 255 255
0.0813366 0.026733 -0.0974941 189 76 83
0.0611769 0.0244597 -0.0480307 0 0 0
0.0667248 0.0157733 -0.0795291 169 86 86
0.0713358 0.0378229 -0.0760411 205 158 150
0.0797597 0.033497 -0.104401 254 255 247
0.0775081 0.0314688 -0.101225 148 8 0
0.0784013 0.035361 -0.105316 255 249 232
0.0812174 0.036033 -0.091799 167 148 140
0.0819531 0.0372183 -0.0883633 179 135 133
0.0783887 0.0170143 -0.0784513 228 134 127
0.0782264 0.0195531 -0.0803553 163 91 89
0.0771847 0.0310955 -0.0872885 255 255 255
0.0701011 0.0101963 -0.081044 143 39 59
0.0759673 0.0272772 -0.0700746 196 62 49
0.0759371 0.0229478 -0.0655918 255 254 247
0.0748332 0.0254731 -0.0711487 255 188 182
0.0737865 0.0187711 -0.0577025 36 0 0
0.0767165 0.019651 -0.0844792 181 82 77
0.0823325 0.019074 -0.0960169 255 255 255
0.0714199 0.0100324 -0.0769751 110 54 51
0.0718017 0.0175809 -0.0620385 176 114 112
0.062548 0.0167895 -0.0813627 126 58 52
0.0804484 0.0233901 -0.104017 245 189 171
0.0771648 0.0198134 -0.0712729 255 255 255
0.0772199 0.0233029 -0.0709913 255 255 255
0.0774322 0.0191921 -0.0768831 255 149 144
0.064343 0.0195949 -0.0908653 132 44 36
0.0802319 0.0316409 -0.103132 241 255 220
0.0674146 0.0101534 -0.0629262 111 91 92
0.0894391 0.0294191 -0.093891 248 0 0
0.0696486 0.00872947 -0.0828423 224 106 106
0.0784673 0.030821 -0.0866249 142 75 64
0.0690904 0.0362966 -0.0773715 221 191 187
0.0683768 0.0353517 -0.0815192 163 115 97
0.0765019 0.0258186 -0.0745171 255 224 203
0.0827777 0.0296802 -0.0965899 248 255 255
0.0772884 0.0198665 -0.067305 255 169 164
0.0681922 0.00764429 -0.0768051 255 255 255
0.084989 0.0228374 -0.0864214 120 0 0
0.0711493 0.0152243 -0.0843689 197 106 100
0.0807576 0.0336862 -0.103406 239 229 210
0.0780414 0.0370441 -0.100646 243 241 239
0.0730875 0.0334389 -0.076425 255 178 165
0.0723783 0.0161043 -0.0544188 255 255 255
0.0801107 0.0297792 -0.10414 255 244 208
0.0792568 0.0363326 -0.100753 218 255 205
0.0790485 0.0352384 -0.0909399 214 75 62
0.0748408 0.0290437 -0.0809704 0 89 58
0.0632986 0.0155718 -0.080959 121 51 40
0.0726982 0.0344444 -0.0828265 144 8 0
0.0732642 0.0190749 -0.0603814 49 19 16
0.0835584 0.0213991 -0.0908602 205 40 21
0.0681672 0.0116704 -0.0639074 255 160 59
0.0743903 0.016862 -0.054974 255 213 197
0.0723934 0.0179017 -0.0571783 116 77 67
0.0700112 0.00649705 -0.08243 94 0 0
0.072997 0.0208124 -0.0431829 112 0 0
0.0743189 0.0186042 -0.0621447 26 0 0
0.0820244 0.0260321 -0.102295 255 155 137
0.0817835 0.0277204 -0.088599 186 87 81
0.07809 0.0322278 -0.0853646 168 76 66
0.0807311 0.0237998 -0.103273 255 172 164
0.0799505 0.0310799 -0.104431 251 249 239
0.079953 0.030704 -0.103999 255 255 253
0.0755391 0.0327393 -0.0959301 120 0 0
0.0802542 0.0297781 -0.103426 241 205 184
0.0799592 0.0304447 -0.0895206 156 6 0
0.0776018 0.0335665 -0.102591 255 255 255
0.0798919 0.0373752 -0.100574 255 255 255
0.0774938 0.0367718 -0.0886296 161 93 87
0.0762615 0.00907401 -0.0655403 128 47 50
0.0826349 0.022545 -0.0971721 220 116 130
0.0774809 0.0318558 -0.0855398 124 0 0
0.0690265 0.0121973 -0.0821382 194 88 85
0.0763125 0.0128276 -0.0598152 134 93 92
0.0770362 0.0271254 -0.0834294 199 86 84
0.0798678 0.0373391 -0.0839226 104 167 152
0.0655571 0.0140678 -0.0919301 142 88 76
0.085035 0.0181608 -0.0951049 242 198 192
0.0810591 0.0310291 -0.0927019 206 81 65
0.0705124 0.0093159 -0.0813533 255 255 255
0.0824141 0.0253628 -0.0987835 255 255 255
0.0759344 0.0326142 -0.0920332 233 116 108
0.0803141 0.0295169 -0.103653 253 227 206
0.0768434 0.0303378 -0.0849165 225 129 118
0.0773229 0.0308845 -0.0816592 255 255 255
0.074123 0.0376501 -0.100097 255 112 121
0.0807321 0.0227931 -0.104239 251 240 223
0.0856528 0.0277569 -0.0995253 184 79 73
0.0837894 0.0191205 -0.102488 96 32 23
0.0776171 0.0168884 -0.0700616 51 13 0
0.074716 0.0143686 -0.0870774 52 0 0
0.0773221 0.0280357 -0.0713168 255 255 255
0.072995 0.0322451 -0.0794569 225 30 0
0.0844541 0.0260917 -0.0842708 54 0 18
0.0813658 0.0284684 -0.0926574 217 69 51
0.0794262 0.0341224 -0.10412 254 215 201
0.0775435 0.0301448 -0.0795878 70 172 154
0.0725858 0.0160955 -0.0644423 178 116 101
0.0789348 0.0362992 -0.101669 255 255 219
0.0685741 0.00960259 -0.0778616 255 255 255
0.0702454 0.0348315 -0.0771885 244 255 255
0.085811 0.0280385 -0.0970511 251 255 255
0.0821657 0.023045 -0.103235 255 138 109
0.0681623 0.0343575 -0.077636 125 89 78
0.0829679 0.0357076 -0.0933037 116 162 140
0.0761732 0.0373976 -0.0872848 150 64 53
0.080604 0.028919 -0.103361 255 223 197
0.0810423 0.0236896 -0.10364 255 120 101
0.083368 0.0331906 -0.0976358 248 255 255
0.0856878 0.0181784 -0.0953006 243 184 170
0.083599 0.0362295 -0.097112 162 242 185
0.0807761 0.0446471 -0.0982911 255 255 255
0.0828467 0.0361739 -0.0984922 100 182 207
0.0855616 0.0204925 -0.0856869 172 255 255
0.0782904 0.0180612 -0.0877011 168 78 74
0.0836897 0.0234418 -0.0825204 0 0 0
0.0776002 0.00956393 -0.0776669 102 0 0
0.080185 0.0186321 -0.0669755 255 255 255
0.0666071 0.0149301 -0.0899437 225 114 103
0.0748519 0.019873 -0.0612323 88 0 0
0.064394 0.0130694 -0.0695624 78 26 25
0.0746427 0.017459 -0.0578244 39 0 0
0.0612024 0.0122469 -0.0501721 130 114 110
0.0800275 0.0299029 -0.105181 255 138 122
0.0723552 0.00879647 -0.0709171 231 186 191
0.0766813 0.0188026 -0.0981074 255 152 140
0.0771227 0.0247191 -0.0783578 110 0 0
0.064602 0.012341 -0.0807175 153 0 0
0.0747411 0.00510145 -0.0796155 130 107 102
0.0851465 0.0206988 -0.0811404 0 0 0
0.0809201 0.0333659 -0.093933 209 73 65
0.0741663 0.0209263 -0.0656 61 30 30
0.082396 0.036131 -0.095708 110 32 33
0.0807483 0.0369744 -0.082505 247 67 52
0.0742489 0.0166255 -0.0566111 0 0 0
0.0832786 0.0141462 -0.0985577 255 0 0
0.0745732 0.0319426 -0.100247 52 66 58
0.075903 0.0172103 -0.09232 180 85 77
0.0744859 0.0186925 -0.0581255 27 0 0
0.0854365 0.0274969 -0.0819089 247 222 207
0.0864199 0.0169934 -0.0966558 255 255 255
0.0621933 0.0193818 -0.0794669 126 48 51
0.0843459 0.0279839 -0.0877638 241 22 0
0.0842914 0.0109519 -0.0711446 170 0 0
0.0674847 0.00991477 -0.0663071 68 34 35
0.0775622 0.0134794 -0.0862832 96 0 0
0.0781609 0.0104241 -0.0835874 107 0 0
0.0658343 0.0105829 -0.0854169 194 71 66
0.0869169 0.0288488 -0.0961068 254 255 255
0.0829052 0.0210792 -0.0587585 255 93 74
0.0879106 0.0259735 -0.0843718 0 255 255
0.0764773 0.00816815 -0.0801276 0 0 0
0.0797665 0.0226396 -0.0884355 202 71 77
0.0850457 0.0267315 -0.0959336 249 0 0
0.081444 0.0282333 -0.096238 230 77 74
0.0741566 0.0338439 -0.0775791 141 70 66
0.0677869 0.0376512 -0.0804137 140 69 62
0.063704 0.0256257 -0.0447964 42 44 42
0.0772992 0.01859 -0.0864795 151 55 53
0.0815197 0.0281936 -0.0879768 255 227 206
0.0862123 0.03331 -0.0928061 255 255 255
0.086002 0.024278 -0.0871335 255 155 129
0.0639507 0.0151097 -0.0815216 168 16 0
0.0752585 0.0107311 -0.0871243 163 76 66
0.0667014 0.0204497 -0.0451708 17 19 0
0.0887071 0.0268537 -0.0903331 0 255 255
0.0794876 0.0322597 -0.103083 255 143 124
0.0720216 0.0363869 -0.0759291 242 137 131
0.0848406 0.0278967 -0.0974987 255 255 255
0.0827811 0.0341848 -0.0840631 186 0 0
0.0856523 0.0339214 -0.0880995 0 0 0
0.063918 0.0159194 -0.0738804 98 38 35
0.0819145 0.0116956 -0.0747886 224 77 0
0.0760328 0.0378976 -0.0838956 152 80 77
0.0766026 0.0473479 -0.0974277 255 161 136
0.0860564 0.0379564 -0.0915728 0 103 184
0.0819273 0.0382034 -0.0896855 175 186 144
0.0614605 0.0109423 -0.0734215 201 86 79
0.0851074 0.032729 -0.0760861 255 12 0
0.0832492 0.0333893 -0.0943566 0 255 255
0.0589786 0.0135727 -0.0637431 80 0 0
0.0809554 0.0376507 -0.0814749 255 156 135
0.0833001 0.0367031 -0.0969219 142 230 181
0.0792363 0.0183954 -0.101047 103 41 39
0.0830607 0.0357568 -0.0978738 101 177 200
0.0808775 0.023907 -0.0893919 237 51 48
0.0741133 0.0136308 -0.068434 99 40 38
0.0724929 0.00179733 -0.0724864 255 255 255
0.0749302 0.0154234 -0.0609651 162 127 131
0.074124 0.0155062 -0.0673913 96 34 35
0.0806251 0.0213164 -0.0887373 215 83 84
0.0744894 0.00462468 -0.0735976 162 136 133
0.067054 0.00875178 -0.0677776 110 56 54
0.077515 0.0237796 -0.0837692 232 123 128
0.0816895 0.0166418 -0.0753055 255 195 195
0.0685157 0.00315182 -0.0736395 0 255 255
0.0775925 0.0100159 -0.0725016 255 229 221
0.0754875 0.0121334 -0.0730518 144 77 75
0.0856413 0.0099059 -0.0855813 206 0 0
0.0799119 0.0193268 -0.0948617 84 24 10
0.0737567 0.0201632 -0.0613332 54 28 25
0.0742866 0.0190366 -0.0551706 74 0 0
0.0774712 0.0171651 -0.0973453 189 68 63
0.0857407 0.0255612 -0.0899596 252 103 91
0.0778118 0.0140602 -0.0583767 22 0 0
0.0773109 0.011841 -0.0749488 141 79 76
0.0758024 0.0469346 -0.0965875 255 155 140
0.0852089 0.0151893 -0.0962136 255 255 255
0.0649529 0.0204925 -0.0810734 117 58 55
0.0826736 0.0302156 -0.0796761 231 145 140
0.0871102 0.0143671 -0.0985746 255 27 0
0.0793708 0.0318495 -0.0815886 88 5 0
0.0730517 0.0206708 -0.0459522 19 0 0
0.0737271 0.0113777 -0.0848157 71 0 0
0.0801748 0.0212747 -0.0905986 177 55 50
0.0846818 0.0279632 -0.0934774 185 0 60
0.0839405 0.027851 -0.0979107 246 151 0
0.0855136 0.0162779 -0.0707699 255 141 128
0.0813281 0.0164032 -0.0785787 199 87 85
0.0837882 0.0141748 -0.0736133 0 0 0
0.0858614 0.0283293 -0.0997197 117 85 78
0.0850897 0.0231592 -0.095851 209 150 154
0.0747351 0.0355226 -0.0769835 219 110 106
0.0851684 0.0232409 -0.0918938 212 217 205
0.075386 0.00759983 -0.0741271 255 243 217
0.0862563 0.0274709 -0.0861545 255 255 255
0.0870408 0.0266824 -0.088509 255 127 81
0.0641156 0.0160897 -0.0829418 151 33 27
0.0661043 0.0191386 -0.0872945 239 120 108
0.0603371 0.0204186 -0.050506 87 53 50
0.0881158 0.0248474 -0.0979957 64 161 138
0.0869473 0.0336027 -0.089128 0 0 0
0.0803844 0.0280481 -0.103861 255 141 123
0.0809033 0.0368386 -0.0812582 134 170 145
0.0833384 0.0319674 -0.0952675 12 0 255
0.0812171 0.0289166 -0.100419 255 255 255
0.0847889 0.0278484 -0.0954402 255 0 0
0.0817059 0.0382944 -0.0883832 140 153 126
0.0823436 0.0347268 -0.0888996 255 128 194
0.0620202 0.0134414 -0.0643711 114 96 85
0.0619962 0.0159814 -0.0687846 104 18 25
0.0837294 0.0225571 -0.0695129 255 217 204
0.0727392 0.0332998 -0.0793521 155 25 19
0.0902764 0.0100823 -0.0768622 255 0 0
0.0753431 0.0373769 -0.085163 151 63 58
0.0638221 0.0144681 -0.0796791 137 15 0
0.0785901 0.0126879 -0.0847917 143 63 60
0.0821076 0.0377119 -0.0877011 175 184 143
0.0626911 0.0137776 -0.0700346 118 58 57
0.0820145 0.0345755 -0.100322 242 253 255
0.0808881 0.0184617 -0.0935833 206 164 143
0.061216 0.00617995 -0.0708442 156 0 0
0.0645976 0.00965322 -0.0808512 116 0 0
0.0827714 0.0369473 -0.0956248 147 233 182
0.0795127 0.0313086 -0.104523 241 255 255
0.0790725 0.0319026 -0.105779 240 255 255
0.0775522 0.0277814 -0.104974 253 255 242
0.0768037 0.026972 -0.104612 246 218 207
0.0797189 0.0317642 -0.103852 242 255 255
0.0759362 0.0265218 -0.104942 249 255 240
0.0788401 0.0282057 -0.106169 241 255 253
0.0796305 0.0364825 -0.10469 255 255 255
0.0793424 0.0326154 -0.104548 240 255 255
0.0803954 0.0342346 -0.104772 255 255 255
0.078712 0.0301023 -0.104749 243 255 249
0.0797547 0.0377973 -0.102171 255 255 255
0.0759815 0.0269474 -0.105152 252 232 212
0.0798702 0.0297923 -0.105546 241 255 255
0.0788914 0.0333007 -0.105005 255 255 255
0.0778312 0.0307437 -0.105366 247 255 245
0.076883 0.0271321 -0.105979 250 255 238
0.0776642 0.0273976 -0.104976 250 255 255
0.0811311 0.0317351 -0.102498 255 255 255
0.0789419 0.0372362 -0.103582 253 255 251
0.0816068 0.0225924 -0.0931037 255 207 194
0.0808535 0.0195516 -0.0904182 241 122 111
0.0824177 0.0188656 -0.0935985 255 158 155
0.0822766 0.0366009 -0.091468 157 223 211
0.0737691 0.0162075 -0.0957917 194 115 104
0.0733461 0.0154193 -0.097916 192 96 89
0.0779952 0.0332252 -0.087863 153 0 0
0.0729274 0.0161476 -0.0954516 225 117 105
0.0783458 0.0211265 -0.0816528 150 53 50
0.0774096 0.030856 -0.0862037 188 92 82
0.0766319 0.0194609 -0.0831247 29 0 0
0.078104 0.0245895 -0.0866491 216 99 100
0.0780374 0.0312182 -0.0865997 102 21 0
0.078049 0.0231095 -0.0773888 198 93 83
0.0672142 0.0103249 -0.0817039 223 102 85
0.0713279 0.00771591 -0.0820097 245 141 137
0.0764029 0.0335071 -0.0787297 255 255 255
0.0704983 0.00952023 -0.0876563 106 0 0
0.0727362 0.0145264 -0.083277 182 118 106
0.0735067 0.0144718 -0.0834684 170 99 96
0.0749012 0.0301195 -0.0793578 142 113 73
0.0749664 0.0192781 -0.06375 45 12 13
0.0781358 0.0263465 -0.0784412 110 6 0
0.0713285 0.0103931 -0.0835742 164 74 72
0.0668102 0.0129838 -0.0802705 199 84 81
0.0766672 0.0106687 -0.0684472 66 0 0
0.0759446 0.0128174 -0.0709495 35 0 0
0.0706711 0.0106327 -0.0822288 118 14 0
0.0701391 0.0114345 -0.0825461 177 66 64
0.0729601 0.00630764 -0.0734095 143 103 95
0.074776 0.0311642 -0.0807113 206 103 86
0.0779321 0.0309397 -0.0853957 180 122 112
0.0750388 0.0324034 -0.0843379 169 0 0
0.070099 0.0130259 -0.0846874 175 82 76
0.0688521 0.0117183 -0.0790458 255 190 187
0.064977 0.00753937 -0.0761078 166 0 0
0.071639 0.0117413 -0.0804065 255 255 255
0.0688977 0.00926486 -0.0821876 165 64 62
0.0712263 0.00693469 -0.0789762 235 113 96
0.0654716 0.00841693 -0.0834059 100 0 0
0.0670154 0.0132008 -0.0791615 188 82 73
0.0696606 0.0109068 -0.0792722 110 55 56
0.0639657 0.0119476 -0.0828354 255 187 167
0.0769502 0.0322694 -0.0837739 177 113 103
0.0679635 0.0114918 -0.0825478 226 135 128
0.0752404 0.0297147 -0.0810391 225 92 81
0.0693376 0.0136825 -0.0636542 102 41 41
0.0630623 0.0173088 -0.0797673 177 89 80
0.0723609 0.00778662 -0.0831875 194 114 105
0.0721825 0.0135065 -0.0643772 110 87 91
0.0679335 0.0131526 -0.0795595 181 73 63
0.0640093 0.00731106 -0.0617715 86 30 30
0.0666842 0.03438 -0.100512 58 21 16
0.0698551 0.0146815 -0.0849027 193 96 95
0.0690589 0.0353275 -0.0742429 147 101 93
0.0665723 0.0108306 -0.0630638 140 97 91
0.0684346 0.00779355 -0.0613744 24 0 0
0.0737516 0.0327081 -0.08003 178 66 62
0.0637373 0.0178863 -0.0910225 140 73 69
0.0605882 0.0120468 -0.0623116 106 96 89
0.0740747 0.0377434 -0.0782461 169 102 90
0.0796738 0.0331409 -0.105205 255 192 158
0.0786863 0.03324 -0.103584 255 178 159
0.0797201 0.0323305 -0.104011 252 254 254
0.079052 0.0299206 -0.105816 240 255 255
0.0774266 0.0373584 -0.102102 250 252 255
0.0775782 0.0276671 -0.106785 247 236 219
0.0779388 0.0265155 -0.10489 232 255 255
0.0798903 0.0348012 -0.103848 255 255 255
0.0815873 0.019041 -0.092975 223 108 89
0.086453 0.0339411 -0.0895976 227 0 0
0.0848049 0.00876219 -0.0824558 229 192 166
0.0774049 0.0241501 -0.0837514 157 65 62
0.0763477 0.0263801 -0.0804977 187 74 70
0.0745421 0.0260382 -0.0737985 87 9 5
0.0727589 0.0165698 -0.0758564 121 73 66
0.0767236 0.0375379 -0.0836748 167 80 77
0.0674312 0.015603 -0.0939407 133 71 63
0.0663829 0.010948 -0.0840888 172 60 58
0.0789409 0.0311243 -0.104421 255 255 255
0.0777089 0.0271407 -0.105361 245 255 246
0.0785219 0.0274584 -0.105862 255 251 232
0.0794446 0.0307385 -0.102812 255 255 255
0.0805277 0.0282116 -0.103802 255 230 208
0.0771334 0.0273678 -0.105803 249 204 191
0.0795875 0.0305555 -0.103582 255 216 198
0.0802137 0.0280967 -0.103697 247 201 182
0.081117 0.0219397 -0.103379 255 182 167
0.0803293 0.0312025 -0.10501 255 196 163
0.074927 0.0154281 -0.0919147 255 185 162
0.0794735 0.03684 -0.0882728 152 96 86
0.0694999 0.0143899 -0.093692 135 69 63
0.0745673 0.0124466 -0.0936806 255 125 120
0.0799487 0.0367889 -0.0895827 155 110 98
0.0763471 0.0247101 -0.084207 133 0 0
0.0764366 0.028285 -0.0779236 255 226 218
0.072797 0.0317255 -0.0696061 255 255 255
0.0729441 0.0327978 -0.0677905 255 255 255
0.0792134 0.0317995 -0.104394 245 255 251
0.0802368 0.0318779 -0.102443 232 255 255
0.0796272 0.0330579 -0.103379 255 249 244
0.0774431 0.0271186 -0.106091 255 255 254
0.0790037 0.0272077 -0.106251 255 255 255
0.0768912 0.0262452 -0.105426 252 255 243
0.0751569 0.025898 -0.105096 247 247 233
0.0785701 0.0376319 -0.0846589 145 114 101
0.0791794 0.0375472 -0.0893288 156 97 85
0.0752594 0.0300693 -0.0824659 105 15 0
0.0796353 0.0328742 -0.104625 255 255 254
0.0744815 0.0274769 -0.0765052 233 147 142
0.07392 0.0309987 -0.0773878 209 109 113
0.0670209 0.0328511 -0.079486 137 100 76
0.0811631 0.0281642 -0.102833 229 243 222
0.0735319 0.0307978 -0.069465 73 0 0
0.0641745 0.011058 -0.0777946 226 99 96
0.0834701 0.0291815 -0.0881015 253 42 27
0.0786618 0.0317752 -0.0816815 148 121 124
0.0784371 0.0326845 -0.0873019 179 62 56
0.0695085 0.0112139 -0.0824763 255 255 255
0.0699156 0.0105669 -0.0781474 232 118 113
0.0729878 0.0334255 -0.0715316 255 255 255
0.0734157 0.0314263 -0.0775924 110 0 0
0.0740177 0.0344176 -0.0753524 172 59 52
0.0781357 0.031846 -0.0861211 130 70 58
0.0671878 0.0116036 -0.0838026 255 151 140
0.0791903 0.0308743 -0.0812004 255 255 255
0.0709608 0.0311179 -0.0742899 77 43 39
0.0804361 0.0284779 -0.103566 245 193 177
0.0686869 0.0117425 -0.0808343 214 87 95
0.0795287 0.0217623 -0.102963 255 250 221
0.0665436 0.00610684 -0.0796405 255 156 151
0.06812 0.0121979 -0.0802217 132 48 39
0.0777854 0.0250932 -0.103644 213 83 77
0.0837824 0.0242847 -0.0832109 255 66 60
0.0847622 0.0247576 -0.0867549 221 74 0
0.077147 0.0176229 -0.0831079 213 94 93
0.0678815 0.00905595 -0.082017 249 150 149
0.0681443 0.0125868 -0.0796159 243 132 120
0.0658184 0.00856398 -0.079585 106 0 0
0.0685343 0.012564 -0.0791634 226 108 102
0.0656389 0.00831153 -0.0817352 255 255 255
0.0665504 0.0095758 -0.0624682 201 145 141
0.0712209 0.0137684 -0.0614226 255 159 173
0.0698618 0.00987897 -0.078196 209 122 119
0.0731927 0.0376839 -0.0766952 128 62 57
0.0735093 0.0318391 -0.0748357 100 0 0
0.0805288 0.0288335 -0.0883367 252 88 81
0.0717033 0.0148887 -0.093415 147 83 73
0.0743134 0.0300503 -0.0784096 156 50 37
0.0780728 0.0318432 -0.107218 255 165 138
0.0810783 0.0187187 -0.0966577 255 164 167
0.0776272 0.0212096 -0.0740948 229 114 84
0.0683369 0.0116271 -0.0826402 255 207 204
0.0787107 0.019943 -0.0737742 255 255 255
0.0748689 0.0265538 -0.0788227 164 61 53
0.0782412 0.0306044 -0.076915 255 255 255
0.0768062 0.0329852 -0.0888842 241 124 110
0.0739929 0.0314194 -0.0760634 136 39 28
0.0811761 0.0270499 -0.103058 222 215 201
0.0651556 0.0143738 -0.0782709 129 0 0
0.0725558 0.017033 -0.0618494 102 46 45
0.0660186 0.00921331 -0.0771842 255 255 255
0.0724292 0.0108835 -0.0795591 48 0 0
0.0800219 0.0349813 -0.103563 255 85 54
0.0796205 0.0374102 -0.0848395 222 90 74
0.0746995 0.0281775 -0.0770329 254 152 145
0.0797725 0.032226 -0.103752 255 255 251
0.0849022 0.0274294 -0.0943099 119 0 0
0.0739854 0.0185567 -0.0554047 191 202 171
0.0843121 0.0244634 -0.0848092 197 0 0
0.0776469 0.022608 -0.0698397 255 162 145
0.0741878 0.0266742 -0.0721016 195 118 100
0.0677145 0.0124744 -0.0844195 183 78 75
0.0822103 0.0255919 -0.100226 255 255 165
0.0775515 0.0253267 -0.0820519 210 102 103
0.0768233 0.0307974 -0.0935701 252 87 79
0.0737206 0.0286394 -0.0647533 255 162 154
0.0719602 0.0373799 -0.0768626 167 93 83
0.0745887 0.0169879 -0.0834482 134 104 92
0.0704999 0.0103511 -0.0826969 255 240 236
0.0750547 0.0277227 -0.0656716 152 133 142
0.0695028 0.0284204 -0.0588824 37 18 18
0.083367 0.023022 -0.10069 255 255 255
0.0721558 0.0171267 -0.0538579 141 103 86
0.0692716 0.0345599 -0.0801854 164 128 116
0.0798969 0.0341249 -0.0963722 240 60 36
0.0793457 0.0330917 -0.104987 255 245 218
0.0792928 0.022869 -0.0769009 180 62 64
0.0798653 0.0214944 -0.0780188 160 46 43
0.0748392 0.0285826 -0.0769072 150 28 20
0.079255 0.0317006 -0.0801561 255 255 255
0.0691198 0.0133518 -0.0804271 197 88 81
0.0835743 0.0356402 -0.0935357 180 104 98
0.0796575 0.0370684 -0.0990978 255 213 181
0.0786491 0.0292448 -0.0866167 194 31 22
0.0774664 0.0219955 -0.0727867 255 167 173
0.0711046 0.0165543 -0.057703 116 82 72
0.0793501 0.00799899 -0.0816286 247 167 162
0.0733508 0.013951 -0.0849845 169 81 75
0.0753769 0.0243074 -0.0723578 203 91 88
0.0731327 0.0177862 -0.0583423 102 56 54
0.070702 0.0106688 -0.0891206 255 237 229
0.0752373 0.0254757 -0.0742038 255 202 200
0.06438 0.0157024 -0.0803946 204 86 82
0.084938 0.0251681 -0.0974052 255 145 115
0.07763 0.022176 -0.0804025 184 79 79
0.0795632 0.0353927 -0.10362 255 255 255
0.0696749 0.0334111 -0.0722015 255 198 182
0.0670555 0.0104397 -0.0608637 184 221 194
0.0811643 0.025607 -0.103418 235 189 171
0.0782717 0.0200514 -0.0662576 255 222 214
0.0764372 0.022123 -0.0689258 255 164 146
0.0776384 0.0219559 -0.0731236 255 255 255
0.0804602 0.0204243 -0.0917665 255 150 139
0.0778076 0.0192261 -0.0860025 251 144 144
0.0745189 0.0266633 -0.0772803 233 161 154
0.0643198 0.0196691 -0.0867424 171 58 47
0.0807494 0.0302066 -0.103873 236 255 221
0.0659813 0.0102757 -0.0614199 128 84 78
0.0787606 0.0173963 -0.0879721 236 126 123
0.0746929 0.0344369 -0.084457 191 84 76
0.0684899 0.0351908 -0.0792025 206 143 135
0.0681474 0.0342463 -0.0800817 137 83 65
0.0777673 0.0212343 -0.0738737 255 255 255
0.0768554 0.0278918 -0.0690998 255 255 255
0.0786591 0.0151921 -0.0734292 255 237 236
0.0754359 0.0252057 -0.072775 223 122 118
0.076733 0.0257731 -0.071967 255 255 255
0.0726009 0.0245969 -0.0444428 255 255 255
0.0697245 0.0117548 -0.0830951 194 93 80
0.0739029 0.0312364 -0.0768684 70 0 0
0.0781315 0.0176417 -0.0559819 203 209 217
0.0800338 0.033305 -0.103458 255 227 197
0.07655 0.0240795 -0.0682858 173 76 63
0.0767406 0.011211 -0.0835864 50 0 0
0.0679706 0.00993834 -0.0620816 255 255 255
0.0739849 0.0243603 -0.0684137 202 143 123
0.076257 0.0131482 -0.0934294 232 124 115
0.0759401 0.0297777 -0.0835628 226 101 92
0.0659362 0.0108908 -0.0648794 80 40 39
0.0796722 0.0222329 -0.10308 246 162 154
0.0786873 0.0365032 -0.102101 237 240 227
0.0698357 0.01187 -0.0781191 165 106 102
0.0758045 0.0275939 -0.0830472 201 86 81
0.0627979 0.014672 -0.0801051 210 86 67
0.0743024 0.0262864 -0.0770872 0 0 0
0.0714926 0.0174168 -0.0537792 113 88 76
0.0778531 0.0317204 -0.0857308 255 200 191
0.0726247 0.025026 -0.0526247 0 0 0
0.0748804 0.0115592 -0.0683741 164 72 76
0.0751201 0.0183694 -0.0494821 255 0 0
0.0811801 0.0242393 -0.102204 255 180 158
0.0807326 0.0261145 -0.0741958 255 255 255
0.0642519 0.00497437 -0.0712253 227 128 122
0.0809918 0.0302481 -0.102372 255 130 98
0.080614 0.0293041 -0.10394 255 252 244
0.0780651 0.0312252 -0.0825773 255 255 255
0.0808844 0.0255523 -0.101926 255 81 0
0.0780236 0.0317091 -0.0847489 255 255 255
0.0799059 0.0323424 -0.103115 248 202 182
0.080204 0.0293913 -0.0925098 203 75 74
0.0801267 0.0337285 -0.100596 242 255 255
0.074565 0.032162 -0.055829 160 0 0
0.0790624 0.0350286 -0.0938113 234 98 87
0.0772152 0.0290622 -0.0815017 141 0 0
0.0799221 0.0232385 -0.103804 255 166 149
0.0714753 0.0295169 -0.0574324 103 0 0
0.0805822 0.0367804 -0.0950023 177 89 73
0.0843886 0.0248876 -0.0932095 234 216 202
0.0716407 0.0131222 -0.0777545 62 23 22
0.07933 0.0287526 -0.0765 200 111 103
0.0759571 0.00686075 -0.0650853 176 123 122
0.0812732 0.0185903 -0.0905957 206 80 69
0.0788966 0.0154998 -0.0639531 113 0 0
0.0697907 0.0109621 -0.0811273 137 30 30
0.0788141 0.0267341 -0.10588 255 219 200
0.0686682 0.0133629 -0.0916511 137 66 58
0.0714191 0.00781745 -0.0810143 176 108 100
0.073568 0.0279396 -0.0535309 215 0 0
0.0811305 0.0282272 -0.104085 249 246 231
0.0804362 0.0297458 -0.103684 245 227 208
0.0810796 0.0248319 -0.104781 255 255 229
0.0863416 0.0329151 -0.0928562 201 255 255
0.0778909 0.0316793 -0.0839429 255 255 255
0.0805885 0.0313146 -0.103888 254 243 221
0.0799376 0.0334059 -0.103908 255 255 251
0.0662555 0.013024 -0.0797447 226 106 106
0.0799889 0.0172343 -0.0661548 69 0 0
0.0758756 0.0283015 -0.0771982 255 211 204
0.0814551 0.0193334 -0.0825293 200 95 89
0.0675223 0.0165111 -0.0939037 126 73 66
0.0746324 0.0134154 -0.0937203 207 93 85
0.0803882 0.0264163 -0.103999 255 255 245
0.0772287 0.0372918 -0.086635 158 111 96
0.068691 0.033475 -0.0801778 124 83 69
0.0777025 0.0174728 -0.0850535 255 209 204
0.072598 0.0104213 -0.0809806 255 255 255
0.0815483 0.0298542 -0.101772 255 128 99
0.0684954 0.0340494 -0.077328 122 88 78
0.0796729 0.0343599 -0.103999 255 255 239
0.0677986 0.00971792 -0.0779517 255 255 255
0.0806118 0.0295655 -0.103585 255 218 196
0.081172 0.0216678 -0.101349 255 142 134
0.0864534 0.0278486 -0.0921924 255 255 235
0.0825532 0.0175214 -0.0902403 250 199 186
0.0833441 0.0355105 -0.0968702 160 244 186
0.079606 0.0292626 -0.105748 255 255 255
0.0794881 0.0311367 -0.106152 243 255 255
0.0767662 0.0270087 -0.106223 239 255 255
0.0792874 0.0312777 -0.105045 247 255 255
0.0798555 0.0368948 -0.10479 248 255 255
0.0795395 0.0293787 -0.105685 255 255 255
0.0805496 0.0339428 -0.104809 247 252 255
0.0791362 0.0350558 -0.104115 255 255 255
0.0792383 0.0273303 -0.106519 243 255 253
0.0784779 0.0304457 -0.106097 254 255 255
0.0797697 0.0372665 -0.104786 247 247 255
0.0792508 0.0316255 -0.105781 241 255 255
0.0765058 0.026162 -0.106626 243 255 235
0.0804781 0.0305481 -0.104835 254 195 165
0.0793128 0.0318508 -0.0912452 234 125 110
0.0811545 0.0202872 -0.0974395 235 108 109
0.0835763 0.0254319 -0.0976079 255 128 0
0.0703048 0.0319405 -0.0691012 255 255 255
0.0793287 0.031735 -0.106086 240 255 255
0.0798437 0.0337869 -0.104347 254 255 255
0.0798502 0.0337259 -0.0921591 198 59 56
0.0741325 0.0249975 -0.0649922 251 192 169
0.0684062 0.00894171 -0.0781609 220 89 89
0.0781442 0.0180051 -0.0997879 255 218 206
0.0836565 0.0361248 -0.095002 199 171 163
0.0833528 0.0284268 -0.0973377 235 128 118
0.07423 0.0268591 -0.0752249 236 165 147
0.0691917 0.00979876 -0.0782163 255 255 255
0.0801107 0.0297792 -0.10414 255 244 208
0.06819 0.0133291 -0.0672839 255 255 255
0.0794852 0.0274069 -0.0894357 113 0 0
0.0840061 0.0258747 -0.0991291 241 175 176
0.0772193 0.0338545 -0.0995926 255 187 179
0.0777681 0.0155605 -0.0615185 69 0 0
0.0794262 0.0341224 -0.10412 254 215 201
0.0789343 0.0362986 -0.101668 255 255 219
0.0707144 0.00836036 -0.0792419 255 255 255
0.0696647 0.0339282 -0.0740966 0 0 0
0.0703598 0.0357654 -0.10036 255 150 136
0.083599 0.0362295 -0.097112 162 242 185
0.0729174 0.0117324 -0.0761195 64 43 42
0.0746432 0.00153963 -0.0718086 0 0 0
0.0800275 0.0299029 -0.105181 255 138 122
0.0811754 0.0305259 -0.0968171 222 114 104
0.078789 0.0322382 -0.100069 255 140 112
0.0814155 0.0364182 -0.0955213 198 57 44
0.0814444 0.0350887 -0.0984155 248 176 218
0.0819273 0.0382034 -0.0896855 175 186 144
0.0758924 0.00841876 -0.0767961 240 144 121
0.0833001 0.0367031 -0.0969219 142 230 181
0.081577 0.0216809 -0.0931728 255 142 127
0.0870221 0.0340564 -0.0971597 185 76 87
0.0734147 0.00779259 -0.0776171 255 188 163
0.0850602 0.0171946 -0.0938818 235 185 201
0.0758491 0.0181178 -0.0918461 186 90 84
0.0671652 0.00385008 -0.0739445 255 255 255
0.0704384 0.00845854 -0.0714666 130 70 69
0.0701699 0.00296377 -0.0778953 255 234 229
0.0772569 0.0380554 -0.0833851 164 76 73
0.0599792 0.0221299 -0.049542 87 34 31
0.0636521 0.0134586 -0.0680204 98 44 44
0.0808502 0.0323096 -0.0898181 221 149 135
0.0798444 0.0255854 -0.0852574 218 177 170
0.0767789 0.0242483 -0.0868382 219 91 87
0.0840731 0.0251927 -0.0994486 234 94 0
0.083415 0.0336417 -0.100308 230 241 225
0.0849719 0.0311855 -0.0835995 200 255 255
0.0762213 0.01751 -0.0679003 90 45 43
0.0746432 0.0326603 -0.102424 0 0 0
0.0816459 0.0322258 -0.084228 189 126 105
0.0730969 0.0033062 -0.078037 204 209 188
0.0594125 0.0062613 -0.0563848 255 207 189
0.0714529 0.0326838 -0.0738152 92 0 0
0.080544 0.0291007 -0.0983456 95 0 0
0.0815576 0.0358252 -0.0965045 225 81 76
0.0811723 0.0340184 -0.0908922 192 18 0
0.074 0.016291 -0.0914303 192 112 101
0.085882 0.0330306 -0.0791641 156 255 255
0.0815582 0.0304984 -0.0757564 218 119 101
0.0654156 0.00962823 -0.0801093 222 112 96
0.0591298 0.0235064 -0.0467201 137 107 111
0.0849362 0.0151788 -0.0945354 255 255 255
0.0856389 0.0335061 -0.0963615 250 255 255
0.0647956 0.00928058 -0.0632767 123 70 69
0.088851 0.0339275 -0.0939502 255 132 113
0.0812789 0.0206358 -0.0939347 161 68 59
0.0794337 0.0283793 -0.0917589 211 255 242
0.0838409 0.0236342 -0.0981774 255 0 0
0.0764237 0.0382443 -0.0827417 162 89 81
0.0769792 0.0271143 -0.106914 216 55 46
0.076875 0.0178409 -0.0879329 146 73 68
0.0804974 0.0339089 -0.0992424 195 255 0
0.0794774 0.0326528 -0.10168 255 255 221
0.0683769 0.00880639 -0.0816201 255 185 190
0.0802259 0.030618 -0.0901216 255 53 39
0.0795671 0.0338513 -0.090145 227 100 92
0.0825042 0.0362402 -0.0919941 185 139 130
0.0808685 0.0374881 -0.09438 180 86 78
0.0766762 0.032957 -0.0822335 152 71 66
0.0818519 0.0253647 -0.0919626 222 68 62
0.0796611 0.0366546 -0.0905015 174 88 83
0.0756415 0.0192241 -0.0847948 56 0 0
0.0752268 0.0373613 -0.0911804 123 53 50
0.0701642 0.0355784 -0.100053 255 146 134
0.0762301 0.00319502 -0.0675818 149 0 0
0.0855959 0.0286343 -0.0974452 255 255 255
0.0821527 0.0315209 -0.0995379 250 255 242
0.0791479 0.0368709 -0.0969148 167 56 49
0.066889 -0.00533639 -0.0390342 0 83 101
0.059707 -0.00154079 -0.0463544 255 231 215
0.0799509 0.0361692 -0.101767 239 211 190
0.0630546 0.017857 -0.0853952 119 37 28
0.0824952 0.0269743 -0.0910855 192 70 56
0.0810916 0.0123033 -0.0655666 202 93 90
0.0850215 0.0224176 -0.0842171 0 255 255
0.0726386 0.0336894 -0.0785749 139 58 54
0.0605655 0.00642172 -0.0781901 181 0 0
0.0657371 0.0191996 -0.0458912 26 0 0
0.0777263 0.0416102 -0.0974898 116 155 152
0.0817319 0.0213944 -0.0926698 184 0 0
0.0809195 0.0373339 -0.0830252 255 118 88
0.0837454 0.0414506 -0.0876609 0 99 181
0.0830289 0.0343361 -0.093141 255 255 255
0.0733449 0.00512199 -0.0792822 255 0 0
0.0683452 0.00417008 -0.0534444 72 0 0
0.0809991 0.0130215 -0.08371 139 45 48
0.06905 0.00901312 -0.0728504 84 17 14
0.0693225 0.0052652 -0.0691996 129 78 74
0.0622561 0.0219442 -0.0459881 67 40 45
0.0638018 0.00960857 -0.0690211 81 32 32
0.0816088 0.0363695 -0.0900964 179 118 102
0.0768585 0.0154414 -0.0942602 112 0 0
0.0802824 0.0264136 -0.1033 255 0 0
0.0719685 0.0169333 -0.0479311 149 144 126
0.0826157 0.0327746 -0.0973365 219 151 0
0.0834252 0.0312718 -0.0948305 107 0 0
0.0752425 0.0154634 -0.0670803 111 60 62
0.0787921 0.0230287 -0.0846025 112 24 17
0.0812224 0.0306569 -0.102918 171 63 52
0.0840922 0.0304488 -0.0967148 171 191 0
0.0829996 0.0360336 -0.0847538 255 183 169
0.0810065 0.0308623 -0.0924144 167 14 0
0.0857819 0.0302858 -0.0777647 255 255 255
0.073888 0.0143318 -0.0836704 255 155 141
0.0795729 0.0335015 -0.0932514 214 107 104
0.0724346 0.00494486 -0.0695628 126 74 71
0.0825602 0.0256231 -0.103803 151 45 37
0.0802635 0.0286458 -0.102045 194 83 73
0.0816708 0.028945 -0.0907245 165 91 82
0.0802088 0.0372238 -0.0792167 63 210 184
0.0883927 0.0315776 -0.0926302 238 145 0
0.0810731 0.0349133 -0.086142 198 61 64
0.0755845 0.0282798 -0.103559 109 69 95
0.0627038 0.0145667 -0.0869486 100 30 23
0.0814629 0.0366105 -0.0823523 194 56 45
0.080949 0.0280996 -0.0920226 255 8 11
0.0814826 0.0148799 -0.0968067 121 0 0
0.0858332 0.0288646 -0.0968778 230 0 0
0.0657767 0.0131021 -0.0680461 102 8 6
0.084386 0.0350454 -0.0916711 81 0 90
0.0791998 0.0137099 -0.0971091 120 19 5
0.0576549 0.0140631 -0.0481422 82 18 25
0.0589291 0.00749216 -0.0516055 140 135 132
0.0763465 0.0383041 -0.0830726 160 87 79
0.0753705 0.0257942 -0.106112 216 55 46
0.0839651 0.0328151 -0.0788222 255 255 255
0.0844166 0.0289035 -0.0972076 249 106 0
0.080607 0.0299782 -0.0913018 164 90 78
0.0794083 0.0337388 -0.0919764 212 93 88
0.0840198 0.0364116 -0.0952913 166 142 135
0.0803648 0.0373175 -0.0953267 180 86 78
0.0856104 0.0287646 -0.0969803 101 0 0
0.0813306 0.0282582 -0.0913929 165 0 0
0.083023 0.0174398 -0.0799566 244 134 129
0.0818022 0.017091 -0.0680797 0 0 0
0.0601128 0.0148352 -0.0507903 69 77 74
0.074947 0.00809708 -0.0777753 159 0 0
0.0835619 0.0284615 -0.095054 23 74 48
0.0831166 0.0354759 -0.0960738 231 255 255
0.0749151 0.0440594 -0.101157 255 163 150
0.0745472 0.0118893 -0.0746084 153 102 93
0.0782495 0.0372619 -0.0834823 157 55 51
0.0603895 0.00949102 -0.0495009 31 0 0
0.0635473 0.0182151 -0.086825 110 40 34
0.0794998 0.0295396 -0.0897772 162 0 0
0.0624613 0.0281213 -0.0487778 78 58 62
0.0879794 0.023699 -0.0799301 0 0 0
0.0816125 0.00633953 -0.08294 90 0 0
0.060526 0.0250942 -0.0397291 20 0 0
0.0776932 0.0415019 -0.0984194 116 155 152
0.0810167 0.0129205 -0.0881479 244 189 175
0.0855813 0.0156582 -0.0942762 135 0 0
0.0815231 0.0370301 -0.0809803 255 118 87
0.0825098 0.0412185 -0.0873758 0 99 181
0.0805821 0.0368395 -0.0966505 164 255 220
0.079826 0.0102577 -0.0857121 255 198 192
0.0799202 0.0196529 -0.0958963 204 93 87
0.0795478 0.0305837 -0.104681 228 255 255
0.0794955 0.0304396 -0.105722 242 255 255
0.0788006 0.0307404 -0.105841 239 255 255
0.079814 0.0314436 -0.104207 241 255 255
0.0789249 0.0310913 -0.104761 232 255 255
0.076489 0.0277219 -0.104902 249 255 255
0.0784577 0.0358476 -0.103261 255 248 221
0.0784281 0.0300791 -0.105203 243 234 224
0.0795808 0.0319226 -0.104002 228 255 255
0.0786278 0.0280584 -0.106486 232 255 255
0.0803174 0.0347188 -0.104697 255 255 255
0.0797195 0.0320217 -0.104386 233 255 255
0.0797879 0.0367336 -0.104521 255 255 255
0.0765937 0.0272556 -0.107136 246 246 227
0.0792358 0.0337112 -0.10356 246 233 255
0.0790408 0.0308103 -0.104758 252 255 255
0.0757254 0.0265071 -0.104352 244 229 209
0.0790389 0.0325373 -0.104416 255 255 255
0.0799398 0.0285655 -0.105911 231 255 255
0.0801093 0.0325057 -0.104024 251 255 255
0.0793859 0.0309872 -0.104873 234 255 251
0.0793857 0.0280197 -0.105882 227 255 255
0.0797358 0.0336098 -0.104105 246 255 255
0.0780716 0.0285113 -0.105618 241 255 255
0.0783927 0.0318758 -0.104022 231 255 244
0.0808267 0.026979 -0.104411 235 255 255
0.0794205 0.0306045 -0.103709 253 255 255
0.0795612 0.0372535 -0.104228 255 244 250
