ply
format ascii 1.0
comment Created by Open3D
element vertex 1193
property double x
property double y
property double z
property uchar red
property uchar green
property uchar blue
end_header
0.0602267 0.0317066 -0.0598971 88 68 57
0.0599827 0.028471 -0.0600754 76 61 51
0.0645725 0.0386418 -0.0612931 95 73 62
0.0578417 0.0271814 -0.061118 93 70 61
0.0542814 0.0257546 -0.0599656 92 67 56
0.0667595 0.0341826 -0.0785444 255 213 196
0.0565421 0.0270372 -0.0592816 82 69 63
0.0671918 0.0394011 -0.0606605 99 68 59
0.0385679 0.0475071 -0.0602026 88 68 56
0.0667536 0.0366081 -0.0748255 114 95 79
0.0362551 0.0480529 -0.0630288 44 29 19
0.0529154 0.0248238 -0.0562402 255 255 239
0.0715048 0.0828712 -0.00737208 255 255 255
0.0569248 0.0612757 -0.00974311 255 255 255
0.0583203 0.0267233 -0.0628538 84 52 43
0.0700629 0.0570036 -0.056711 76 44 37
0.0711692 0.0381334 -0.0672279 189 192 169
0.0634599 0.0478241 -0.0180938 51 34 28
0.0672318 0.0379522 -0.0605994 104 80 72
0.0658768 0.0337621 -0.0717906 73 50 37
0.0524376 0.0754186 -0.00883323 24 11 15
0.0530843 0.0232366 -0.0393787 69 52 46
0.0608517 0.0566592 -0.0123244 46 30 25
0.0572475 0.0268511 -0.0603033 90 63 47
0.0596729 0.0281518 -0.0606605 104 69 63
0.0699693 0.040927 -0.0697493 220 166 156
0.041052 0.0326016 -0.0596614 120 98 92
0.0679868 0.048927 -0.0603036 83 59 47
0.0678104 0.0609892 -0.0680745 152 154 136
0.0514912 0.0242839 -0.0626181 96 70 60
0.0593068 0.0277671 -0.0613029 90 62 55
0.0553285 0.0259079 -0.0601081 95 69 58
0.0502451 0.0258267 -0.057857 75 55 49
0.0360057 0.0373705 -0.0328108 55 40 35
0.0663055 0.061486 -0.069365 21 0 0
0.0574831 0.0253364 -0.0614217 93 66 49
0.0653541 0.0344097 -0.0502492 64 46 40
0.0590444 0.025778 -0.0608699 77 0 0
0.0524383 0.0244285 -0.0584509 255 255 255
0.0701296 0.0668022 -0.0336495 133 111 88
0.0567185 0.0256497 -0.0606011 48 3 3
0.0655541 0.0385217 -0.0606433 106 79 67
0.0575692 0.0263113 -0.0592617 62 31 45
0.0494461 0.0261976 -0.0594986 83 62 54
0.0709772 0.0821582 -0.00855654 255 255 255
0.0616683 0.0289794 -0.0602666 102 90 80
0.0587393 0.0262555 -0.0609649 0 0 0
0.0666302 0.0344409 -0.066295 131 100 92
0.0702148 0.0547169 -0.0170605 43 27 19
0.0592488 0.0242041 -0.0372275 92 72 62
0.0673757 0.0767111 -0.0224002 36 25 21
0.0521995 0.0234099 -0.0596032 23 0 0
0.0629962 0.046147 -0.0180073 51 34 28
0.0536717 0.0780017 -0.0140331 48 31 24
0.0669156 0.0342696 -0.0546075 138 113 111
0.0409063 0.0596281 -0.0105107 52 36 31
0.0582416 0.079196 -0.0156912 56 33 25
0.0548509 0.0370663 -0.0152977 48 34 29
0.0540352 0.0261569 -0.0587403 76 52 43
0.06065 0.0304503 -0.060093 96 77 67
0.0406628 0.0346005 -0.0606903 35 16 11
0.0686905 0.0518721 -0.0592997 77 54 45
0.0678303 0.0602611 -0.0692561 20 5 0
0.0553927 0.0254646 -0.0605653 101 71 62
0.0558463 0.0262062 -0.0601809 99 71 59
0.0382092 0.0497356 -0.0593965 104 76 65
0.05267 0.0249106 -0.0588147 255 255 255
0.0343591 0.0380247 -0.0308718 67 47 39
0.067825 0.0677217 -0.0403793 57 43 35
0.0419024 0.031462 -0.0623622 101 73 61
0.0388037 0.0463069 -0.0615898 93 71 62
0.039446 0.0469818 -0.062157 94 70 59
0.0698446 0.059446 -0.0348396 50 35 28
0.0699053 0.0445846 -0.0643483 91 65 55
0.0525052 0.0263834 -0.0586204 36 15 10
0.0643145 0.0303408 -0.0537419 121 104 86
0.0657517 0.0397981 -0.0615509 95 74 63
0.0554283 0.0271645 -0.0591989 38 21 16
0.069431 0.0390121 -0.0736623 116 87 81
0.0651382 0.0333545 -0.059984 129 104 96
0.0581363 0.0615507 -0.00784733 255 255 233
0.0685017 0.032485 -0.0503202 185 141 130
0.0555205 0.023779 -0.036233 79 64 54
0.0458115 0.0268851 -0.0588888 76 59 48
0.0425606 0.0576458 -0.0102865 49 33 28
0.054827 0.0805452 -0.0124279 19 7 10
0.0670764 0.0696984 -0.0607057 1 0 0
0.0686718 0.0314124 -0.0651841 214 213 209
0.0719785 0.0408622 -0.0481468 86 66 68
0.0663408 0.0358103 -0.0533272 101 80 69
0.0678281 0.0346034 -0.0501732 189 143 124
0.0515026 0.0236516 -0.0377136 58 43 37
0.0544139 0.0246534 -0.0593896 0 0 0
0.0655645 0.0354115 -0.0722155 122 90 80
0.0591349 0.0298551 -0.0590435 77 55 45
0.0663212 0.0372351 -0.0759499 122 98 84
0.0671767 0.0433458 -0.0603322 93 72 61
0.0691351 0.0538928 -0.0600486 71 46 38
0.0684458 0.0673454 -0.0363626 51 35 29
0.0713631 0.0577638 -0.0566321 5 46 51
0.0664854 0.0607553 -0.0698269 116 93 84
0.0529144 0.0246338 -0.0634503 87 67 57
0.0561833 0.0251839 -0.0600656 72 39 35
0.0667559 0.0422154 -0.0602389 92 72 62
0.0675694 0.0391905 -0.0608978 99 56 54
0.0677837 0.0449577 -0.0575571 78 60 50
0.0685821 0.0639499 -0.037763 41 27 25
0.0690324 0.0662273 -0.0352787 69 53 44
0.0378894 0.0445311 -0.0646592 101 72 60
0.0432644 0.0309628 -0.0601508 36 22 17
0.0597013 0.0294793 -0.0590803 90 72 63
0.0685564 0.0618327 -0.0380713 38 29 24
0.0431823 0.0296443 -0.0622277 95 68 56
0.0556851 0.027038 -0.0588409 23 10 3
0.0675421 0.0323676 -0.0704379 147 117 106
0.0636672 0.0385561 -0.0631469 95 77 66
0.0700911 0.0685558 -0.0370485 63 48 40
0.0565987 0.0616905 -0.0101501 255 255 255
0.0670016 0.0759035 -0.0117408 255 255 255
0.0677232 0.0378297 -0.0627964 102 83 78
0.0348781 0.0378421 -0.0522266 255 183 140
0.0693094 0.0574282 -0.0359041 56 41 34
0.0699294 0.0815475 -0.0150121 255 255 255
0.0542795 0.0596709 -0.0091865 52 37 33
0.0622467 0.0359547 -0.0319007 51 33 28
0.0727246 0.0647558 -0.0150882 25 0 0
0.0668167 0.0353991 -0.0581088 126 81 71
0.0680062 0.0337531 -0.0644186 240 218 218
0.0646313 0.0315183 -0.0536364 104 74 61
0.0520477 0.0359105 -0.00967656 61 44 36
0.0395037 0.0744036 -0.0129658 54 37 25
0.0660814 0.0765627 -0.0189131 45 25 16
0.065738 0.0340038 -0.0597057 121 97 86
0.0601864 0.0290637 -0.0579144 66 61 68
0.0640854 0.0382982 -0.061925 92 75 64
0.0694807 0.0380816 -0.0660248 181 175 162
0.0384159 0.0428518 -0.0609297 107 76 62
0.0695594 0.0529749 -0.035241 57 42 36
0.0693296 0.0611959 -0.0661163 13 7 6
0.0528734 0.0243062 -0.0602595 158 149 160
0.0678402 0.0388644 -0.0711706 116 91 82
0.0525761 0.0250297 -0.0610651 102 72 63
0.0382785 0.0441362 -0.0617357 102 75 61
0.0702286 0.0490827 -0.033016 55 38 32
0.0696253 0.0572859 -0.0349625 52 38 30
0.0721375 0.0650798 -0.034135 56 0 0
0.0715583 0.0531041 -0.0353365 61 52 45
0.0707967 0.059163 -0.0337328 79 56 46
0.0715473 0.0837941 -0.00589099 255 255 255
0.0595251 0.0277426 -0.0623751 96 69 56
0.0715562 0.0839939 -0.00554679 255 255 255
0.0477732 0.0266948 -0.059566 85 64 57
0.0460152 0.0267988 -0.0610394 84 56 48
0.0574034 0.0608476 -0.0117328 188 174 168
0.0413572 0.0334361 -0.0604479 29 9 2
0.0549309 0.0269229 -0.0590154 34 21 16
0.0699132 0.0645271 -0.0339413 81 60 49
0.0669448 0.0435136 -0.0592041 79 58 46
0.0642418 0.0370071 -0.061092 110 84 71
0.0681458 0.0384677 -0.0745615 148 106 94
0.0670454 0.037091 -0.0634671 114 90 82
0.0400473 0.0357898 -0.0605999 21 2 0
0.053973 0.0265807 -0.0588207 39 23 18
0.0524955 0.0238495 -0.0558536 255 255 255
0.0696794 0.0820483 -0.0152981 255 255 255
0.0712171 0.0549203 -0.0193976 48 34 29
0.0413876 0.0322988 -0.0618864 96 69 56
0.0428775 0.0303031 -0.0600659 86 45 41
0.0591891 0.0429754 -0.0142844 30 15 10
0.0720548 0.0412201 -0.0494125 132 100 92
0.0712445 0.0733974 -0.0155236 31 10 5
0.0635198 0.0297668 -0.0554853 115 110 120
0.0670306 0.035047 -0.0672541 119 96 87
0.0728671 0.0465127 -0.060113 142 132 125
0.0527415 0.0908859 -0.000193731 60 53 50
0.0418079 0.0771473 -0.0140669 48 34 27
0.0712723 0.0559283 -0.0637379 75 49 42
0.0698371 0.0470592 -0.0665681 85 56 48
0.0384195 0.0524005 -0.0690378 77 49 43
0.040785 0.0329037 -0.0604057 78 51 39
0.0433872 0.0289419 -0.0633625 93 67 56
0.0570087 0.0414871 -0.0122589 36 20 14
0.0639089 0.0675491 -0.0119637 43 29 25
0.0656707 0.0754043 -0.0179065 39 25 21
0.0630307 0.0313771 -0.0488467 97 78 67
0.0674596 0.0328591 -0.0569668 0 0 0
0.0729022 0.0519458 -0.0395896 84 74 61
0.0524787 0.024661 -0.0603811 255 255 255
0.0634264 0.0360373 -0.0857748 163 116 103
0.044879 0.027006 -0.0597481 60 42 38
0.0639652 0.0380721 -0.0618699 102 80 69
0.0408005 0.0342223 -0.0603529 27 17 14
0.0677508 0.0438713 -0.06036 93 72 62
0.0692646 0.054004 -0.0354027 53 38 33
0.0609153 0.0598766 -0.0105786 42 28 23
0.0344454 0.0421117 -0.0352774 64 46 40
0.0682344 0.0687779 -0.0359578 18 8 5
0.0532066 0.0246682 -0.061695 88 60 50
0.0519779 0.024738 -0.0611331 96 69 59
0.0621031 0.0322062 -0.0585342 100 100 94
0.0666169 0.0344168 -0.066988 126 97 89
0.0444054 0.0281395 -0.0622317 92 69 57
0.0389672 0.0486977 -0.0604716 93 72 60
0.0386953 0.0615743 -0.0107591 40 24 20
0.0387371 0.0393254 -0.0600711 58 38 28
0.0696345 0.0520414 -0.0338839 63 52 43
0.0659517 0.0405869 -0.0595567 87 69 58
0.032535 0.0514577 -0.0328836 70 54 46
0.066616 0.0707033 -0.0410417 43 28 25
0.0708558 0.0534512 -0.036704 61 43 33
0.0421671 0.0314086 -0.0601304 88 59 46
0.0675537 0.0478798 -0.0593558 78 55 44
0.0697441 0.0512732 -0.0335274 73 53 45
0.0552986 0.0269699 -0.0589035 35 18 12
0.0497528 0.0240573 -0.0559828 255 255 255
0.0650139 0.0384201 -0.0610993 98 77 65
0.0650518 0.0373888 -0.0616882 101 77 67
0.038427 0.040869 -0.0613146 84 49 44
0.0520221 0.0258134 -0.0582399 71 51 46
0.0544891 0.0269659 -0.0595298 44 26 20
0.0705582 0.0825426 -0.00842294 255 255 255
0.0657593 0.0406341 -0.0617201 94 71 60
0.0691642 0.0418424 -0.073959 108 84 69
0.0529851 0.0243817 -0.0551847 255 255 255
0.0662659 0.0415362 -0.0597702 84 62 52
0.0699963 0.0614054 -0.0335255 54 41 37
0.065424 0.0392202 -0.0613745 99 77 65
0.0670847 0.0370326 -0.0701497 123 87 83
0.0676166 0.0690557 -0.0120346 48 30 21
0.06445 0.0776327 -0.0158288 38 20 12
0.048578 0.0689204 -0.0131559 51 32 24
0.0702646 0.0627501 -0.0386269 60 48 40
0.0694493 0.0370625 -0.0536688 163 140 124
0.0572468 0.0867917 0.0138206 164 148 136
0.0389758 0.0349069 -0.0581262 91 66 59
0.0636701 0.0368084 -0.0232546 63 41 33
0.0659926 0.0966423 0.00618779 105 80 74
0.03691 0.0808576 0.0100777 7 0 37
0.0677317 0.076761 -0.0210585 45 26 20
0.0403091 0.0595754 -0.0609243 68 44 37
0.0622571 0.0801544 -0.0211282 42 26 18
0.0731328 0.0690048 -0.0531057 54 0 0
0.0650362 0.0364613 -0.0631842 102 76 65
0.0658303 0.033464 -0.068222 130 109 102
0.0483602 0.0808947 -0.0396456 45 30 27
0.0686086 0.0317056 -0.0479265 211 164 153
0.0661627 0.0332212 -0.0787482 135 98 89
0.054124 0.0234297 -0.0397385 70 53 46
0.0614472 0.035858 -0.0267267 72 50 43
0.0700922 0.0479756 -0.0681755 86 56 47
0.0650592 0.0338669 -0.0593608 114 86 72
0.0663799 0.0716659 -0.0577529 65 34 24
0.0726224 0.0612028 -0.0509324 52 35 30
0.071959 0.0711774 -0.015151 39 11 1
0.0711493 0.0388351 -0.0514569 66 55 54
0.0641681 0.0403138 -0.0308174 62 45 38
0.0517971 0.038166 -0.00941814 26 8 3
0.0465616 0.0222826 -0.03305 113 88 75
0.0681427 0.0389142 -0.064931 113 92 84
0.0622888 0.0472969 -0.00863167 33 10 0
0.0694945 0.0379725 -0.0534097 163 140 128
0.0583455 0.0345375 -0.0205131 55 38 33
0.0615466 0.0948085 0.00982416 105 92 107
0.0255276 0.0739475 0.00668388 86 46 34
0.0719905 0.0473281 -0.065669 169 138 120
0.0529587 0.0827023 -0.0144214 25 24 16
0.0663047 0.0368927 -0.0647627 102 77 67
0.0632964 0.0797308 -0.0173882 0 0 0
0.0572001 0.0286596 -0.0176738 129 83 77
0.0721381 0.0628483 -0.0500079 88 55 52
0.0609558 0.0837457 -0.0318799 32 22 18
0.0643773 0.0335042 -0.0595927 94 68 57
0.0622669 0.0394581 -0.0299285 57 38 32
0.0622739 0.0763692 -0.0161364 212 183 188
0.0553944 0.0252089 -0.0612344 102 67 56
0.0505247 0.0260306 -0.058026 73 50 44
0.0524472 0.0250081 -0.0602828 93 85 78
0.06913 0.0429457 -0.0587442 133 140 151
0.0384948 0.0413188 -0.0610145 99 75 63
0.0695704 0.0505866 -0.0352108 57 41 35
0.0693984 0.05882 -0.0560367 94 72 61
0.0525027 0.0247245 -0.0618047 88 58 48
0.0523989 0.0253894 -0.0600471 115 96 84
0.0445973 0.0258904 -0.0618672 85 62 54
0.0668218 0.0377167 -0.0688456 102 76 67
0.069816 0.0392097 -0.0670622 124 107 98
0.0684171 0.0592836 -0.0580079 78 57 47
0.0378936 0.0416654 -0.062524 110 75 62
0.0534469 0.0256076 -0.0582139 69 49 41
0.0388129 0.05047 -0.0609538 101 74 63
0.0695025 0.0362305 -0.0791059 143 88 84
0.0526243 0.0251106 -0.0572384 255 255 255
0.0671661 0.0606618 -0.0681996 14 0 0
0.0715708 0.0839451 -0.00569415 255 255 255
0.0416016 0.0324795 -0.0609283 83 60 50
0.041695 0.0297996 -0.0612506 29 4 0
0.038633 0.0426446 -0.0606306 38 21 13
0.0382667 0.0451752 -0.0611704 104 77 65
0.0670251 0.0370669 -0.0612287 95 78 72
0.0668189 0.0337214 -0.0712504 142 116 108
0.0672448 0.0469326 -0.0608748 84 62 53
0.0685129 0.0351855 -0.0631632 92 69 62
0.0382499 0.0430468 -0.0624362 102 76 65
0.0629526 0.0387805 -0.0660673 93 74 63
0.065589 0.0738914 -0.0161924 40 27 21
0.0345958 0.0394257 -0.0542069 193 149 134
0.0706846 0.0659106 -0.0603145 255 255 255
0.0690614 0.0604021 -0.037321 50 37 30
0.0700421 0.0814078 -0.0151151 255 255 255
0.0517874 0.0239683 -0.0572111 255 255 255
0.0383216 0.0406522 -0.0613367 104 78 62
0.0709604 0.0837977 -0.00630252 255 255 255
0.0442787 0.0295839 -0.0601337 36 18 14
0.0708278 0.082205 -0.00871316 255 255 255
0.0701635 0.0480547 -0.0498744 50 31 26
0.0679137 0.0418031 -0.062687 90 66 55
0.0715036 0.0394282 -0.0501871 60 43 40
0.0579189 0.031669 -0.0252665 57 37 29
0.0585468 0.0356749 -0.027198 59 41 35
0.0650925 0.0700055 -0.0589724 75 49 37
0.0505883 0.0226301 -0.0441167 80 57 52
0.0675765 0.0381977 -0.0762688 145 112 100
0.0476301 0.034795 -0.0032845 104 82 76
0.0617458 0.0388467 -0.0286707 53 35 29
0.0633539 0.0314264 -0.0595665 119 103 94
0.0515177 0.0249651 -0.0329972 68 48 40
0.0469723 0.0757798 -0.0104953 4 0 0
0.0706766 0.0768532 -0.0229965 39 23 16
0.0690041 0.0695211 -0.0415992 48 31 26
0.0426371 0.0782677 -0.0176654 44 29 24
0.0418224 0.0316945 -0.0621166 93 69 57
0.0702895 0.0689145 -0.0433277 47 35 28
0.0539333 0.0243493 -0.0241412 98 91 79
0.0386287 0.0508257 -0.0704098 84 64 53
0.0714019 0.0464787 -0.046744 72 55 51
0.0698106 0.0392378 -0.0636989 116 98 88
0.0339634 0.0521896 -0.0540228 61 43 35
0.0728437 0.0591751 -0.0511897 55 35 29
0.0462957 0.0781467 -0.0145227 45 32 27
0.0594287 0.0537272 -0.0133595 52 35 29
0.0699364 0.0668918 -0.052861 115 93 77
0.0401424 0.0279248 -0.0441893 52 34 29
0.0604762 0.0371483 -0.0279066 49 34 28
0.0485651 0.0737277 -0.0122941 50 42 43
0.0679066 0.0386117 -0.0758321 118 102 92
0.0650918 0.0358418 -0.071053 100 70 60
0.0729194 0.0708796 0.00184366 31 17 16
0.0596922 0.0318554 -0.0274714 52 37 30
0.0617993 0.028053 -0.0581022 94 107 109
0.0628826 0.0420684 -0.0186078 36 14 8
0.0520827 0.072455 -0.01146 30 15 17
0.0643374 0.0310048 -0.0494313 55 42 39
0.0662459 0.0391528 -0.0613664 96 73 64
0.0623991 0.075646 -0.0152635 43 29 23
0.0452062 0.070702 -0.0132278 40 26 20
0.0696651 0.0747898 -0.0151003 40 27 20
0.0421975 0.0315045 -0.0610422 86 65 53
0.0626989 0.032151 -0.0611383 112 93 83
0.0614327 0.0294136 -0.0276922 36 24 20
0.0504705 0.0245009 -0.0273495 87 92 73
0.0691694 0.0435791 -0.0570716 102 100 110
0.0698442 0.0489404 -0.0356424 56 41 34
0.0655295 0.0391257 -0.0333393 60 42 36
0.064879 0.0701435 -0.0593343 66 47 39
0.0672066 0.0376959 -0.0647932 108 83 75
0.0511322 0.0794616 -0.0148712 47 32 24
0.0665479 0.0377729 -0.0679456 80 57 47
0.067516 0.0669941 -0.0637554 50 33 26
0.0559205 0.0985528 0.00860155 32 36 52
0.0494404 0.0253415 -0.0596932 74 69 65
0.050663 0.0243342 -0.058051 255 255 255
0.0526148 0.0247428 -0.0597512 255 255 248
0.0556644 0.0254481 -0.0602592 50 72 60
0.0465392 0.0270005 -0.0683811 77 52 44
0.0517806 0.0250304 -0.0607278 96 66 57
0.0612151 0.029749 -0.0586887 80 45 60
0.0613412 0.0306558 -0.0622705 96 72 61
0.0626784 0.037429 -0.0640903 96 79 67
0.0556487 0.0331323 -0.0250916 50 39 33
0.0690113 0.0401098 -0.0667567 128 104 92
0.0698289 0.0553287 -0.035831 59 43 36
0.0693981 0.0603767 -0.0640031 69 45 38
0.0673698 0.0604704 -0.0701261 86 69 58
0.0548134 0.0245507 -0.061733 102 71 62
0.0562089 0.0245363 -0.0608777 92 64 50
0.0531123 0.029357 -0.0285091 58 40 33
0.0424518 0.0305812 -0.0598685 79 53 43
0.0424928 0.0295984 -0.0600045 71 73 75
0.0674236 0.0390635 -0.0710627 92 73 64
0.0387458 0.0420973 -0.0601011 61 37 32
0.0697009 0.0547821 -0.0340205 12 0 0
0.0534009 0.0237987 -0.0610343 100 63 50
0.0396421 0.0501532 -0.0625286 82 60 50
0.0709032 0.0429873 -0.0535718 204 212 234
0.042945 0.0260167 -0.0580333 62 35 58
0.0407288 0.031556 -0.0600551 136 121 89
0.0641746 0.0351257 -0.0594518 89 64 54
0.0524706 0.0236482 -0.0566248 255 255 255
0.0503152 0.0259109 -0.0579377 74 53 46
0.0707023 0.0777139 -0.0237218 44 23 17
0.0401625 0.0352581 -0.0602301 42 33 27
0.0695763 0.0530221 -0.0336931 13 0 0
0.0610945 0.0317916 -0.0572261 18 3 0
0.0705425 0.0653785 -0.0340246 101 84 69
0.0691814 0.0812455 -0.0165279 255 255 255
0.068565 0.0368087 -0.0645268 255 228 230
0.0684967 0.0400148 -0.0709256 148 106 100
0.0524188 0.0234891 -0.0560723 255 255 255
0.0620276 0.0301901 -0.0631794 98 73 64
0.069904 0.0395895 -0.0728299 141 103 95
0.0696824 0.0532507 -0.0365359 55 40 33
0.0509369 0.0255236 -0.0572361 83 68 60
0.0708155 0.0829794 -0.00777867 255 255 255
0.0679434 0.03832 -0.0618258 80 64 55
0.0695709 0.0585696 -0.0347467 14 0 0
0.0688091 0.0352098 -0.0530011 131 99 95
0.0501923 0.0359856 -0.00835808 55 44 38
0.0663605 0.044681 -0.0337029 57 42 35
0.051233 0.0348888 -0.0113864 43 32 26
0.0674507 0.0755197 -0.0122896 255 255 255
0.0481149 0.0224272 -0.0424161 74 66 59
0.0628181 0.0287429 -0.0489927 87 63 54
0.0595226 0.0363032 -0.0280637 56 38 32
0.0633864 0.0393664 -0.026152 32 0 0
0.0632298 0.0388849 -0.0296186 47 35 29
0.0426917 0.0298894 -0.0628691 98 71 56
0.0631604 0.0297962 -0.0668085 115 92 80
0.0565805 0.0262056 -0.0289719 65 57 47
0.0668419 0.0361354 -0.0686845 119 93 81
0.0584464 0.034099 -0.0257083 90 68 54
0.0664441 0.0366085 -0.0331142 68 53 47
0.052334 0.0376019 -0.0141624 48 33 27
0.0444877 0.0376024 0.0021736 55 41 39
0.0437596 0.0363049 -0.00584381 35 19 14
0.0552028 0.0473464 -0.00276725 39 25 26
0.05576 0.0465393 -0.00895843 54 39 31
0.060802 0.0660884 -0.0115702 36 28 29
0.0611868 0.0642683 -0.0112688 37 18 12
0.0605096 0.0640725 -0.0103086 50 41 32
0.0566126 0.0645431 -0.0142703 47 31 26
0.0386558 0.0628958 -0.0163296 65 45 37
0.0389322 0.0631256 -0.0166951 62 39 28
0.0331603 0.0647426 -0.0228063 44 30 25
0.0471543 0.0691558 -0.0134609 45 31 25
0.0416506 0.0632963 -0.0160355 51 35 28
0.0527698 0.0243129 -0.0278567 76 67 56
0.0640949 0.0352886 -0.0821055 120 74 72
0.0554462 0.0388596 -0.0138894 44 28 22
0.0403445 0.0428188 -0.00567678 51 37 34
0.0664615 0.0430002 -0.03209 64 48 39
0.0581029 0.0568944 -0.0130642 51 35 29
0.0472705 0.0619353 -0.00826412 46 36 31
0.0587285 0.0651938 -0.0123522 30 20 23
0.0438443 0.0486361 -0.00789455 45 30 24
0.0572481 0.0606541 -0.0134479 46 30 24
0.0480818 0.060605 -0.0109188 48 33 26
0.0569382 0.033825 -0.0263395 61 41 34
0.0489761 0.0394578 -0.00794271 48 34 30
0.0649135 0.046442 -0.0174409 48 32 25
0.0566195 0.0433809 -0.0113548 47 33 27
0.0511946 0.054039 -0.00597688 47 41 34
0.0368647 0.0533707 -0.0667535 67 33 0
0.0633079 0.0773466 -0.0174991 41 26 20
0.0716524 0.0622316 -0.0369423 76 70 59
0.0471567 0.0364754 -0.00889899 33 20 16
0.0448993 0.0365406 -0.00458948 28 22 17
0.0515539 0.0807403 -0.0151683 40 29 25
0.0357013 0.0481834 -0.0108522 44 30 24
0.0555143 0.0253693 -0.0293891 66 57 44
0.048156 0.0247221 -0.0625413 84 58 50
0.0480847 0.0534607 -0.00848752 48 33 27
0.0506603 0.0338289 -0.00940457 45 33 25
0.0639775 0.0721962 -0.0119403 14 13 13
0.0707735 0.0529694 -0.0628016 83 57 49
0.0630985 0.0300982 -0.0648604 104 89 81
0.0536837 0.0364067 -0.0146656 48 33 27
0.0598078 0.0413854 -0.016646 43 28 22
0.0574157 0.0579794 -0.0134554 51 35 29
0.0610902 0.0387269 -0.0195304 42 27 22
0.0436029 0.0644323 -0.0101249 49 32 26
0.0278433 0.0737198 -0.00423053 62 33 28
0.0681553 0.0429719 -0.0609415 97 72 62
0.0483449 0.0330732 0.00308467 118 78 86
0.0557241 0.0238366 -0.0481592 69 47 40
0.0414168 0.0510819 -0.00895005 49 33 27
0.0665862 0.0695773 -0.0122916 44 31 26
0.061421 0.0385132 -0.0269644 51 34 28
0.0395864 0.0575443 -0.0636088 79 54 44
0.0508234 0.0362411 -0.00937474 60 47 40
0.0624866 0.0269621 -0.0376288 93 78 70
0.0589421 0.0279111 -0.0272938 23 7 3
0.0647113 0.0353022 -0.031735 79 66 56
0.0719268 0.0458883 -0.0648757 144 124 109
0.062981 0.0335231 -0.0593065 113 87 80
0.056485 0.0598833 -0.0124147 46 30 25
0.0604258 0.0378765 -0.0196334 42 27 22
0.0731996 0.0542186 -0.0389606 68 55 45
0.049877 0.0302615 -0.0170341 79 63 51
0.0566309 0.0287409 -0.0207868 79 54 47
0.0598108 0.0520251 -0.0136843 51 34 29
0.0701981 0.0613644 -0.0608317 65 51 45
0.0724939 0.0601082 -0.0149694 23 0 0
0.0713772 0.0687834 -0.0183876 40 27 23
0.037297 0.0721354 -0.0159654 42 30 29
0.0660372 0.0339078 -0.0707211 141 110 101
0.0532102 0.0581811 -0.00862287 40 29 29
0.0516906 0.036231 -0.00519617 66 66 64
0.064982 0.0399776 -0.0204229 0 0 0
0.0423616 0.0455975 -0.00696147 50 35 29
0.0585712 0.0655088 -0.0128586 44 29 24
0.0324003 0.0519162 -0.0519519 0 0 0
0.032879 0.0525943 -0.0523961 65 52 45
0.0719598 0.0683676 -0.016407 29 8 3
0.0634081 0.0317163 -0.0656876 105 83 71
0.0689385 0.0421193 -0.0690482 103 78 68
0.0573948 0.0328201 -0.0263587 59 40 34
0.0617651 0.0353715 -0.0274352 52 37 33
0.045508 0.0357539 -0.00777756 36 24 18
0.065128 0.0359153 -0.0197779 16 0 0
0.050033 0.0453336 -0.00806474 45 30 24
0.0705488 0.0449136 -0.002606 0 0 0
0.0528871 0.0599377 -0.0104636 46 30 23
0.0566657 0.0578714 -0.0117572 45 22 14
0.0608141 0.0660439 -0.0108353 32 22 17
0.0398249 0.0624722 -0.0109016 45 28 25
0.0435092 0.0656367 -0.0153742 48 32 26
0.0412719 0.0655244 -0.0152225 47 30 24
0.0405563 0.0776315 -0.0169589 47 31 25
0.0476952 0.0259696 -0.0614947 83 57 50
0.0577048 0.0393674 -0.014599 51 34 27
0.0467017 0.0324221 -0.0118886 41 28 24
0.0400511 0.0433317 -0.00648318 45 29 22
0.0411214 0.034814 -0.00856623 53 35 34
0.0723388 0.0617656 -0.0154337 14 0 0
0.0498018 0.0597291 -0.00815088 48 33 26
0.0762389 0.064422 -0.0232347 57 19 12
0.0581263 0.0593791 -0.012648 42 28 23
0.0407931 0.0430366 -0.00607711 54 37 32
0.0581262 0.0620547 -0.0119467 50 33 24
0.040548 0.0568768 -0.00983541 52 36 30
0.0456094 0.0407391 -0.00383583 53 43 41
0.0585736 0.0332096 -0.0261425 60 45 37
0.0721535 0.06596 -0.0202606 45 29 22
0.0602981 0.0255651 -0.0391979 88 71 64
0.0552823 0.0472084 -0.00994885 49 34 27
0.0459097 0.0789715 -0.0146462 43 31 28
0.0707376 0.0581738 -0.034245 69 52 44
0.062937 0.0317778 -0.0201982 19 0 0
0.0628813 0.0730489 -0.0149381 42 26 21
0.072247 0.0508245 -0.0638643 95 69 55
0.0328604 0.0500802 -0.0618138 92 75 64
0.0711771 0.0585399 -0.063809 77 50 42
0.0379692 0.0710967 -0.0168356 42 28 24
0.070133 0.0410932 -0.0646369 127 113 102
0.0584522 0.0365056 -0.0188958 44 30 25
0.0603798 0.0398142 -0.0180253 45 30 25
0.0694687 0.0519355 -0.0366758 52 36 30
0.0615722 0.0369108 -0.0199424 76 52 47
0.0585135 0.0553825 -0.0130899 51 35 29
0.0626669 0.0377052 -0.0201349 71 47 30
0.0625689 0.0323949 -0.0500584 71 56 46
0.0599357 0.0340402 -0.0272135 56 37 31
0.0593336 0.0489813 -0.0130522 44 28 22
0.0535493 0.0768916 -0.0145332 42 27 22
0.0577657 0.0246873 -0.0474381 61 41 35
0.0688132 0.0370195 -0.0633696 154 132 128
0.070842 0.0617713 -0.00929598 42 25 18
0.0395992 0.0749296 -0.0173551 43 28 23
0.0536742 0.0339571 -0.0144716 49 36 27
0.0610074 0.0805632 -0.0417221 46 30 24
0.0611667 0.0277002 -0.0351936 97 69 62
0.0501999 0.0409034 -0.00468605 39 25 18
0.0491354 0.0710994 -0.0131005 45 29 24
0.0407407 0.0327447 -0.00414709 93 77 56
0.0707262 0.043074 -0.066058 151 121 120
0.0621282 0.0427594 -0.0209927 55 38 32
0.0626879 0.0347553 -0.0610669 106 81 70
0.05528 0.0547419 -0.00905767 48 34 28
0.0596603 0.037213 -0.0190635 42 27 22
0.0519094 0.0506881 -0.0081656 48 32 25
0.0633483 0.0668871 -0.0118274 45 29 22
0.0514673 0.0310976 -0.0219998 65 46 36
0.0708611 0.0610372 -0.0595337 77 47 39
0.049592 0.0252878 -0.0608133 96 67 57
0.0722168 0.0452127 -0.0497114 188 176 184
0.0414732 0.074694 -0.0163669 46 31 25
0.0323244 0.0579245 -0.0197229 48 35 28
0.033671 0.0559603 -0.0523335 0 0 0
0.0359028 0.0532487 -0.0457332 51 34 28
0.0730574 0.0667551 -0.0152769 25 0 0
0.0663032 0.078902 -0.0222295 36 23 19
0.0493423 0.0261756 -0.0585652 75 53 46
0.0527534 0.0245731 -0.0601234 255 248 241
0.0509127 0.0242065 -0.0594431 255 255 255
0.0567694 0.0260747 -0.0605361 122 93 71
0.0494552 0.0257954 -0.0573732 78 62 53
0.0643407 0.0362774 -0.0843952 154 122 106
0.0601639 0.0307767 -0.05811 81 69 61
0.0621484 0.0331587 -0.0603948 106 87 75
0.0628117 0.0381778 -0.0649077 91 70 61
0.0700346 0.0413102 -0.0545999 122 137 171
0.0673401 0.0404306 -0.0721431 77 50 40
0.0672064 0.0449232 -0.0598838 82 59 48
0.0694041 0.0423888 -0.0584866 134 129 147
0.0688275 0.0469309 -0.0617039 94 69 59
0.0389942 0.0402145 -0.0600007 55 33 27
0.0389665 0.0382857 -0.0623243 97 73 58
0.0700593 0.0540111 -0.0346523 63 50 44
0.0696477 0.0548343 -0.0588896 54 45 39
0.0684884 0.0623346 -0.0660566 57 40 20
0.0556821 0.0246766 -0.0606135 80 39 30
0.0668633 0.0345156 -0.0789381 230 221 202
0.0431463 0.0289748 -0.0601055 108 86 77
0.0438979 0.0281506 -0.061781 97 73 60
0.0434708 0.029375 -0.0602957 89 71 63
0.038464 0.0418735 -0.0611176 102 73 59
0.0386595 0.0448947 -0.0616019 103 72 59
0.0697248 0.051842 -0.0567547 98 63 53
0.0369514 0.0462721 -0.0561135 118 92 76
0.0532762 0.0247432 -0.0604939 105 73 66
0.0665435 0.0427043 -0.0598681 80 60 49
0.0676656 0.0471703 -0.0353049 57 41 35
0.0680466 0.0389022 -0.0759725 132 109 97
0.0700281 0.0599061 -0.0344831 55 45 38
0.0681911 0.0436968 -0.0563135 99 82 70
0.0383098 0.0449774 -0.0626111 100 70 59
0.0389357 0.0434496 -0.0612515 88 69 56
0.0372742 0.0442497 -0.063816 87 60 50
0.0400524 0.034657 -0.0612609 99 64 53
0.0418902 0.0321278 -0.0597277 33 16 10
0.0633413 0.0389401 -0.0652092 88 70 60
0.0384709 0.039344 -0.0609855 89 63 51
0.0661311 0.0381381 -0.0585857 124 103 79
0.0693601 0.0562572 -0.0562952 90 62 51
0.0624176 0.0384345 -0.066852 87 69 58
0.0346869 0.0397733 -0.051113 211 142 126
0.0706522 0.0825134 -0.00852928 255 255 255
0.0672258 0.0809106 -0.0280957 18 6 5
0.0437021 0.0289838 -0.0608868 100 68 59
0.0640759 0.0387169 -0.062359 89 71 60
0.0675812 0.044442 -0.059612 94 68 61
0.0707202 0.0623381 -0.0354636 85 65 51
0.0696121 0.058564 -0.0349747 53 39 30
0.0695202 0.0527415 -0.0344156 68 55 46
0.0680258 0.0394304 -0.0714894 113 93 84
0.0428336 0.0306783 -0.0609384 86 66 54
0.0391844 0.0478448 -0.0611261 92 65 55
0.038679 0.0393008 -0.0612449 100 78 68
0.0700612 0.0506507 -0.0336303 59 44 36
0.0709292 0.0601438 -0.0516702 103 78 66
0.0511477 0.0261529 -0.0586464 77 56 51
0.0384466 0.0413337 -0.0610139 100 76 64
0.0544624 0.0244352 -0.0602356 74 30 6
0.0684997 0.0472251 -0.0600216 97 72 62
0.0638973 0.0731378 -0.0125981 5 0 0
0.042562 0.0287822 -0.0610898 95 79 57
0.0690621 0.0494923 -0.0551551 82 64 56
0.0381112 0.0455207 -0.0660893 94 67 55
0.0692147 0.0810147 -0.0164147 255 255 255
0.0687907 0.0400074 -0.0662667 135 112 101
0.0674989 0.0384683 -0.0678255 110 89 78
0.0670313 0.0423117 -0.0330625 60 42 36
0.0473385 0.0271679 -0.0709434 95 66 56
0.0619172 0.0328084 -0.0609123 108 86 77
0.0380658 0.0533753 -0.062414 96 76 64
0.0614005 0.0255254 -0.0377648 97 88 82
0.0686086 0.0391927 -0.066866 135 107 99
0.0650202 0.0487577 -0.0180325 53 37 31
0.0687545 0.0684433 -0.0393626 57 44 36
0.0374613 0.0362574 -0.0525023 47 30 26
0.0531884 0.0296489 -0.0137724 114 107 101
0.068059 0.0703662 -0.0609247 75 86 58
0.0725705 0.0435663 -0.0490425 58 42 37
0.0662799 0.0679948 -0.06229 64 43 37
0.0377102 0.0349964 -0.0521431 47 31 26
0.0603167 0.0473835 -0.0194452 53 35 30
0.0746013 0.0750996 0.0093552 30 32 46
0.0702813 0.0740155 -0.0409845 55 28 22
0.0382478 0.0341224 -0.0524016 50 33 28
0.0638779 0.033701 -0.0491345 69 50 43
0.0719596 0.0405081 -0.0485044 57 42 35
0.0657104 0.0349278 -0.0592949 119 95 84
0.0675632 0.0753122 -0.0203636 61 40 29
0.0658978 0.0341808 -0.0597618 128 105 97
0.0676034 0.0743796 -0.0193864 45 30 24
0.0714885 0.0414025 -0.053288 29 0 0
0.0660993 0.0314742 -0.0718021 160 129 122
0.0583429 0.0371214 -0.0148988 42 28 21
0.0692865 0.0503482 -0.0194009 48 33 29
0.0311407 0.0760218 0.0058857 118 57 49
0.0714468 0.058959 -0.0370271 63 56 47
0.0637249 0.0402345 -0.0299681 62 48 41
0.0381818 0.0312712 -0.0457892 51 33 28
0.0647095 0.0316932 -0.0514458 92 71 58
0.0505945 0.0395709 -0.00872405 41 28 22
0.0594931 0.0820464 -0.0251862 41 28 23
0.0682455 0.0445899 -0.0343734 62 43 37
0.0475478 0.0256476 -0.0658739 86 56 48
0.0351559 0.0378987 -0.0353897 56 38 31
0.0360836 0.0348864 -0.0460202 50 32 27
0.0672909 0.0674375 -0.0599311 67 42 35
0.0622792 0.0386049 -0.0296769 53 36 30
0.0647952 0.0382238 -0.0301871 52 36 29
0.0386522 0.0568143 -0.0633009 80 51 35
0.0675426 0.0677452 -0.0606447 54 35 29
0.0679047 0.0325266 -0.0756273 138 99 95
0.0358811 0.0391668 -0.0512964 47 30 23
0.0598408 0.0440504 -0.0142949 28 15 10
0.0750257 0.0707856 0.00700692 37 7 3
0.0348885 0.0461246 -0.0499128 45 28 23
0.0346536 0.03612 -0.0445085 50 34 28
0.0390987 0.0332654 -0.0527794 47 31 26
0.0730576 0.0412186 -0.0478031 58 35 30
0.0708657 0.0423758 -0.0513332 158 149 132
0.0702998 0.059953 -0.0630331 67 40 34
0.0687735 0.0741518 -0.0199778 55 39 33
0.0696461 0.0410377 -0.0352338 66 54 47
0.0387492 0.0537419 -0.061438 81 58 47
0.0668181 0.0757489 -0.0163972 47 34 28
0.0684725 0.063007 -0.0617257 61 40 33
0.071722 0.0478422 -0.0470059 94 81 76
0.0673577 0.0322073 -0.0715641 160 126 121
0.0415062 0.0837237 -0.0310056 65 41 30
0.0642576 0.029936 -0.0645398 145 114 101
0.0315202 0.0789546 -0.00580945 92 71 67
0.0701116 0.061687 -0.0358527 53 41 36
0.0388096 0.02863 -0.0432635 57 37 32
0.0656091 0.0310353 -0.0524556 95 77 67
0.068777 0.0654326 -0.0587557 62 42 39
0.0730796 0.0422643 -0.0474845 80 65 53
0.0506292 0.0261237 -0.0580203 25 17 14
0.053085 0.025818 -0.0601595 96 69 62
0.059802 0.0305726 -0.0590361 79 63 52
0.0666371 0.0376953 -0.0757464 134 96 80
0.0380047 0.0399271 -0.0615836 104 74 50
0.0386767 0.0400887 -0.0613529 102 77 63
0.0348665 0.0400229 -0.0341321 64 46 40
0.0696596 0.0550453 -0.0350283 58 45 37
0.0346556 0.0441646 -0.0361595 57 39 33
0.0674229 0.0629217 -0.0675607 32 24 4
0.0400664 0.0579303 -0.0609453 50 34 29
0.0551448 0.0249441 -0.0604277 84 68 60
0.0539627 0.024153 -0.0604977 63 36 21
0.0446028 0.0281152 -0.0602724 93 67 58
0.0424169 0.0301331 -0.0604989 112 73 61
0.0529676 0.0248534 -0.0603376 70 43 34
0.0630109 0.0302211 -0.0618671 94 68 55
0.0701861 0.0404385 -0.0638448 89 75 68
0.0683197 0.0642816 -0.0389666 52 38 31
0.0696279 0.0612953 -0.034899 59 41 33
0.033897 0.0475868 -0.0345751 60 43 35
0.0677133 0.061624 -0.0582357 58 38 33
0.0557621 0.0272335 -0.0588945 35 24 15
0.0391392 0.0375486 -0.0625752 106 77 64
0.0400093 0.0505492 -0.0632505 81 58 49
0.062868 0.0390077 -0.0665609 88 72 60
0.0523897 0.0241897 -0.0577588 53 28 14
0.0674731 0.0792793 -0.0227288 40 24 20
0.0402581 0.0351254 -0.0607963 33 5 0
0.0676868 0.0777061 -0.00950163 255 255 255
0.0342114 0.0428345 -0.0545552 224 185 188
0.0670003 0.0436537 -0.060197 86 64 55
0.0707864 0.0536491 -0.0385547 62 47 40
0.0665274 0.0377688 -0.0617275 106 80 70
0.0695271 0.0518215 -0.0334611 63 43 37
0.0668202 0.0397675 -0.0758071 86 60 47
0.0445499 0.0286279 -0.0597039 74 53 46
0.0667166 0.034641 -0.067421 115 90 81
0.0388683 0.0414515 -0.0603544 70 49 36
0.0681847 0.0652299 -0.0407214 55 41 34
0.0345012 0.0500594 -0.0366509 59 41 34
0.04947 0.022422 -0.0426728 87 68 62
0.0680203 0.0404131 -0.034605 53 37 31
0.0383895 0.0404722 -0.0624683 101 73 61
0.0696509 0.0409766 -0.0638576 83 58 47
0.0672828 0.0614579 -0.0687186 22 0 0
0.0632303 0.0391323 -0.0657868 90 71 59
0.0686641 0.0614356 -0.0649433 76 53 47
0.0512172 0.0245767 -0.0606381 103 78 60
0.0688909 0.0688929 -0.0358508 82 69 57
0.0723814 0.0618764 -0.0358861 92 73 56
0.0693015 0.03733 -0.0659551 255 228 235
0.0698794 0.0399601 -0.070769 214 187 169
0.035651 0.0536401 -0.0479411 74 54 47
0.0676519 0.0395245 -0.0770246 128 101 85
0.0682699 0.0409746 -0.0725495 96 76 67
0.0682316 0.0387176 -0.067701 120 103 96
0.0335574 0.0473774 -0.0531636 56 40 35
0.0398476 0.057731 -0.0616247 75 52 41
0.0657629 0.0472789 -0.0170291 49 34 29
0.0641922 0.0744607 -0.0152616 42 29 25
0.0526075 0.0357837 -0.0149567 49 33 27
0.0623388 0.0783819 -0.0410257 54 35 29
0.0573168 0.0472195 -0.00932685 48 32 24
0.0379369 0.0481882 -0.0646572 100 73 62
0.0448578 0.0278116 -0.0594652 87 65 57
0.0710185 0.06764 -0.0564786 56 26 23
0.0395638 0.0553116 -0.0632061 80 54 44
0.0660178 0.0720965 -0.0430953 49 34 28
0.0664341 0.0700208 -0.0584254 86 51 43
0.0538954 0.0242469 -0.0323167 46 28 24
0.0427118 0.0270927 -0.0397904 56 38 35
0.0562362 0.0596462 -0.0135179 50 33 26
0.0660043 0.040817 -0.0251381 83 64 55
0.0658519 0.0406603 -0.0332556 61 45 38
0.0698552 0.0730588 -0.0192944 48 32 26
0.0677595 0.0724484 -0.044927 54 37 31
0.0581192 0.0786654 -0.014438 40 22 20
0.0567645 0.0242377 -0.0408014 80 60 51
0.0516686 0.0236215 -0.0470701 64 43 38
0.0448889 0.0267203 -0.063036 90 61 51
0.0619439 0.0778782 -0.0223728 46 31 24
0.071632 0.0490259 -0.0464412 107 97 89
0.0544463 0.0234268 -0.0387811 69 57 50
0.071121 0.0389219 -0.0502934 67 49 42
0.0587945 0.0375551 -0.0176648 45 31 26
0.043752 0.0272285 -0.063884 110 85 72
0.0748358 0.0572577 -0.00585933 0 0 0
0.0456132 0.0226735 -0.0345529 85 58 50
0.0635265 0.0767922 -0.0420289 53 34 29
0.0614884 0.048084 -0.0181781 50 33 28
0.0699169 0.0425839 -0.0535284 172 180 207
0.043902 0.0291831 -0.060093 86 64 56
0.0673844 0.0701829 -0.0389204 33 20 17
0.0398605 0.0568828 -0.0609259 63 42 34
0.0668031 0.0677314 -0.0587409 59 41 32
0.0422191 0.0204048 -0.0242045 124 113 99
0.0658016 0.0686668 -0.0594205 69 48 38
0.0622224 0.0345441 -0.0290823 48 32 26
0.0668588 0.0420517 -0.0317554 63 44 38
0.0632542 0.032053 -0.0503735 120 117 99
0.0525947 0.023236 -0.0463298 56 36 33
0.045934 0.0304398 -0.0260506 60 42 34
0.0725533 0.0678502 -0.0171458 68 44 27
0.0686886 0.0732141 -0.0193127 42 28 23
0.0695999 0.0730647 -0.0192321 38 26 22
0.069107 0.0628601 -0.0602847 63 39 32
0.0673401 0.0657571 -0.0635372 59 40 32
0.0659143 0.0437485 -0.0333234 60 44 37
0.0381013 0.0503331 -0.0679867 96 68 56
0.0501216 0.0235143 -0.0436078 54 35 30
0.056715 0.0374845 -0.0154882 48 33 28
0.0552721 0.0237476 -0.0401095 66 53 45
0.0518692 0.0245483 -0.0615832 101 70 58
0.0522633 0.0244589 -0.0597236 80 62 39
0.050928 0.0257851 -0.0580707 80 55 46
0.060373 0.0306324 -0.0587222 98 91 89
0.0413246 0.031517 -0.0596803 116 75 61
0.0377293 0.0422556 -0.0603617 64 51 33
0.0394739 0.036783 -0.0622541 100 73 60
0.0658789 0.0607484 -0.0704599 85 60 51
0.0535637 0.0248367 -0.0607208 91 64 53
0.0433356 0.0290448 -0.0602372 100 79 69
0.0689525 0.0408466 -0.0729249 122 86 74
0.0688515 0.0498013 -0.0346349 54 39 33
0.0678351 0.0614349 -0.0584919 69 51 45
0.0511964 0.0238897 -0.056332 255 255 255
0.0538106 0.0250521 -0.0600292 78 55 45
0.0713678 0.0548996 -0.0385188 56 48 40
0.0622875 0.0314124 -0.0606057 85 80 76
0.0677761 0.0388966 -0.0596958 102 90 85
0.0576321 0.0273452 -0.0592395 80 71 64
0.0518582 0.0241033 -0.0564605 255 255 255
0.0733858 0.0829238 -0.00532522 255 255 255
0.0498352 0.0254755 -0.0583785 33 15 16
0.0555858 0.0271351 -0.0588141 41 28 23
0.0645386 0.0379778 -0.0612368 101 79 68
0.0381319 0.0505024 -0.0585154 109 81 70
0.0482413 0.026081 -0.0589389 86 65 58
0.0386737 0.0390389 -0.0613695 93 71 56
0.0474519 0.0263889 -0.0591729 68 52 47
0.0669235 0.0769671 -0.0213629 38 23 17
0.0654722 0.0380596 -0.0614246 100 76 67
0.064269 0.0396904 -0.0636638 87 67 58
0.055871 0.0274702 -0.0593456 38 25 19
0.0684861 0.06516 -0.0371471 45 31 25
0.0572215 0.0252006 -0.0611404 60 40 44
0.0694996 0.0624996 -0.0346923 57 41 34
0.0628566 0.0356798 -0.0622239 118 94 82
0.0693951 0.0449546 -0.0549561 157 145 134
0.0634332 0.0364809 -0.0619633 115 91 77
0.0377947 0.0381875 -0.0612457 81 61 52
0.0650223 0.0389775 -0.0608667 90 72 61
0.0664606 0.0373203 -0.0624514 102 78 67
0.0697225 0.0814415 -0.0156369 255 255 255
0.0657078 0.0356476 -0.0627254 113 86 73
0.0665983 0.0376712 -0.0632115 96 72 61
0.0671226 0.0725084 -0.0159311 42 28 23
0.0691074 0.0767859 -0.0215309 38 27 21
0.0633077 0.0340726 -0.0572798 25 16 0
0.0482909 0.0241507 -0.0573125 84 75 76
0.0608414 0.0283546 -0.0658985 83 59 49
0.0599722 0.0366226 -0.0272808 48 32 29
0.0608319 0.0324233 -0.0266101 62 53 43
0.067012 0.0748552 -0.0186501 35 23 18
0.066477 0.0404743 -0.0318675 56 41 35
0.0713423 0.0664678 -0.061761 255 247 231
0.0720754 0.045493 -0.066875 78 32 33
0.0671816 0.067766 -0.0618265 68 39 33
0.0518065 0.0321999 -0.0258165 47 32 27
0.0674956 0.0387832 -0.0640359 92 68 60
0.0536583 0.062486 -0.0152767 57 40 33
0.0706104 0.0542839 -0.0180962 50 36 29
0.0683489 0.0564359 -0.0594408 72 50 43
0.0360453 0.0733042 -0.0381063 54 35 29
0.0669729 0.0402 -0.0615898 95 69 59
0.0720326 0.0662332 -0.0195069 40 29 25
0.0599934 0.0347758 -0.0172849 68 56 48
0.057561 0.0355708 -0.0269751 36 21 18
0.048599 0.0936947 0.0052157 174 148 158
0.0561211 0.0973048 0.0115663 186 135 158
0.0589259 0.0709616 -0.0173039 49 34 28
0.0513548 0.0233398 -0.0489661 51 32 28
0.0552978 0.0838763 -0.0191048 32 16 13
0.0517738 0.028 -0.0285788 61 43 36
0.0620002 0.0700158 -0.0132211 43 28 23
0.0482541 0.0216297 -0.0328007 1 6 5
0.0622919 0.0392266 -0.0274076 54 37 28
0.057371 0.0362055 -0.018474 46 32 26
0.0582928 0.0464292 -0.0112586 46 32 27
0.0456425 0.0252156 -0.0398253 42 27 22
0.0387756 0.057427 -0.0634053 78 46 40
0.0672272 0.0344336 -0.0665067 134 105 98
0.0455737 0.0650819 -0.0141517 48 32 27
0.0531812 0.0610466 -0.0132392 48 30 24
0.0359219 0.0685947 -0.0212477 46 30 26
0.0486991 0.0234123 -0.0385947 59 43 37
0.0499609 0.0246608 -0.0649186 91 61 53
0.0484858 0.0226711 -0.0342361 84 62 56
0.0649569 0.0355894 -0.0609789 105 76 67
0.0553884 0.0316059 -0.0260461 78 53 46
0.0446553 0.0675699 -0.0140749 46 31 26
0.0689941 0.0618299 -0.0620927 65 45 37
0.0535283 0.0310027 -0.0279224 58 41 35
0.0401833 0.077836 -0.0367651 56 39 33
0.0385023 0.0768188 -0.0362372 57 36 31
0.0694807 0.0400282 -0.0628362 119 92 80
0.0726269 0.0632104 -0.0153318 21 0 0
0.0567973 0.0347773 -0.0255481 32 19 17
0.0395279 0.029766 -0.0317191 52 36 29
0.0704942 0.0447297 -0.0487661 58 40 35
0.0681281 0.0378628 -0.0325301 66 49 41
0.0620839 0.0299873 -0.0673613 91 66 55
0.0451088 0.0708004 -0.0133197 41 28 24
0.0724598 0.0541398 -0.0328372 67 54 46
0.0601673 0.0342438 -0.0229539 22 0 0
0.048029 0.0231303 -0.0357409 67 54 47
0.0644788 0.0332465 -0.0662624 130 102 91
0.063472 0.0408697 -0.031171 59 42 36
0.0635158 0.0313197 -0.034414 74 63 52
0.057072 0.02494 -0.0456286 50 33 29
0.0647301 0.0766583 -0.0204876 52 32 29
0.0679385 0.0359659 -0.0642407 140 128 125
0.0586041 0.0248524 -0.0403826 69 58 51
0.0715317 0.057746 -0.0446627 58 41 36
0.0687774 0.0367788 -0.0419219 89 69 59
0.0547072 0.0618599 -0.0148037 59 40 34
0.0402908 0.028262 -0.0413501 59 41 36
0.0463962 0.0241552 -0.0387935 62 44 37
0.0516619 0.0253445 -0.0570583 107 84 79
0.0608857 0.0296947 -0.0580698 45 67 70
0.0630773 0.0323417 -0.0624128 108 83 72
0.0634595 0.038331 -0.0635065 93 77 65
0.0694349 0.0497669 -0.0347872 57 41 35
0.0389004 0.0380308 -0.0606756 78 53 48
0.0692416 0.0528219 -0.0345728 51 37 31
0.0328537 0.0451813 -0.0322073 65 47 40
0.0393123 0.0498742 -0.0594083 92 71 61
0.0669484 0.0598929 -0.0691097 86 62 50
0.0627104 0.0318354 -0.0617118 116 98 89
0.0428153 0.0299912 -0.0615507 98 71 59
0.0684772 0.0429111 -0.07421 66 40 36
0.0687506 0.046704 -0.0341265 60 43 37
0.0683178 0.0623364 -0.0564217 60 44 36
0.0533645 0.0255777 -0.0585093 57 51 40
0.0693003 0.0521483 -0.0342472 55 38 31
0.0688827 0.0479788 -0.0337283 59 42 36
0.0665952 0.0422189 -0.0591747 80 55 45
0.0334856 0.0422775 -0.034766 55 35 29
0.0690027 0.0647392 -0.035382 57 42 34
0.0700873 0.0592677 -0.0391528 58 43 35
0.0332795 0.048662 -0.0372407 62 43 36
0.0674762 0.0399841 -0.0761972 132 97 84
0.0388332 0.0420614 -0.0605837 87 67 61
0.0590024 0.0276802 -0.061187 90 60 58
0.0668763 0.0386385 -0.0623384 92 70 59
0.0676936 0.0461635 -0.0605251 93 70 60
0.038114 0.0370219 -0.0615668 111 70 57
0.0390643 0.0480252 -0.0624214 94 59 51
0.0631109 0.0299848 -0.0530992 97 92 80
0.0625818 0.038683 -0.0668646 91 73 63
0.0393124 0.0550517 -0.0618569 74 53 46
0.0487465 0.025819 -0.0587843 77 60 50
0.0713214 0.0594905 -0.0355042 20 0 0
0.0700051 0.0418703 -0.0549353 144 138 147
0.0698077 0.0504801 -0.0323709 80 62 52
0.0438218 0.029414 -0.0604738 81 64 53
0.0692419 0.0511262 -0.0343133 53 41 34
0.0694237 0.0814824 -0.0160624 255 255 255
0.0718821 0.0842098 -0.00558024 255 255 255
0.0343669 0.0408768 -0.0505567 229 168 151
0.0665136 0.0731416 -0.0157026 40 27 22
0.0704701 0.047009 -0.0559417 97 69 55
0.0705492 0.0701172 -0.0389583 14 14 16
0.0694826 0.0747349 -0.0203937 39 25 19
0.0672632 0.0389206 -0.0218183 0 0 0
0.0712384 0.0831046 -0.00735839 255 255 255
0.0620968 0.0373814 -0.027775 85 63 54
0.0668534 0.045487 -0.0341596 58 44 36
0.0689024 0.0409031 -0.0681921 124 105 97
0.0712812 0.0391301 -0.0258214 0 0 0
0.0672168 0.0366029 -0.0681162 110 93 82
0.0491325 0.026026 -0.0596238 78 56 48
0.0634083 0.0379126 -0.0628796 96 76 66
0.0674694 0.062329 -0.0589215 54 35 29
0.0708965 0.0599128 -0.0364093 54 33 27
0.0707511 0.0590627 -0.035623 48 21 17
0.0387954 0.0393221 -0.0625343 101 73 61
0.0693953 0.0429465 -0.0353767 53 36 30
0.0394671 0.0538698 -0.0596137 70 45 37
0.0676513 0.0746846 -0.0180815 35 23 18
0.0626841 0.0398798 -0.0303192 57 40 34
0.0705955 0.0601724 -0.0328635 102 87 75
0.0391054 0.0379674 -0.0598951 32 13 6
0.0622766 0.0355834 -0.062619 110 88 76
0.0692644 0.0612161 -0.0639 61 36 30
0.0681473 0.0652811 -0.0393519 50 35 29
0.0675306 0.0766637 -0.0105227 255 255 255
0.0643202 0.0337713 -0.0751488 84 62 48
0.0602072 0.0378146 -0.0282575 34 20 17
0.0396609 0.0561473 -0.0598613 41 18 16
0.055322 0.0325679 -0.0265241 58 40 34
0.0351728 0.0561806 -0.0375805 47 32 27
0.0650144 0.0756385 -0.0163752 42 27 21
0.0597304 0.0256707 -0.0407205 81 61 55
0.0496717 0.0773413 -0.00814956 13 0 25
0.0716962 0.0511341 -0.0325302 58 38 30
0.0594406 0.0441643 -0.0140137 44 29 25
0.0703853 0.0574385 -0.0599398 65 42 35
0.0533209 0.0236572 -0.050446 50 32 28
0.0697676 0.0457926 -0.060226 78 52 40
0.0387009 0.059664 -0.0573275 103 62 51
0.0637659 0.0323246 -0.067234 105 87 75
0.072502 0.057076 -0.0364997 79 87 76
0.0679583 0.0660567 -0.0590969 71 45 36
0.0591089 0.080791 -0.0431112 52 35 30
0.0676427 0.0674506 -0.0564475 57 38 32
0.0683689 0.0735558 -0.0200464 45 31 25
0.0349316 0.0421253 -0.0494721 47 29 24
0.0624202 0.0332533 -0.0808322 110 83 67
0.0696872 0.0669262 -0.0595856 24 9 3
0.0720642 0.0666821 -0.0164814 27 11 8
0.0362599 0.0509485 -0.0505512 39 19 16
0.042949 0.0269041 -0.0499933 51 33 28
0.035036 0.0622271 -0.0402608 62 44 37
0.0675096 0.0646646 -0.0579994 57 39 33
0.0625506 0.0338358 -0.0827654 96 63 50
0.0472777 0.0352523 -0.0124534 45 31 25
0.037668 0.0474736 -0.0587394 113 78 67
0.0342397 0.0468654 -0.0494985 52 32 27
0.036195 0.0511968 -0.050269 66 46 39
0.0682873 0.0678079 -0.0598013 38 33 28
0.0348271 0.0578148 -0.043751 50 32 27
0.0454766 0.0680016 -0.0128863 42 26 24
0.0576877 0.0271843 -0.0590458 0 0 0
0.0701171 0.0457644 -0.0389281 48 31 26
0.0727254 0.042503 -0.0481361 56 40 32
0.0673363 0.0361143 -0.057571 120 106 98
0.0535325 0.0251343 -0.0330657 49 30 25
0.0563262 0.0895715 0.00273329 0 0 26
0.0351019 0.072627 -0.0368089 59 34 29
0.063395 0.0808207 -0.0186524 29 21 18
0.0713302 0.0394021 -0.050118 67 52 44
0.066533 0.0701717 -0.040314 51 37 30
0.0541045 0.0328183 -0.02602 50 35 30
0.0719391 0.0479023 -0.0316608 62 45 40
0.0663728 0.0753888 -0.0203976 43 29 24
0.0681829 0.0440445 -0.0616275 95 71 62
0.0603837 0.0452104 -0.0134915 26 11 6
0.0478694 0.0771747 -0.01443 42 27 22
0.0720933 0.0499387 -0.032627 83 71 62
0.062571 0.0310136 -0.0608631 121 90 93
0.0378621 0.0749433 -0.0199246 45 28 23
0.0637522 0.0319222 -0.0430226 116 100 81
0.0695089 0.0572858 -0.0595524 75 54 45
0.0696999 0.0442935 -0.0588674 85 47 41
0.0712882 0.0557239 -0.0584052 125 82 86
0.0672123 0.0696663 -0.0588044 61 44 38
0.0579758 0.081192 -0.021779 44 30 25
0.0500683 0.0358468 -0.0132284 47 32 26
0.0539965 0.0620597 -0.0148799 59 40 34
0.0675584 0.0745465 -0.0206463 45 31 26
0.0502305 0.0234577 -0.0390864 71 51 44
0.040363 0.031039 -0.0540252 70 44 37
0.0615139 0.0333446 -0.0611052 100 77 67
0.0683588 0.0713839 -0.0440168 54 36 30
0.0715866 0.0707928 -0.018168 49 32 27
0.0337787 0.056607 -0.0525004 37 26 23
0.0409107 0.0268095 -0.0410519 62 37 30
0.0730085 0.0635419 -0.0152334 48 37 26
0.0393529 0.0523846 -0.0607892 71 58 47
0.0385503 0.0502947 -0.0658685 99 76 64
0.0347017 0.0434312 -0.0359053 55 38 32
0.0570671 0.0329993 -0.0172544 91 83 70
0.034588 0.0426193 -0.0350625 53 36 30
0.0694227 0.0682157 -0.0593123 37 4 3
0.0431449 0.0694909 -0.0130414 38 27 26
0.060018 0.0272075 -0.0588862 0 0 0
0.0680543 0.043321 -0.0314047 60 40 35
0.0719117 0.0420477 -0.058819 124 98 89
0.0710742 0.0411086 -0.0512509 113 99 119
0.0686496 0.0628783 -0.0131914 44 29 24
0.0640977 0.0337639 -0.0642235 108 79 68
0.058623 0.0272782 -0.0605241 84 74 66
0.0528235 0.0252638 -0.0606044 142 115 102
0.0587303 0.028385 -0.0598177 92 69 60
0.0638343 0.0322759 -0.0675959 113 90 78
0.0599651 0.0306602 -0.0600291 91 67 56
0.0699091 0.0502094 -0.0537879 130 107 90
0.0387109 0.0401789 -0.0607694 86 65 50
0.0391224 0.0465326 -0.062103 94 72 60
0.0387272 0.0444131 -0.0601576 78 55 46
0.0599464 0.0311388 -0.0589096 79 61 52
0.0588182 0.0366744 -0.0274255 32 19 15
0.0692373 0.0536505 -0.0350048 54 38 31
0.0686533 0.0621906 -0.0391421 50 35 30
0.067289 0.0466994 -0.0353597 56 40 34
0.0692115 0.0596874 -0.0371407 53 39 33
0.05945 0.0272248 -0.0600088 113 96 66
0.0444963 0.0258429 -0.0538073 155 127 117
0.0671473 0.0403223 -0.0588377 77 57 37
0.059462 0.028003 -0.0601685 86 68 58
0.0669972 0.0385789 -0.062097 93 69 56
0.038582 0.0412491 -0.0608256 86 72 60
0.0471969 0.0258062 -0.0593489 66 35 32
0.0659129 0.0387572 -0.0607571 95 78 67
0.0636912 0.0372793 -0.0614842 105 83 71
0.067073 0.0778995 -0.0223101 44 31 26
0.0381106 0.0495762 -0.0605203 92 74 62
0.0666919 0.0428795 -0.0603813 92 70 59
0.0691353 0.0802121 -0.0177774 255 255 255
0.0634688 0.0369075 -0.0616449 109 84 71
0.0686367 0.0689837 -0.0357832 68 0 0
0.041501 0.0238878 -0.0507847 229 150 149
0.0662522 0.0449745 -0.035011 60 44 37
0.0704392 0.0429825 -0.0230464 13 0 0
0.0633701 0.0401378 -0.0308128 63 44 38
0.0611885 0.0766754 -0.0156825 194 162 170
0.0682828 0.0580518 -0.0595313 71 50 43
0.0668831 0.0614157 -0.0682112 21 0 0
0.0481325 0.0221281 -0.0529059 146 110 102
0.0344451 0.0419762 -0.0510708 228 184 154
0.0575319 0.0347142 -0.0268319 57 38 32
0.071081 0.047895 -0.0468552 47 32 26
0.0633985 0.0375365 -0.0624139 101 79 68
0.0515195 0.025212 -0.0590496 71 65 61
0.0682982 0.0724629 -0.0361358 120 101 83
0.0694338 0.0461493 -0.0524646 29 9 3
0.0666972 0.0435471 -0.0322896 63 45 38
0.0711304 0.0831671 -0.00695292 255 255 255
0.0636321 0.0300739 -0.0695313 86 58 50
0.0602154 0.0356301 -0.0268953 66 44 36
0.0692893 0.0645283 -0.0391167 58 46 38
0.0684536 0.0391934 -0.0696635 83 62 43
0.0668844 0.0365162 -0.0679261 99 85 73
0.0603134 0.0296716 -0.0588145 128 95 69
0.0627546 0.0380131 -0.0647982 92 73 63
0.0385608 0.0401163 -0.0610763 90 66 52
0.066718 0.0457825 -0.0350061 56 41 34
0.0629258 0.0315276 -0.0740622 108 81 69
0.0690356 0.0413932 -0.0685472 107 90 79
0.0679866 0.0645894 -0.0626266 60 39 33
0.0649097 0.0426275 -0.0331604 58 40 34
0.0610102 0.038188 -0.0285459 51 34 29
0.0655436 0.0389184 -0.0601441 95 76 66
0.0722899 0.0502091 -0.0403073 87 76 65
0.0708104 0.0363601 -0.0508357 91 69 56
0.0345561 0.0379539 -0.05053 255 189 180
0.0683302 0.0720683 -0.0150545 41 28 23
0.0713992 0.0831472 -0.00731952 255 255 255
0.067004 0.0449704 -0.0345436 67 49 42
0.0350992 0.0486353 -0.0497513 44 26 21
0.0352714 0.0528182 -0.0558268 57 35 25
0.0674907 0.0751284 -0.0158637 47 31 25
0.0355388 0.0537291 -0.0556464 47 28 21
0.0396404 0.0655496 -0.0155555 45 31 28
0.0390028 0.0575454 -0.060831 95 69 64
0.0587275 0.0406018 -0.0152932 49 34 28
0.0699027 0.0581881 -0.0385165 54 39 32
0.0645599 0.0480927 -0.017946 52 36 30
0.065755 0.0353709 -0.0617108 113 88 77
0.0690917 0.0667721 -0.0356172 105 75 62
0.0649928 0.0398263 -0.0224818 64 41 28
