ply
format ascii 1.0
comment Created by Open3D
element vertex 1553
property double x
property double y
property double z
end_header
0.0596054 0.0926081 -0.0133084
0.0519468 0.0485864 -0.00791122
0.0704245 0.0155599 -0.0295646
0.0392887 0.045651 -0.00801765
0.0775281 0.037375 -0.00881589
0.0789992 0.049044 -0.0200593
0.0569783 0.0672211 -0.0241773
0.0578133 0.0122432 -0.0263295
0.0478837 0.0457344 -0.0170272
0.0612072 0.020974 -0.0158853
0.059269 0.072209 -0.0206276
0.0792026 0.0334257 -0.0374246
0.0520059 0.0828072 -0.0189926
0.0607832 0.0602646 -0.0208833
0.0633378 0.0907274 -0.0260507
0.0546438 0.0868432 -0.0202936
0.0629806 0.0554922 -0.0366661
0.0603728 0.023703 -0.020129
0.0487338 0.0565237 -0.0151439
0.0725644 0.0594092 -0.0431854
0.0760729 0.0237445 -0.0220364
0.0658808 0.0348722 -0.0111384
0.0656468 0.0213524 -0.00977442
0.0637352 0.0901534 -0.014551
0.0655079 0.0399336 -0.0161651
0.0596178 0.0681257 -0.0161693
0.0662351 0.0213997 -0.0345626
0.0404695 0.057676 -0.0138265
0.0382141 0.0591052 -0.0116724
0.0354078 0.0613879 -0.0180575
0.0511233 0.0248297 -0.00486085
0.028416 0.046521 -0.0430059
0.0451115 0.0586559 -0.0150697
0.048798 0.0633462 -0.0175801
0.0701732 0.0633789 -0.0348609
0.0571564 0.0166193 -0.0467876
0.0518989 0.044471 -0.0173428
0.0637985 0.0903133 -0.0145074
0.0578297 0.0539504 -0.0179385
0.0604363 0.0600288 -0.0138253
0.0385823 0.0588514 -0.0205895
0.0428107 0.072139 -0.0218126
0.0473393 0.00649837 -0.00673442
0.0504933 0.0804157 -0.00184985
0.0571846 0.0644417 -0.0165276
0.0534157 0.0588438 -0.0269358
0.0540671 0.0293367 -0.0189353
0.0358183 0.0295228 -0.0254403
0.0594869 0.0352774 -0.0366955
0.0603177 0.0567795 -0.022899
0.061157 0.0527648 -0.0318631
0.0715941 0.0421315 -0.0413294
0.0692412 0.0624378 -0.0417967
0.0788717 0.0652483 -0.0393157
0.0597079 0.0499875 -0.024216
0.0622986 0.0411883 -0.0488961
0.0705412 0.0633747 -0.0404096
0.0669601 0.0590118 -0.00768491
0.0592468 0.0587728 -0.0205288
0.0634673 0.0445322 -0.051189
0.0484607 0.0812408 -0.0166742
0.0389705 0.0705289 -0.0155439
0.0588055 0.0147097 -0.00423236
0.029955 0.0590399 -0.0241566
0.0672197 0.0265252 -0.00817288
0.0535454 0.0514182 -0.024722
0.0436349 0.0545899 -0.0162897
0.0703095 0.070574 -0.0314773
0.0643718 0.0625915 -0.0301382
0.0766824 0.0598409 -0.0414257
0.0608915 0.0473857 -0.0239897
0.0516936 0.0758087 -0.0141712
0.0462016 0.0623734 -0.0223612
0.0304361 0.0443365 -0.0187966
0.0358681 0.0406131 -0.0229985
0.0479643 0.034825 -0.0221836
0.0451711 0.0356244 -0.0229588
0.0455333 0.062516 -0.020188
0.0551951 0.0617647 -0.025182
0.067576 0.0401264 -0.0329875
0.0509919 0.042405 -0.038192
0.0639726 0.0422839 -0.0244939
0.0529914 0.0477303 -0.0192869
0.0691289 0.0447775 -0.0118689
0.050834 0.0584807 -0.0149162
0.0722683 0.0429028 -0.041403
0.073075 0.0623056 -0.0381084
0.0430695 0.0587062 -0.0170292
0.0627766 0.0877696 -0.0202734
0.0599943 0.062897 -0.0285444
0.0452639 0.0779339 -0.0199986
0.0357107 0.0524447 -0.0139368
0.0527832 0.0586734 -0.0152082
0.0710567 0.0682583 -0.0320412
0.0486672 0.0647721 -0.025279
0.0368628 0.0499344 -0.0216925
0.0571548 0.0352534 -0.0204169
0.0461395 0.0786192 -0.0129179
0.0384249 0.0397639 0.00639414
0.0561242 0.0776821 -0.0116762
0.0712504 0.0386366 -0.0450192
0.0632631 0.0537999 -0.0311952
0.0508926 0.0567942 -0.0169896
0.0575833 -0.00365131 0.0109891
0.0617468 0.0223953 -0.0285038
0.0549915 0.0897812 -0.0114414
0.0440069 0.0507774 -0.014232
0.0622599 0.0382109 -0.0231676
0.0723964 0.0407081 -0.0417586
0.0605211 0.0538504 -0.0199614
0.0733118 0.0652793 -0.0379941
0.0680869 0.0428331 -0.0271128
0.0292208 0.0495544 -0.0265572
0.0458144 0.0447724 -0.0176541
0.081602 0.0248872 -0.0259848
0.0646584 0.0489616 -0.01523
0.0372763 0.051312 -0.0129683
0.0663142 0.0692958 -0.0355661
0.039862 0.0514707 -0.0126736
0.0434862 0.0609595 -0.00284658
0.0617183 0.0398153 -0.0263507
0.0711685 0.036712 -0.0401534
0.060054 0.0390717 -0.0531625
0.0498252 0.0547638 -0.0118231
0.0448884 0.0525159 0.00485934
0.0615924 0.0569239 -0.0223817
0.0748 0.0191077 -0.00611233
0.0581515 0.0581873 -0.0198628
0.0589386 0.088835 -0.0201722
0.0449001 0.0784338 -0.013493
0.0452315 0.0827958 -0.0181437
0.0700974 0.0537612 -0.0130725
0.0773501 0.065063 -0.0392561
0.0582238 0.0442465 -0.0555451
0.0685975 0.0374929 -0.0482321
0.0706542 0.0483998 -0.0484964
0.08101 0.0624617 -0.0365425
0.0383088 0.0448708 -0.0216842
0.0711136 0.0595649 -0.0451547
0.0709112 0.0496771 -0.0516186
0.0484737 0.0518054 -0.011059
0.0561312 0.0607103 -0.0239589
0.0688143 0.0243717 -0.0157184
0.036592 0.0612403 -0.0112526
0.0499794 0.0527363 -0.0118377
0.0316224 0.0414899 -0.00375179
0.0433723 0.0529611 -0.0178048
0.0560554 0.0608353 -0.0126586
0.0575546 0.0770318 -0.0175733
0.0617387 0.0753172 -0.0336315
0.0397445 0.0508516 -0.00695228
0.0684529 0.0394226 -0.0430316
0.0759636 0.0634452 -0.0410605
0.0670077 0.0470046 -0.0329956
0.0780943 0.0592573 -0.0458523
0.0435238 0.0529439 -0.0179652
0.047432 0.0466671 -0.0217535
0.0287442 0.0487974 -0.0260783
0.046113 0.0367804 -0.0268009
0.0392553 0.0496064 -0.0223515
0.055502 0.0290821 -0.0348226
0.0518559 0.0512301 -0.0202395
0.0615073 0.038865 -0.0281276
0.0631283 0.0434098 -0.0243758
0.0573545 0.0539083 -0.0175682
0.0287364 0.0338318 -0.0298088
0.0415588 0.0454325 -0.0202158
0.054037 0.0214008 0.0101827
0.0597412 0.0572297 -0.0173116
0.0598157 0.0642823 -0.0145452
0.060024 0.0583289 -0.0167095
0.0639766 0.0893173 -0.0187287
0.0234518 0.0154869 -0.00760669
0.0382497 0.0400854 -0.0278378
0.0497573 0.0380894 -0.0368414
0.0421249 0.0126179 -0.0203061
0.0326458 0.0669109 -0.0106783
0.0693167 0.0224339 -0.0382728
0.060956 0.0286726 -0.0230786
0.0594541 0.0383692 -0.0458517
0.0805814 0.0372718 -0.00167403
0.088361 0.0436516 -0.00372362
0.0559441 0.0770533 -0.0138905
0.0548378 0.0877138 -0.0131676
0.052222 0.0344454 -0.0579419
0.0823626 0.0295329 -0.0141094
0.0797499 0.0219537 -0.0207056
0.0562704 0.0100686 -0.0229879
0.0403347 0.0596208 -0.00992885
0.0559583 0.0299183 -0.0357027
0.0450291 0.049491 -0.00732037
0.0675999 0.0527543 -0.0322067
0.0601521 -0.00232003 -0.0191806
0.0779336 0.0219552 -0.0214595
0.0361636 0.0312738 -0.0231167
0.0325501 0.024381 -0.0128614
0.0596784 -0.00140562 -0.0261429
0.0618424 -0.00896033 -0.00637277
0.0530354 0.0341209 -0.0379973
0.0651322 0.0627161 -0.0435808
0.0619253 0.0458098 -0.0259813
0.0387176 0.0387666 -0.00902223
0.036892 0.066308 -0.0206447
0.0800766 0.0270633 0.00226857
0.0590308 0.0744672 -0.0166323
0.0721747 0.0765268 -0.026401
0.0676142 0.0930603 -0.0175987
0.056537 0.0931372 -0.0250529
0.0228957 0.0459459 -0.0282677
0.0668221 0.0256289 -0.01802
0.0500067 0.0481262 -0.00889391
0.0601644 0.0500321 -0.0298322
0.0711161 0.0533918 -0.0165313
0.0786012 0.0569945 -0.0272723
0.0725328 0.0480796 -0.0345288
0.0588537 0.089863 -0.0191951
0.0634523 0.025813 -0.0264536
0.0785352 0.0709497 -0.033486
0.0648676 0.0495387 -0.00749702
0.0596673 0.0355976 -0.0441577
0.0516963 0.090795 -0.0103101
0.0458562 0.0496728 -0.00846315
0.0246713 0.0484654 -0.0319634
0.0763058 0.0529422 -0.044607
0.0801391 0.051396 -0.0166773
0.0714314 0.0390026 -0.0442077
0.04261 0.0629157 -0.00794371
0.0340377 0.055273 -0.0120616
0.0679047 0.0313714 -0.0387876
0.0600446 0.0563843 -0.0165486
0.0771349 0.0287061 -0.0324128
0.0673301 0.0582319 -0.0161733
0.063505 0.0944882 -0.0120446
0.0383489 0.0493842 -0.00182178
0.052425 0.0876806 -0.0163887
0.0633842 0.0847225 -0.0233196
0.0639862 0.0522606 -0.0172945
0.0589638 0.0374084 -0.0127316
0.0569156 0.0913539 -0.00991826
0.0689586 0.0617768 -0.0126701
0.0496611 0.0814326 -0.0148201
0.0559984 0.0899523 -0.0113096
0.0754714 0.0382378 -0.0453667
0.0297896 0.0592191 -0.0237718
0.0315338 0.0422723 -0.0263495
0.0669818 0.0874246 -0.0184143
0.0383015 0.056312 -0.0199197
0.0591787 0.0587499 -0.0135887
0.0361022 0.0554869 -0.0181908
0.027754 0.0320497 -0.0223998
0.075947 0.0506746 -0.0475397
0.0738909 0.047167 -0.0457418
0.0432638 0.0587337 -0.015158
0.0716576 0.036787 -0.0352081
0.0471827 0.0588782 -0.0151633
0.0619973 0.0335212 -0.0468271
0.0235689 0.0469765 -0.0376203
0.079726 0.026513 -0.0306462
0.0621074 0.0918242 -0.0156332
0.0736753 0.0451807 -0.043114
0.0472257 0.0644619 -0.0170103
0.0602259 0.0844312 -0.0113796
0.0338538 0.0312509 -0.0642236
0.0296418 0.00926962 -0.0002116
0.0335311 0.0492265 -0.0259707
0.0519768 0.0886446 -0.0216997
0.0529689 0.0520133 -0.0158771
0.0558083 0.0260285 -0.0518956
0.035986 0.0239412 -0.0205351
0.041436 0.0470468 -0.0611173
0.0483469 0.0123447 0.0146781
0.0765201 0.0380111 -0.0421689
0.0579057 0.0177418 -0.0231187
0.0490884 0.0096637 -0.0148261
0.048157 0.0255407 -0.0376297
0.0423416 0.0304317 -0.04003
0.0321705 0.0512088 -0.0559201
0.0921967 0.0341497 -0.00633318
0.0806271 0.019837 -0.0102629
0.0474299 0.00297069 -0.0270333
0.0599557 0.0652829 0.000837044
0.0655096 -0.0139667 0.00920707
0.0627096 0.0248771 -0.0307018
0.0419022 0.027242 -0.00677712
0.0397195 0.0463979 -0.0598758
0.0839394 0.062831 -0.00237431
0.0593357 0.00473538 -0.0123262
0.0811593 0.0446361 0.00100945
0.0366838 0.0302499 -0.0382924
0.0905058 0.0284896 -0.00687355
0.0449839 0.0594452 -0.0175584
0.0659271 0.0283886 -0.0342679
0.0539749 -0.00325784 -0.00177874
0.0653523 0.032407 -0.0274824
0.055786 0.0405598 -0.0360939
0.0510332 -0.00876259 0.0140416
0.0486691 0.0216331 -0.028291
0.0445005 0.00888206 -0.00956918
0.0337297 0.0431424 -0.00913756
0.0201669 0.0610917 -0.0058083
0.0436153 0.014076 -0.0130967
0.0457928 0.0185067 -0.011246
0.0339157 0.0421748 -0.0287133
0.0355096 0.0280276 -0.0206909
0.018454 0.0551983 -0.00718564
0.0548767 0.0151922 0.0230826
0.0325084 0.0133222 -0.0164557
0.0445783 0.041873 -0.0247542
0.0391295 0.0109473 0.00560057
0.0464511 0.0120694 -0.021051
0.048068 0.0188725 -0.013481
0.0590772 0.0179874 -0.0360638
0.0279376 0.0274994 -0.0545177
0.0300472 0.0657607 -0.0122006
0.0721757 0.0058752 0.00991143
0.0409956 0.0370721 -0.0311003
0.0671795 0.0283865 -0.0461081
0.0448272 0.0509654 -0.0123115
0.0346565 0.042054 -0.0128711
0.0219729 0.0484592 -0.0253132
0.0538593 0.0372188 -0.0255955
0.0544971 0.0153777 -0.00797486
0.0695348 0.00789116 -0.011832
0.0426875 0.0358775 -0.0243189
0.0445255 0.0363943 -0.0192057
0.0621688 0.0155408 -0.0143849
0.0597463 0.0317767 -0.0339442
0.0462183 0.06265 -0.0151589
0.0677795 0.00143812 -0.00391327
0.0370642 0.0479026 -0.0249415
0.0239534 0.0552672 -0.0161984
0.0563432 0.0528027 -0.0233998
0.0595776 0.0338126 -0.0362454
0.0747516 0.0176553 0.0168726
0.0474106 0.0454037 -0.00173434
0.063624 0.0323479 -0.0305838
0.0628231 0.0264814 -0.0268805
0.0454048 0.059687 -0.0159718
0.063708 0.035356 -0.0270267
0.0766296 0.027634 -0.0306778
0.0638279 0.0464731 -0.0178061
0.0665185 0.0186677 -0.0361925
0.0572073 0.0418448 -0.0275694
0.0336223 0.0675294 -0.0123456
0.0508554 0.0507792 -0.0230175
0.0631227 0.0787459 -0.0308006
0.057625 0.0602217 -0.0228381
0.0621962 0.0342127 -0.0320996
0.0690237 0.0385879 -0.0432352
0.0535703 0.0606417 -0.0065468
0.0523236 0.0575917 -0.0129596
0.0613148 0.0422183 -0.0263447
0.0625817 0.0415787 -0.0112217
0.0601439 0.0517609 -0.0140766
0.0567921 0.0515927 -0.02045
0.0666731 0.0394387 -0.0437192
0.0510391 0.0628203 -0.0113818
0.0701998 0.0175968 -0.0300161
0.0695959 0.0279112 -0.0375319
0.0676944 0.0517139 -0.0108349
0.0731472 0.026364 -0.0132663
0.0414199 0.0498521 -0.00739201
0.0616498 0.0407136 -0.0152981
0.0766075 0.032255 -0.0170528
0.0620874 0.0407356 -0.0247888
0.0361821 0.0705618 -0.0129569
0.0758882 0.0189522 -0.0202236
0.0650346 0.0599451 -0.0191838
0.0597044 0.0436897 -0.0184594
0.0733497 0.0332139 -0.00758243
0.0437646 0.0736255 -0.0145527
0.0573298 0.0570515 -0.0225446
0.0631259 0.0355364 -0.0267152
0.0784853 0.0470604 -0.0304035
0.0544676 0.0672239 -0.0091213
0.0771052 0.0252371 -0.0151733
0.0613711 0.0561949 -0.0181707
0.0749184 0.0312524 -0.00602614
0.0438768 0.047757 -0.00657883
0.0593797 0.0394379 -0.0462379
0.072336 0.0293655 -0.0415478
0.059486 0.054426 -0.00970127
0.066356 0.0554838 -0.0223543
0.0638145 0.0479975 -0.000599393
0.0620275 0.0529308 -0.0256294
0.0478138 0.055672 -0.015938
0.0638344 0.0603778 -0.00385933
0.059716 0.0549789 -0.0213899
0.0656226 0.0535996 -0.0212971
0.076139 0.0375752 -0.0403791
0.0455463 0.0782748 -0.0185321
0.0647309 0.0324576 -0.00409392
0.0772895 0.0475016 -0.0207791
0.0601039 0.0598114 -0.0283639
0.062592 0.0586713 -0.0252896
0.0590266 0.0597167 -0.0167542
0.0586133 0.0902349 -0.0186864
0.0650326 0.0634201 -0.016029
0.0604881 0.0745443 -0.0111153
0.0478209 0.0753578 -0.0122074
0.0594465 0.0443444 -0.0214411
0.0548647 0.0796768 -0.00977888
0.0438579 0.0801967 -0.013264
0.0773732 0.0589082 -0.0222911
0.0554528 0.0639062 -0.0309275
0.0654847 0.0495664 -0.00925539
0.0715522 0.075745 -0.00626087
0.0653088 0.0555715 -0.0219914
0.0642576 0.0549851 -0.0244568
0.069411 0.0732347 -0.0291517
0.0614408 0.0736916 -0.0230489
0.075404 0.0466766 -0.0258535
0.047926 0.0832481 -0.0167665
0.0763237 0.0646904 -0.0339319
0.0686094 0.0775719 -0.0242912
0.0798609 0.0608608 -0.0275254
0.0701159 0.0498395 -0.0494709
0.0559164 0.0881687 -0.0173229
0.053919 0.0904832 -0.0124112
0.0625365 0.0898198 -0.0214274
0.0634139 0.0930192 -0.0132945
0.0631786 0.0873495 -0.0188933
0.0758723 0.0881627 -0.00936998
0.0610672 0.0858465 -0.0235881
0.0819545 0.0749075 -0.0182326
0.0624031 0.0856961 -0.00902545
0.0782367 0.0632945 -0.0399769
0.0485613 0.0174997 -0.0181701
0.0576301 0.0124934 -0.022828
0.0225284 0.0624075 -0.0121944
0.038293 0.0380171 -0.0277884
0.0572705 0.00210495 -0.0225714
0.0372778 0.0248882 -0.0335283
0.0448591 0.0543638 -0.0163462
0.0414605 0.0260113 -0.0219851
0.0420852 0.0447064 -0.0474775
0.0360502 0.0241142 -0.0284813
0.0492117 0.0217208 -0.0648949
0.0339318 0.0367601 -0.0204736
0.0471558 0.0080098 -0.00130591
0.0315624 0.0428831 -0.0298019
0.0235864 0.0399042 -0.0328615
0.0362096 0.0264973 -0.0213847
0.0373133 0.0408964 -0.0342487
0.039381 0.042497 -0.00964637
0.0599899 0.0193424 -0.00660674
0.0425985 0.0410437 -0.027117
0.0318538 0.0420444 -0.00149989
0.0473214 0.0351864 -0.009154
0.051908 0.0350141 -0.0378659
0.0508444 0.0189076 -0.037936
0.0634183 0.0208485 -0.00123173
0.0557551 0.0157741 -0.0139051
0.061779 0.038553 -0.0240433
0.0667408 0.0202401 -0.00423258
0.0633088 0.0251266 -0.0429734
0.0622563 0.0475851 -0.0190672
0.0588686 0.0262728 -0.0415896
0.0678728 0.0246794 -0.0307084
0.0613738 0.0389627 -0.0244529
0.0466556 0.0520657 -0.0111836
0.0522879 0.057204 -0.0229759
0.0597118 0.0453089 -0.0204924
0.0464068 0.0579013 -0.0126963
0.055228 0.0532365 -0.0136457
0.0623233 0.0439618 -0.0288322
0.0444908 0.06426 -0.0221337
0.0453765 0.065648 -0.0116515
0.0685134 0.0333385 -0.0375137
0.0393421 0.0679367 -0.0247324
0.0591631 0.0416111 -0.0295816
0.0619368 0.0353841 -0.0190685
0.0748818 0.0241149 -0.0224955
0.0506567 0.0564426 -0.0159488
0.0550982 0.0483761 -0.020612
0.0548879 0.0524967 -0.0142707
0.0588771 0.0377926 -0.0312403
0.0588553 0.0383177 -0.0218878
0.0513911 0.0480373 -0.00533052
0.0619264 0.0477238 -0.0288994
0.0738763 0.0581901 -0.0102157
0.0618656 0.0332475 -0.0406155
0.062074 0.0343872 -0.0319261
0.0631535 0.0305473 -0.0445457
0.0761103 0.0227227 -0.0215575
0.0714425 0.038624 -0.0424956
0.0752529 0.0375944 -0.0112545
0.0791655 0.0256285 -0.0320535
0.0570794 0.034082 -0.032046
0.0750624 0.0510422 -0.0240087
0.0432815 0.0771388 -0.0155699
0.049644 0.0567035 -0.0137629
0.0594253 0.0547805 -0.0140708
0.0524135 0.0654903 -0.0139167
0.0843279 0.0285481 -0.0259034
0.0653662 0.0556872 -0.0349495
0.0540215 0.0620602 -0.0160677
0.0582995 0.0625994 -0.0160041
0.0442921 0.0610897 -0.010446
0.065409 0.0569624 -0.0255133
0.071744 0.0469661 -0.028683
0.0782831 0.0589539 -0.0214364
0.0781949 0.04757 -0.0260922
0.0794033 0.0464601 -0.031665
0.0604308 0.0527043 -0.0123892
0.0661123 0.0552005 -0.0288339
0.0711641 0.0343638 -0.0177594
0.0577307 0.0645259 -0.0154306
0.0641552 0.0529738 -0.0127797
0.0568453 0.0750339 -0.00607962
0.062438 0.0666951 -0.0171454
0.0728406 0.051977 -0.0258327
0.0584322 0.0434779 -0.0518299
0.0725693 0.043684 -0.0462264
0.0579642 0.083456 -0.0274144
0.0709493 0.0477587 -0.0272254
0.0735928 0.0647227 -0.0373817
0.0519786 0.0787716 -0.010743
0.0699185 0.0754742 -0.034114
0.0622663 0.0620738 -0.0241971
0.0647053 0.0758195 -0.0228162
0.077192 0.0622886 -0.0300228
0.0581704 0.0633603 -0.0177218
0.0779693 0.045325 -0.0427138
0.0773664 0.0549938 -0.0429751
0.0692117 0.069615 -0.0363133
0.0765863 0.0590301 -0.0178343
0.0676722 0.0674646 -0.0251009
0.0623213 0.0778975 -0.00344828
0.0611951 0.0759549 -0.0345823
0.0930192 0.0428105 -0.0323378
0.0771502 0.0606609 -0.037618
0.0692086 0.0478416 -0.0492965
0.0684254 0.0465669 -0.0504547
0.0702607 0.0485809 -0.0512869
0.0614442 0.0955155 -0.0115489
0.0634993 0.0927007 -0.0223797
0.0788255 0.0681471 -0.0348082
0.0714206 0.0682867 -0.0241506
0.0547508 0.0737289 -0.0120603
0.0527887 0.0867719 -0.0190493
0.0688324 0.0907983 -0.0151704
0.0603229 0.0892906 -0.0184073
0.061224 0.08681 -0.0226649
0.0702323 0.0900668 -0.0142887
0.0309616 0.064875 -0.0123266
0.0595821 0.0288145 -0.045726
0.062446 0.0399949 -0.0225798
0.07722 0.028595 -0.0208617
0.0628734 0.0557445 -0.0236947
0.0776216 0.022123 -0.021236
0.0635495 0.039997 -0.0184339
0.0733339 0.0562214 -0.0276795
0.0724641 0.0625735 -0.0451411
0.0622878 0.0627695 -0.0165496
0.0805078 0.0573962 -0.0385678
0.0624273 0.0909469 -0.0240131
0.0576953 0.0924586 -0.011275
0.0338039 0.0370092 -0.0251292
0.0399578 0.0423856 -0.00340252
0.0650384 0.0345046 -0.0154689
0.0379914 0.0551827 -0.0195246
0.068551 0.0453271 -0.0443071
0.076673 0.0209374 0.00484953
0.0607559 0.0556891 -0.0215505
0.0759078 0.0578387 -0.041234
0.0621968 0.0702214 -0.0220246
0.0666379 0.0595423 -0.0183193
0.0670758 0.0840936 -0.0255005
0.0287715 0.0494326 -0.0325755
0.0600007 0.0281563 -0.0288405
0.0425523 0.046766 -0.00550975
0.0476612 0.0409815 -0.0130241
0.0568687 0.0530345 -0.0188172
0.078026 0.0221147 -0.0229119
0.0690266 0.0614419 -0.00990252
0.0737289 0.0687239 -0.0396463
0.0373849 0.0223024 -0.0268898
0.0678305 0.0289387 -0.00251455
0.0565517 0.0334349 -0.0417852
0.0686539 0.0426655 -0.0475556
0.0684106 0.0604076 -0.0187501
0.0427034 0.0664179 -0.0397191
0.0443493 0.0491593 -0.0105251
0.0425436 0.037943 -0.0282285
0.0531116 0.0442265 -0.0233104
0.0541872 0.0508012 -0.0251402
0.0606249 0.0385377 -0.0257177
0.0569153 0.0550212 -0.0103482
0.0409166 0.0565383 -0.0299735
0.0457178 0.0743132 -0.043056
0.0557549 0.0934983 -0.0172973
0.0524956 0.0301225 -0.0239081
0.0425405 0.0574777 -0.00765397
0.0654705 0.0482545 -0.0282358
0.0524582 0.0589206 -0.0135273
0.0696226 0.0484507 -0.0165179
0.0342408 0.0502509 -0.0136295
0.0709952 0.0755301 -0.0333898
0.0648787 0.0277074 -0.0344405
0.0674355 0.0265872 -0.0300409
0.0518624 0.0545796 -0.0159764
0.0653141 0.0427475 -0.0369272
0.0576836 0.0469907 -0.0170987
0.0704596 0.0647487 -0.0190714
0.0469926 0.0373 -0.0263476
0.0519757 0.0177705 -0.0020798
0.0645283 0.0189828 -0.0139273
0.0499482 0.050096 -0.0100339
0.0633637 0.0348533 -0.026056
0.0736639 0.0555405 -0.0103761
0.0622869 0.0570132 -0.0252399
0.0757738 0.0635792 -0.0159323
0.0539714 0.0906533 -0.014918
0.0702177 0.0464934 -0.0495467
0.0529978 0.0867371 -0.0100593
0.0453174 0.0816766 -0.0293653
0.0485613 0.0592148 -0.0168667
0.0623921 0.0379166 -0.0202177
0.0557876 0.0298002 -0.0215327
0.0519072 0.0391218 -0.0287359
0.0774016 0.0492324 -0.023284
0.0784542 0.0548751 -0.0194952
0.0610921 0.0618602 -0.0206894
0.0716177 0.0386529 -0.0128248
0.0770305 0.0556701 -0.0427377
0.0554799 0.0666331 -0.0518099
0.0559357 0.0107042 -0.0280749
0.0592164 0.0221778 -0.0136872
0.0628403 0.0330889 -0.022012
0.0603631 0.0444998 -0.0144803
0.0767983 0.0284809 -0.0361656
0.0652345 0.0728116 -0.0139398
0.062641 0.0903637 -0.0257697
0.0642714 0.0681501 -0.0294141
0.0615368 0.0249135 -0.0215032
0.0594242 0.0483591 -0.0197273
0.0740198 0.0636236 -0.0446328
0.0484442 0.0928818 -0.0119377
0.0699858 0.0766597 -0.0292896
0.0612829 0.0364731 -0.00435971
0.0586349 0.0749639 -0.0169046
0.0395788 0.0612556 -0.00668485
0.0353732 0.066083 -0.0177816
0.0444046 0.0506325 -0.0146874
0.0416116 0.0539777 -0.0073701
0.0583538 0.0127262 -0.0188921
0.0372641 0.0324604 -0.0349163
0.0505987 0.011742 -0.0164091
0.0645962 0.0427197 -0.025931
0.0453846 0.0495471 -0.0156815
0.0584012 0.0423926 -0.0144593
0.0636796 0.0547789 -0.0237923
0.073665 0.0489891 -0.0379267
0.0619008 0.0632602 -0.0259167
0.0601746 0.0644373 -0.0287094
0.0760979 0.0688648 -0.0366291
0.0693481 0.0517164 -0.0351623
0.0557005 0.0230694 -0.0428716
0.0678768 0.0257523 -0.0387559
0.0580559 0.0937692 -0.0144102
0.0348742 0.0334697 -0.0240723
0.0790629 0.0500228 -0.0466155
0.0347698 0.041322 -0.0136576
0.0597615 0.0593678 -0.0168807
0.044692 0.0724042 -0.015362
0.0530124 0.0890705 -0.00530586
0.0438327 0.0747923 -0.0142604
0.055181 0.034854 -0.0199885
0.048985 0.0528765 -0.0196799
0.0543679 0.0312586 -0.0414187
0.0517115 0.0473205 -0.0132699
0.0588256 0.0482961 -0.0143635
0.0578427 0.0384645 -0.0257193
0.0537904 0.0367068 -0.00598978
0.0745303 0.0444952 -0.0403736
0.0593081 0.0569911 -0.0213786
0.0653588 0.0391149 -0.0198562
0.0639375 0.0526155 -0.0263834
0.0714206 0.0416768 -0.0418274
0.0631705 0.0696232 -0.0310545
0.0602758 0.063089 -0.0214578
0.0584178 0.0600844 -0.0365212
0.0582711 0.0649252 -0.0248582
0.0712074 0.0544449 -0.0478342
0.0477494 0.0184 -0.0237558
0.0686239 0.0445552 -0.0583626
0.0552369 0.0744499 -0.0144754
0.0528178 0.0539836 -0.00932382
0.0457587 0.0360413 -0.0287101
0.0561914 0.0206085 -0.0531795
0.0402107 0.0616517 -0.0172128
0.0528193 0.0544357 -0.0192785
0.0341894 0.063635 -0.0204317
0.0743865 0.0611403 -0.0428732
0.0612772 0.0465745 -0.0194846
0.0586857 0.0718017 -0.0189743
0.0525394 0.0585028 -0.0194271
0.0649473 0.0697837 -0.0372857
0.0687193 0.0546631 -0.0340475
0.0597073 0.0591365 -0.01193
0.059429 0.0305018 -0.0140176
0.0735352 0.0475517 -0.0464062
0.0733947 0.0563404 -0.0285845
0.0476619 0.0514541 -0.00965532
0.068434 0.0158672 -0.0225635
0.0362122 0.0305416 -0.0305864
0.028226 0.0390589 -0.0302961
0.0476962 0.0252718 -0.02011
0.0329707 0.0257208 -0.0420825
0.0652436 0.0389725 -0.0210116
0.0499265 0.0248565 -0.0442601
0.0472517 0.0529974 -0.0140204
0.0414908 0.0690289 -0.0294821
0.0576995 0.0370927 -0.0172508
0.0533113 0.0370379 -0.0188324
0.0706521 0.051118 -0.0294549
0.052615 0.0611344 -0.0123032
0.0735069 0.0437183 -0.0282322
0.0486481 0.0661213 -0.00744997
0.0684864 0.0607688 -0.0450271
0.0647491 0.0176491 -0.00904208
0.0635874 0.0574962 -0.0243929
0.062397 0.0889449 -0.019556
0.0356381 0.0400641 -0.0254345
0.0542657 0.0627133 -0.0146657
0.0538917 0.0525248 -0.016312
0.0752039 0.0636518 -0.0337169
0.0349991 0.0668369 -0.0160029
0.0404997 0.0599607 -0.0220396
0.0374715 0.0544293 -0.0251697
0.0498162 0.046342 -0.0170271
0.0770256 0.022258 -0.022547
0.0706111 0.0492046 -0.0488612
0.0560898 0.0158128 -0.0366413
0.0322734 0.0551404 -0.00340624
0.0609816 0.0207053 -0.0214896
0.0206721 0.0483289 -0.0284512
0.0589727 0.0395418 -0.0231546
0.0591174 0.0329452 -0.0167314
0.0683092 0.0490592 -0.0313696
0.0614823 0.0539236 -0.0246795
0.0546627 0.0209432 -0.0547423
0.0582921 0.0462004 -0.0174309
0.0318517 0.0621026 -0.0167124
0.043852 0.0552531 -0.0211791
0.0329045 0.0493557 -0.0202295
0.037195 0.0609327 -0.0179727
0.0713653 0.0237563 0.00163385
0.0648749 0.0437408 -0.0212866
0.057506 0.0450117 -0.0610822
0.0530491 0.0285107 -0.0405599
0.0628787 0.0618148 -0.0182931
0.0719323 0.0657255 -0.0436172
0.0572414 0.0336026 -0.0527423
0.0669764 0.0891289 -0.0136543
0.0406345 0.0616344 -0.0142569
0.0395531 0.0532223 -0.00148511
0.0606106 0.0450044 -0.0307927
0.0308517 0.0344321 -0.0190697
0.0721928 0.0397594 -0.0404573
0.0604608 0.0379123 -0.0489265
0.0599212 0.0573819 -0.0157735
0.0491992 0.0775538 -0.00694124
0.0637774 0.0498767 -0.0185933
0.0354672 0.0570193 -0.0191605
0.0355395 0.0554009 -0.00820309
0.0789922 0.0298395 -0.00558229
0.0645197 0.0633553 -0.0166637
0.0633548 0.0531224 -0.0255894
0.0646249 0.0865443 -0.0204237
0.0372785 0.0853232 -0.0148211
0.0522468 0.0734208 -0.0138802
0.0652481 0.0460545 -0.0106048
0.0475622 0.0594637 -0.0234315
0.0771856 0.0648646 -0.0391585
0.077097 0.0235111 -0.0294187
0.0678802 0.0327601 -0.0484097
0.0715961 0.0516908 -0.0475442
0.0816959 0.063269 -0.0369444
0.0701567 0.0233166 -0.013362
0.0720943 0.0606234 -0.0462262
0.0708064 0.050144 -0.0508925
0.0265481 0.0506577 -0.0315162
0.0523947 0.0553264 -0.0231148
0.0508177 0.0275114 -0.0242049
0.0326042 0.0584819 -0.0128567
0.0464763 0.0526711 -0.0106606
0.033971 0.0566373 -0.00454586
0.0330496 0.062414 -0.0242563
0.0713241 0.0409137 -0.0451541
0.0414301 0.0531487 -0.00872616
0.0335887 0.0557719 -0.0136752
0.0430044 0.0589565 -0.011001
0.0760266 0.0635891 -0.0411125
0.0742635 0.0540668 -0.0491042
0.0780887 0.0589586 -0.0456196
0.0339997 0.0473056 -0.0228182
0.0467465 0.058346 -0.0236711
0.0599042 0.0244345 -0.0347034
0.0490432 0.0558068 -0.0210185
0.0437103 0.0552574 -0.0291282
0.0458402 0.0415427 -0.0218626
0.0529066 0.05097 -0.0225832
0.0726438 0.0498194 -0.0373647
0.061095 0.0434 -0.0245901
0.0410389 0.00173656 0.0077397
0.0305014 0.0469344 -0.0205896
0.0584996 0.0176172 0.00272586
0.0393446 0.0522199 -0.0103897
0.0665128 0.0268167 -0.043042
0.0571863 0.0638738 -0.0164718
0.0757584 0.00702847 -0.0146445
0.0549018 0.0587617 -0.0160325
0.0769158 0.0691088 -0.0360606
0.0647824 0.0889542 -0.0188358
0.0248999 0.000916505 -0.0156246
0.0375081 0.0208724 -0.0440195
0.040285 0.0297592 -0.0297258
0.0543096 0.030631 -0.0358146
0.0242674 0.0552454 -0.0163937
0.06053 0.0332014 -0.0422434
0.0751186 0.0256555 -0.0358724
0.082304 0.0384058 0.000613242
0.0808746 0.0624593 -0.0317613
0.0884217 0.0420148 -0.00130127
0.0458432 0.0725406 -0.0117463
0.0643161 0.0876089 -0.0170508
0.0706354 0.0937844 -0.0121284
0.0596267 0.0271061 -0.0304593
0.0782201 0.0240238 -0.0129786
0.0624362 0.0528498 -0.0257698
0.0402173 0.0278199 -0.0204251
0.0356314 0.0536161 -0.0053415
0.0560828 0.0258998 -0.0347004
0.0560099 0.0916613 -0.013098
0.0447603 0.0627497 -0.0122459
0.0468882 0.0604775 -0.0106853
0.0584643 0.0208848 -0.0151681
0.0417163 0.0567869 -0.0321812
0.0789213 0.0472554 -0.0144165
0.070276 0.0321337 -0.0199011
0.0623362 0.0936465 -0.0140627
0.076151 0.0232832 -0.031475
0.0557321 0.0831375 -0.0284112
0.0522914 0.0721267 -0.0149003
0.0602677 0.0597185 -0.0240963
0.0707513 0.0247465 -0.0132044
0.035726 0.036451 -0.0349772
0.04517 0.0689868 -0.0419721
0.0425465 0.0170975 -0.00756217
0.0696604 -0.00461223 -0.0146539
0.0598329 -0.00451773 -0.0132871
0.0530063 0.0393209 -0.0335906
0.0566557 0.0394679 -0.0287276
0.0366835 0.0488199 -0.0213443
0.045912 0.0556216 -0.0223787
0.0289544 0.0419975 -0.0136527
0.0663293 0.0281513 -0.0389648
0.0577191 0.0367125 -0.0300817
0.0799636 0.0361637 -0.00295373
0.074197 0.0698947 -0.027893
0.0554893 0.0922228 -0.0128292
0.0523549 0.0894605 -0.0221934
0.0294615 0.00668869 -0.00873361
0.0474863 0.0748489 -0.0143942
0.0656198 0.0220427 -0.0322785
0.0659369 0.0198818 -0.00886095
0.0466733 0.0470161 -0.00524233
0.0526228 0.0387588 -0.0237702
0.0717556 0.0376845 -0.00676852
0.0715901 0.0595228 -0.0147365
0.0546726 0.0885426 -0.0173323
0.0615539 0.0380753 -0.0313613
0.077246 0.0709912 -0.0330616
0.0619857 0.0624334 -0.0113634
0.0623192 0.0241824 -0.0186518
0.0651405 0.0916854 -0.0137138
0.0518561 0.0591938 -0.0164824
0.0640112 0.0911086 -0.0176583
0.0394742 0.0381599 0.00186402
0.0410696 0.0583751 -0.0115127
0.0165223 0.0274711 -0.0411714
0.0512111 0.0493814 -0.017009
0.0663252 0.0604704 -0.00905481
0.089454 0.0430047 -0.00213244
0.0644832 0.0316592 -0.0410612
0.042856 0.0579911 -0.00780581
0.0305466 0.0621604 -0.014358
0.0387206 0.0511783 -0.0161518
0.0591126 0.0322563 -0.021825
0.0272387 0.0333708 -0.0220199
0.0664822 0.048967 -0.0139516
0.0725964 0.0264872 -0.0127451
0.0639217 -0.00350516 -0.0152287
0.0373612 0.00510036 -0.00917987
0.0601051 0.0594605 -0.0150309
0.0606259 0.0943617 -0.0103172
0.0687829 0.0259585 -0.0421278
0.0627063 0.0279009 -0.0483066
0.0544485 0.0867954 -0.0163082
0.0646252 0.0868172 -0.018467
0.067857 0.0266254 -0.018096
0.0701778 0.0306338 -0.0189986
0.0592921 0.0949885 -0.0122818
0.0477383 0.0608472 -0.0158568
0.066469 0.0557977 -0.013133
0.0759739 0.0672519 -0.0404564
0.0674198 0.078427 -0.0103704
0.0768112 0.0650417 -0.0322841
0.0398482 0.0468639 -0.0146547
0.0523421 0.0837414 -0.0163541
0.0655251 0.0543509 -0.0186061
0.0552783 0.0886569 -0.0136425
0.06264 0.0328335 -0.0429256
0.044277 0.0503369 -0.0167293
0.0647727 0.0423683 -0.0269111
0.0755709 0.0514098 -0.0467975
0.0737299 0.0472063 -0.0462002
0.0300025 0.0190356 -0.0158771
0.0449349 0.0619337 -0.0133829
0.0666237 0.0375203 -0.0324601
0.0637798 0.0353728 -0.0463545
0.0586127 0.0364253 -0.0533518
0.0809272 0.0270623 -0.033258
0.0287073 0.0313007 -0.0381106
0.0699186 0.0354201 -0.0422768
0.0523875 0.0656338 -0.0194481
0.0771758 0.024394 -0.0278055
0.0571277 0.0235143 -0.0556443
0.0603919 0.0957735 -0.0153538
0.0575792 0.0132021 -0.0261786
0.0363413 0.0605749 -0.0202552
0.0565019 0.0888263 -0.0225206
0.0794024 0.0489811 -0.00465456
0.0589899 0.0216113 -0.022803
0.0671277 0.0326602 -0.0416333
0.0767043 0.0240225 -0.0208426
0.0541668 -0.00976461 -0.00487702
0.0348544 0.0310256 -0.0242346
0.06411 0.0294522 -0.0435635
0.065122 0.0257238 -0.0413646
0.0461261 0.0218387 -0.0149557
0.0551513 0.0397773 -0.0220468
0.0707785 0.0280474 -0.0417769
0.0619054 0.035384 -0.0276504
0.0646493 0.0208156 -0.0518619
0.0537669 0.0922318 -0.0186279
0.0549905 0.0943016 -0.0191026
0.0498755 0.083825 -0.0176371
0.064427 0.017112 -0.0384406
0.0512994 0.0649908 -0.0167552
0.0617315 0.0508936 -0.028563
0.0487777 0.0612406 -0.0157764
0.0605244 0.0315049 -0.0333331
0.0191464 0.0106679 -0.00447297
0.0291693 0.034414 -0.021422
0.0219602 0.0496337 -0.0302133
0.0621371 0.0278519 -0.042762
0.0903946 0.0341013 -0.00933093
0.0355256 0.0323271 -0.0344551
0.055844 0.0920796 -0.00993274
0.0440079 0.0615716 -0.0194615
0.0736431 0.0328504 -0.0404214
0.067083 0.024086 -0.0339971
0.0485323 0.064725 -0.0170376
0.0851627 0.0405034 -0.0114097
0.0543453 0.0342665 -0.047219
0.0719704 0.0355664 -0.0390621
0.0943041 0.0293716 -0.00323099
0.0525139 0.0519221 -0.0143676
0.044178 0.0653936 -0.00737948
0.0302611 0.021088 -0.0265716
0.0422788 0.0286159 -0.0316972
0.0251705 0.0253747 -0.0346534
0.0493724 0.0490427 -0.0299821
0.0395543 0.0364862 -0.0273486
0.0392635 0.0616401 -0.0464508
0.0555786 0.0124152 -0.0320986
0.0440513 0.0182995 -0.0122359
0.0112509 0.0455806 -0.00564659
0.0333656 0.0334295 -0.0224888
0.0751756 0.0327813 -0.042588
0.0818619 0.0220797 -0.0100296
0.0418225 0.0375899 -0.0311158
0.0346945 0.0141316 -0.0135802
0.0342259 0.0392009 -0.0638399
0.0577097 0.0194904 -0.0381283
0.0425262 -0.00299648 0.00536534
0.0384114 -0.0133163 0.00377802
0.0415965 -0.0140321 -0.00132768
0.0586644 0.0411767 -0.0521538
0.059738 0.0314366 -0.0391621
0.0620443 0.000143492 -0.00762247
0.0603819 -0.0123648 0.00968073
0.0638466 0.0324891 -0.0268912
0.054706 0.0534716 -0.0198778
0.0595435 0.0705903 -0.0098176
0.0426467 0.025415 -0.0238115
0.0355205 0.0335294 -0.0246013
0.0385708 0.0220755 -0.0130245
0.0299989 0.0219373 -0.010633
0.0745983 0.0331085 -0.0415971
0.0858046 0.016515 -0.0114663
0.0387007 0.0178608 -0.0179451
0.0357831 0.0272183 -0.0398775
0.0826181 0.0293909 -0.0130469
0.0528602 -0.00222513 0.0101822
0.0571954 0.028692 -0.0395172
0.0382349 -0.00197163 0.00145701
0.0459233 -0.00730714 0.00134138
0.0569351 0.0403745 -0.0482187
0.0657715 -0.0171924 0.00621073
0.0642034 0.0429093 -0.03697
0.0479964 0.0078677 -0.00771493
0.0545014 0.0162133 -0.0164532
0.0518855 -0.00106722 0.0250976
0.0295485 0.0322593 -0.00682153
0.0365366 0.0102596 -0.0126612
0.0320277 0.042629 -0.0323588
0.0208657 0.0503414 -0.0359815
0.03948 0.0201909 -0.0234681
0.0471572 0.024851 -0.0133487
0.0458751 0.0350402 -0.0217021
0.0588952 0.00888255 -0.0190152
0.054841 0.0297017 -0.0237557
0.0367641 0.0238251 -0.0469457
0.054424 0.0113328 -0.00444454
0.0386455 0.0279218 -0.0353303
0.0241103 0.0563673 -0.0148879
0.056933 0.0311178 -0.0335587
0.0439834 0.0442288 -0.0603849
0.058425 0.0162834 -0.00823266
0.0453205 0.049688 -0.00998889
0.0234858 0.0515752 -0.0241025
0.0504154 0.0430374 -0.0439296
0.056935 0.0228655 -0.0258984
0.0598213 0.0179209 -0.0130742
0.0439886 0.0426658 -0.0221804
0.0392498 0.0477898 -0.00923039
0.0438948 0.0453007 -0.032245
0.0386297 0.0384843 0.0038678
0.0448609 0.0471052 -0.0238356
0.0353925 0.0514892 -0.0142479
0.0650209 0.0183245 -0.0254636
0.0618704 0.0330283 -0.0299272
0.0327259 0.0451532 -0.0245855
0.074589 0.0171494 -0.00350344
0.0534259 0.0386292 -0.0207344
0.0462043 0.052642 -0.0229109
0.0410381 0.0445977 -0.024091
0.0481964 0.048223 -0.00761896
0.0618152 0.0204926 -0.0243717
0.0626365 0.0398061 -0.0220487
0.0377911 0.0464014 -0.0241071
0.0611482 0.0345988 -0.0270007
0.044119 0.0535516 -0.0151409
0.0644126 0.0305002 -0.0244281
0.0569694 0.0364636 -0.0376212
0.0622901 0.0486066 -0.0242063
0.0617776 0.0404826 -0.0250009
0.0628134 0.0398859 -0.0267
0.0429411 0.0742093 -0.0123715
0.0678936 0.0498559 -0.0249759
0.0471942 0.0461051 -0.0162079
0.0474263 0.0458924 -0.020664
0.0549729 0.0536268 -0.0206448
0.0494675 0.0652831 -0.0207124
0.0645931 0.0429446 -0.0234311
0.0379412 0.0549109 -0.0223465
0.0597531 0.0418668 -0.0234711
0.0592748 0.0423451 -0.0288813
0.0440631 0.0503394 -0.0157071
0.0677072 0.0326206 -0.0417597
0.0741851 0.0219204 -0.0217071
0.0547802 0.0548725 -0.0118438
0.0626318 0.0349841 -0.0156183
0.0638329 0.0386042 -0.0191834
0.0478695 0.058473 -0.0101271
0.0642889 0.035265 -0.00925483
0.0662441 0.0404171 -0.0222294
0.0574848 0.0521423 -0.0156077
0.0599201 0.0262379 -0.0237483
0.0397943 0.0596539 -0.0124501
0.0506716 0.0592118 -0.0161695
0.0594257 0.0428026 -0.025291
0.0499362 0.0726374 -0.0143564
0.0644755 0.0419477 -0.0254088
0.0614524 0.0527892 -0.0186538
0.0678852 0.0450164 -0.0343255
0.0655819 0.0444915 -0.0151167
0.0458698 0.072624 -0.0123672
0.0634414 0.0322165 -0.0328215
0.0630082 0.0540901 -0.0127885
0.0699233 0.0336569 -0.0410112
0.065672 0.020975 -0.0326268
0.0736301 0.058927 -0.0222714
0.0820191 0.0281129 -0.0269237
0.0502392 0.045901 -0.0239954
0.0640945 0.035397 -0.0312452
0.0482799 0.0593899 -0.0101742
0.049408 0.0610966 -0.0123333
0.0611381 0.0458005 -0.0162261
0.0652229 0.0528242 -0.0204184
0.0794728 0.0273636 -0.0281648
0.0765594 0.0244459 -0.0201301
0.0374142 0.0718077 -0.014002
0.051827 0.0718743 -0.0158502
0.0672685 0.0465017 -0.0241071
0.077005 0.0287257 0.00101932
0.0509146 0.0644027 -0.0137007
0.0605798 0.050994 -0.0142575
0.0580343 0.0490826 -0.0359031
0.0574285 0.0366294 -0.0237807
0.07594 0.0277959 -0.030524
0.0463181 0.0600035 -0.0146336
0.0806441 0.0347371 -0.0158487
0.0822111 0.0328561 -0.014669
0.0481333 0.0476023 -0.00993891
0.0591742 0.0688528 -0.0207524
0.0707992 0.0295808 -0.0377585
0.0501647 0.0580824 -0.00764748
0.058989 0.0594956 -0.0146768
0.084186 0.0532437 -0.0128434
0.0685997 0.0494435 -0.0216888
0.0854142 0.0341769 -0.022764
0.0669479 0.0588128 -0.015955
0.0614542 0.045318 -0.0126805
0.0670843 0.0544397 0.00604948
0.0627379 0.0457109 -0.00939668
0.0644375 0.0429029 -0.0258632
0.0761472 0.0370095 -0.0409665
0.044849 0.0779043 -0.0180167
0.0767895 0.0379692 -0.00633059
0.0537835 0.0743069 -0.0128966
0.0705242 0.0488707 -0.0284839
0.0815735 0.0488579 -0.0241232
0.0525191 0.0644503 -0.0161675
0.0806683 0.042877 -0.0181053
0.0415655 0.0746402 -0.0136589
0.0507394 0.0459008 -0.0270349
0.0560812 0.0412764 -0.014711
0.0671405 0.0743023 -0.0218536
0.0599157 0.0669156 -0.0177888
0.0713403 0.0375692 -0.0144268
0.0428412 0.081908 -0.0137836
0.0570123 0.059576 -0.0153265
0.0616692 0.0698606 -0.0190073
0.0533161 0.0776468 -0.0106066
0.0698462 0.0647555 -0.0388057
0.0712131 0.0505336 -0.0341972
0.0454403 0.0777978 -0.0127704
0.0525916 0.0762169 -0.0137189
0.0726408 0.0531149 -0.0293903
0.0665276 0.0503371 -0.0138485
0.0703285 0.0587588 -0.0067212
0.0707453 0.0537804 -0.0272599
0.0652222 0.0605117 -0.0229421
0.0739118 0.0673969 -0.0325533
0.0598559 0.0463061 -0.056421
0.067328 0.0635222 -0.0308768
0.0653172 0.057157 -0.021089
0.069787 0.0361769 -0.0432571
0.0735636 0.0604178 -0.0176855
0.0645864 0.05844 -0.0165839
0.0689068 0.0553765 -0.0276515
0.0669337 0.0494453 -0.0558358
0.0646537 0.0565349 -0.02417
0.0705731 0.0675394 -0.0198849
0.0602029 0.0780749 -0.0248517
0.0641151 0.0810423 -0.0248336
0.0811055 0.0657322 -0.0300552
0.0795651 0.0455544 -0.0423676
0.071536 0.0546977 -0.048193
0.0563273 0.090929 -0.013479
0.0522608 0.093305 -0.01958
0.0546217 0.0905832 -0.010854
0.0601745 0.081334 -0.00656102
0.0606445 0.0926646 -0.0194843
0.0814465 0.0835608 -0.0109567
0.0615911 0.0849385 -0.0232717
0.0705051 0.0757103 -0.00999256
0.0592471 0.0928315 -0.00923647
0.0653639 0.0933032 -0.0126122
0.0465318 0.0225482 -0.0263622
0.0353416 0.0320471 -0.0221608
0.0594372 0.00404095 0.0195188
0.0408164 0.0401852 -0.0273486
0.0448618 0.0132913 -0.0259138
0.0387088 0.0286432 -0.00973516
0.0465731 0.0158705 -0.016573
0.0374566 0.0291594 -0.0345076
0.0345445 0.0497931 -0.0199382
0.0306281 0.0446146 -0.0307654
0.0431535 0.0182684 -0.0140352
0.0451613 0.0227807 -0.0190396
0.0360697 0.024817 -0.0315486
0.0320757 0.027479 -0.0213097
0.0520901 -0.00284889 0.0315357
0.0358003 0.0319322 -0.0243281
0.0514838 0.042646 -0.017336
0.0391295 0.0387127 -0.0147075
0.0315513 0.0636285 -0.0152429
0.0607344 0.0310311 -0.0205433
0.0406024 0.0325394 -0.0218632
0.0575878 0.0224929 -0.0220217
0.0344708 0.05509 -0.00160177
0.047412 0.0498978 -0.00903332
0.0438567 0.0356381 -0.0129904
0.0410875 0.0406715 -0.0217596
0.0449524 0.0436105 -0.0153535
0.0641687 0.0338529 -0.0280451
0.0418361 0.0542319 -0.00742238
0.0607184 0.0341882 -0.0266827
0.0583148 0.0100389 0.010319
0.0477324 0.0457939 -0.0130592
0.0527763 0.0505695 -0.0164342
0.0347305 0.0337711 -0.0106474
0.0402422 0.0688 -0.0254972
0.0614963 0.0275085 -0.0264476
0.0696741 0.0261825 -0.0369387
0.068561 0.0274854 -0.0323217
0.0627032 0.0368959 -0.0283513
0.0624722 0.0386525 -0.0240537
0.0485081 0.0506897 -0.0163424
0.0605335 0.042147 -0.0143259
0.0623983 0.0458649 -0.0279961
0.0415751 0.0636351 -0.0191123
0.0618117 0.0492181 -0.0259696
0.0599068 0.0604199 -0.0227081
0.0651909 0.0256862 -0.0210517
0.055842 0.0362415 -0.0227306
0.0528123 0.0493207 -0.0338861
0.0441956 0.0560317 -0.0199286
0.0549826 0.0661385 -0.0152853
0.0488998 0.0598277 -0.0143623
0.0374399 0.0701154 -0.012022
0.0781371 0.0256789 -0.0321726
0.053523 0.0516825 -0.0118817
0.0626741 0.0420677 -0.0286555
0.061284 0.0505963 -0.0133583
0.0352343 0.0734646 -0.0151525
0.0633881 0.0434456 -0.00252336
0.0654644 0.0357923 -0.0195257
0.0650805 0.0300289 -0.0228683
0.065108 0.0431047 -0.0212338
0.0773361 0.0446224 -0.00564223
0.059507 0.0290085 -0.0485211
0.0626035 0.0428871 -0.0304505
0.0751168 0.0234851 -0.0210428
0.0665714 0.0218669 -0.0374018
0.0809085 0.0288315 -0.024739
0.0862638 0.0403956 -0.0111286
0.0462993 0.0510839 -0.00898396
0.0505196 0.0687003 -0.0160742
0.0612474 0.0417727 -0.0217121
0.0718995 0.0224463 -0.0319598
0.0780143 0.0582873 -0.0449388
0.0698086 0.0492793 -0.0132051
0.0455785 0.0793965 -0.017963
0.0567016 0.0573387 -0.0183723
0.0489066 0.0467231 -0.0181525
0.0772347 0.0308224 -0.0391066
0.0587843 0.0591585 -0.0161226
0.0504692 0.0869693 -0.0197404
0.056582 0.0578965 -0.0149295
0.0777209 0.0202956 -0.0182656
0.0585246 0.0761212 -0.034432
0.0510612 0.0654897 -0.0167678
0.0540809 0.0865124 -0.0202061
0.076497 0.0301421 -0.0323618
0.0462519 0.0741201 -0.0152883
0.0639427 0.0484668 -0.0229552
0.0727663 0.0414541 -0.0174064
0.0523544 0.0842386 -0.0200785
0.0686092 0.0351591 -0.0172982
0.0793692 0.0545759 -0.0158463
0.0765804 0.0502382 -0.0203429
0.0664673 0.0442633 -0.0143238
0.0667191 0.045422 -0.0107377
0.0572223 0.0382718 -0.0151183
0.0725543 0.0367222 -0.0177372
0.0508938 0.0633662 -0.0161761
0.0520056 0.0740339 -0.0138704
0.0618782 0.0643761 -0.0163943
0.0486561 0.0748639 -0.0119076
0.0466902 0.0790382 -0.016911
0.0689491 0.0761232 -0.018263
0.0718358 0.0520844 -0.0281578
0.0568379 0.0733672 -0.0129637
0.0615121 0.0854033 -0.0211874
0.067814 0.0687921 -0.0182119
0.0705931 0.0578683 -0.0312484
0.0669789 0.0576539 -0.00785374
0.0453669 0.0675009 -0.0369038
0.0431887 0.0607702 -0.0122455
0.072612 0.0543501 -0.0264325
0.0750696 0.0485774 -0.0214625
0.0699314 0.0624222 -0.0393591
0.0718182 0.0387567 -0.048641
0.0711373 0.0650674 -0.035405
0.0630276 0.0656234 -0.0144324
0.0501632 0.066981 -0.0123006
0.0697439 0.0688288 -0.0333362
0.0623796 0.0583454 -0.0184373
0.0676211 0.078461 -0.0255058
0.0727119 0.0730008 -0.0329654
0.077904 0.0623779 -0.0375572
0.0703554 0.0606307 -0.0115263
0.0641089 0.0694454 -0.0186199
0.0628122 0.0539589 -0.0194495
0.0646772 0.048866 -0.0198313
0.0780495 0.045435 -0.0430473
0.0775751 0.0559833 -0.0417656
0.0578963 0.037734 -0.0244949
0.0829977 0.0676088 -0.027569
0.0486251 0.0564888 -0.0152147
0.0679597 0.0662184 -0.0394851
0.0928816 0.0418989 -0.0320377
0.0578045 0.0564773 -0.0240725
0.0778329 0.0696413 -0.028458
0.0693151 0.0487607 -0.0489104
0.0709279 0.0604698 -0.0448511
0.0642084 0.0862394 -0.0199575
0.069658 0.0485322 -0.0497761
0.0666058 0.0740083 -0.0302929
0.0567143 0.0897622 -0.0186139
0.0807343 0.0499325 -0.04133
0.0661132 0.0648869 -0.0195865
0.0682947 0.0795882 -0.0225782
0.065127 0.0913677 -0.0143141
0.0559514 0.0890109 -0.0179108
0.0617384 0.0882233 -0.0236196
0.0360037 0.0658511 -0.00840245
0.0542534 0.0533691 -0.0180502
0.0609394 0.0540081 -0.0256051
0.0575022 0.0441427 -0.0318943
0.0757239 0.0378743 -0.0375572
0.0847666 0.0317793 -0.0126165
0.0620029 0.0458313 -0.0195136
0.0761242 0.063354 -0.0281863
0.0495664 0.0642771 -0.0362698
0.0430093 0.0757309 -0.0142083
0.074756 0.0704314 -0.027895
0.0692189 0.0653737 -0.0227928
0.0802073 0.0576311 -0.0382609
0.0641288 0.0876036 -0.0236812
0.0613876 0.0901409 -0.011995
0.0676028 0.0436926 -0.0175197
0.0463427 0.0552113 -0.0197541
0.0632987 0.0297999 -0.0414941
0.0809586 0.0251007 -0.0254158
0.0588806 0.0566722 -0.0175836
0.0469917 0.0758459 -0.0376442
0.0685483 0.0763274 -0.0261355
0.0673079 0.0615522 -0.025979
0.0654318 0.0822292 -0.0234432
0.0165771 0.0488951 -0.0382141
0.0652799 0.0151779 -0.0148396
0.0275923 0.0264453 -0.0387447
0.0433221 0.0592087 -0.0100914
0.0534053 0.0338974 -0.0257655
0.0538359 0.0524502 -0.0168558
0.0848904 0.032112 -0.00819357
0.0825359 0.0530555 -0.0279082
0.0774107 0.023036 -0.0194978
0.0587694 0.0561757 -0.0227745
0.0806782 0.0706072 -0.0244158
0.0653816 0.0621435 -0.0183362
0.0742325 0.0696024 -0.0399457
0.0310997 0.0347685 -0.0311435
0.0567682 0.0399842 -0.00995012
0.0572313 0.0242436 -0.0158658
0.0457288 0.0499016 -0.0220609
0.0679324 0.0370457 -0.0339568
0.0598972 0.0394893 -0.032462
0.0772268 0.0483845 -0.0353618
0.0686112 0.0456726 -0.0496303
0.0721654 0.0692589 -0.0305087
0.0544478 0.0879913 -0.0165753
0.0769822 0.0635049 -0.017795
0.0437768 0.065797 -0.0371892
0.0490169 0.0422897 -0.0118724
0.0287024 0.0499572 -0.0260348
0.0388849 0.0513539 -0.0150078
0.0569465 0.0386096 -0.00835888
0.0592205 0.040373 -0.0255095
0.0580553 0.0429446 -0.0334662
0.0522023 0.0601542 -0.00954992
0.0602833 0.0598336 -0.0244393
0.0323935 0.0635448 -0.0150585
0.0328941 0.0484089 -0.0018802
0.050516 0.0668785 -0.0115786
0.0566589 0.072737 -0.0490107
0.0744785 0.0662878 -0.0139622
0.0597691 0.0716862 -0.0296682
0.0381084 0.0333926 -0.0118832
0.070198 0.0690848 -0.0319635
0.0421413 0.0395212 -0.00511664
0.0636081 0.0256397 -0.0186787
0.0599309 0.0281946 -0.0331661
0.0728783 0.0743933 -0.0262478
0.0746725 0.061657 -0.0206757
0.0336734 0.0470271 -0.019831
0.0412667 0.042286 -0.0346759
0.0284102 0.0423777 -0.00581715
0.0441582 0.0553286 -0.0146012
0.0627794 0.0461657 -0.0280477
0.0507227 0.0638288 -0.0113072
0.0684963 0.0540194 -0.0161933
0.058266 0.0537169 -0.0146967
0.0661097 0.0354475 -0.0271787
0.0693804 0.0576702 -0.0129532
0.0612964 0.0645029 -0.0289569
0.0651032 0.0901243 -0.0156685
0.0700919 0.0465158 -0.0491944
0.0607641 0.0929437 -0.0145945
0.0513186 0.0580466 -0.0162485
0.0596407 0.0550749 -0.0194179
0.031963 0.0443657 -0.0113065
0.0543955 0.0404577 -0.0103552
0.0681453 0.0245819 -0.0275764
0.0541766 0.0400652 -0.0208287
0.0716557 0.0405112 -0.0439018
0.0803122 0.059917 -0.0152097
0.0614398 0.0455114 -0.0216487
0.0607211 0.0605033 0.00181679
0.067821 0.0507174 0.00192182
0.0734092 0.0428082 -0.0388936
0.055828 0.0667822 -0.0519938
0.0691424 -0.00391718 0.0434916
0.0506908 0.045064 -0.052591
0.0567363 0.0250436 -0.036473
0.0634993 0.0346008 -0.0127984
0.0624022 0.0570513 -0.0244357
0.0497478 0.0657398 -0.0114041
0.0607784 0.0583736 -0.0279473
0.0655577 0.0445662 -0.0219988
0.0740841 0.0458742 -0.0290075
0.0643392 0.0868451 -0.0250517
0.0612608 0.067247 -0.0267898
0.0524261 0.086172 -0.0180135
0.0642047 0.0637261 -0.0304231
0.0604773 0.02557 -0.0230748
0.0828212 0.039133 -0.0137563
0.0575608 0.0659995 -0.0098405
0.0711671 0.0892875 -0.0130475
0.0611388 0.0543211 -0.0173704
0.0747954 0.061503 -0.0471893
0.0711247 0.0639468 -0.0491601
0.081036 0.029192 -0.0311226
0.0781735 0.0268449 -0.0282871
0.0699093 0.0191962 -0.031023
0.084845 0.026665 -0.00781331
0.0681352 0.0881351 -0.0152729
0.0672932 0.0769721 -0.0255448
0.0639131 0.0435175 -0.0310294
0.0495184 0.0808956 -0.016908
0.0431618 0.0548889 -0.0118384
0.0319561 0.059666 -0.0155855
0.0321804 0.0415973 -0.0140257
0.0447153 0.0829978 -0.0248852
0.0436371 0.0492253 0.00340019
0.0415472 0.0404661 -0.0356767
0.0440319 0.0358443 -0.0250517
0.0641076 0.0374059 -0.0190172
0.0491677 0.0516063 -0.0162384
0.0529497 0.0620777 -0.0152757
0.0599499 0.0401461 -0.0203981
0.0552919 0.0546078 -0.0209757
0.0543679 0.0654624 -0.0162105
0.046486 0.0518437 -0.0165984
0.0457223 0.0588994 -0.0169456
0.0690421 0.0632868 -0.0402682
0.074093 0.0690315 -0.0322648
0.0617693 0.0722624 -0.0272926
0.065631 0.0200222 -0.0372794
0.0533131 0.0886419 -0.0109099
0.0564087 0.0412621 -0.0305748
0.0448818 0.0568842 -0.0171595
0.0722175 0.0360808 -0.0339638
0.0628587 0.0474996 -0.0532985
0.0675304 0.0639223 -0.0281112
0.0443254 0.0332452 -0.0150545
0.0531402 0.066133 -0.0121157
0.046702 0.0761595 -0.0153903
0.0610718 0.0842504 -0.00696673
0.048781 0.0629758 -0.0142743
0.0473851 0.0625567 -0.0130285
0.0328715 0.0312852 -0.0307712
0.0590911 0.0415883 -0.0298144
0.025451 0.0407482 -0.0297362
0.0498048 0.054531 -0.0203027
0.0606853 0.0373323 -0.0299529
0.0643519 0.0299763 -0.0201607
0.0634524 0.0471453 -0.0220944
0.0539877 0.040553 -0.0255773
0.0589178 0.0385674 -0.0180124
0.0472982 0.0574081 -0.0158679
0.0644999 0.0470313 -0.0234242
0.073051 0.0579391 -0.0381625
0.0712569 0.042074 -0.042055
0.0660237 0.0653689 -0.0353744
0.0623428 0.0491395 -0.0519659
0.0694006 0.0636529 -0.0402913
0.0664769 0.0603273 -0.0346456
0.046078 0.0244289 -0.00893287
0.0556264 0.0624626 -0.0238741
0.0722658 0.0447108 -0.0440809
0.0563352 0.0559348 -0.0193968
0.0639364 0.0656579 -0.0421549
0.0514646 0.078039 -0.0115392
0.0577082 0.0411775 -0.0356032
0.0611458 0.0155064 -0.0471446
0.0450724 0.0660556 -0.0183306
0.0358085 0.0462426 -0.0155078
0.0588353 0.0304632 -0.00914658
0.0655933 0.0272988 -0.0202702
0.0547231 0.0481974 -0.0179103
0.0532917 0.0592841 -0.0242649
0.0653596 0.0328583 -0.0514211
0.05451 0.0606248 -0.0191349
0.0681537 0.0681272 -0.0374609
0.0692355 0.063091 -0.0392002
0.0734129 0.0609335 -0.0386701
0.0681753 0.0639912 -0.0205356
0.0642617 0.0495114 -0.0183154
0.0753754 0.0541725 -0.0480782
0.0626074 0.0587921 -0.026837
0.0920562 0.0457444 -0.00533113
0.0659061 0.0770038 -0.0276479
0.0554708 0.00976054 -0.0227181
0.0368895 0.0311981 -0.0314687
0.0433271 0.0592259 -0.0127614
0.0368672 0.0389433 -0.0248927
0.0428458 0.0281085 -0.0390721
0.0429748 0.0171241 -0.00866682
0.0357286 0.0301427 -0.0449168
0.0405847 0.0403977 -0.0226931
0.0590447 0.0339892 -0.0253017
0.0339871 0.0508678 -0.0206306
0.0542548 0.0507156 -0.0225666
0.0467192 0.0432811 -0.0207262
0.0602493 0.0475331 -0.0281143
0.0577285 0.0358273 -0.0113015
0.058661 0.0413324 -0.0260172
0.0712875 0.038952 -0.0168642
0.0478419 0.0574224 -0.00968791
0.0690867 0.0469502 -0.0349195
0.0436744 0.0773967 -0.0137302
0.0646735 0.0648364 -0.0444344
0.0645469 0.0211328 -0.0163169
0.0577606 0.0887878 -0.0187298
