ply
format ascii 1.0
comment Created by Open3D
element vertex 1202
property double x
property double y
property double z
property uchar red
property uchar green
property uchar blue
end_header
0.0411267 0.0669315 -0.0145991 47 31 26
0.0362469 0.0442933 -0.0122924 51 35 29
0.0702318 0.0741718 -0.0320674 41 26 22
0.0641328 0.0353094 -0.0661331 107 75 65
0.0394897 0.0587812 -0.0114313 46 32 26
0.0540955 0.082927 -0.0305527 40 25 20
0.0669469 0.0337085 -0.052485 68 53 47
0.0613125 0.0809846 -0.02939 45 30 24
0.0450862 0.0614197 -0.01013 50 35 29
0.0631689 0.0768584 -0.036441 44 30 24
0.0650673 0.0771173 -0.0378384 49 34 27
0.0676142 0.0442924 -0.0647899 98 73 63
0.0540221 0.0619485 -0.0108881 53 33 27
0.071255 0.0868235 -0.0319783 44 49 42
0.0628577 0.078777 -0.0303224 42 29 24
0.0375882 0.0782951 -0.0175816 44 28 21
0.0624567 0.0362082 -0.0338513 59 40 34
0.0701991 0.0362331 -0.0559428 63 54 50
0.0355413 0.0366112 -0.0535299 38 27 21
0.0706846 0.0557543 -0.038465 12 0 0
0.0624725 0.0385553 -0.0173421 52 39 30
0.0415731 0.0767735 -0.0158092 45 32 26
0.0364377 0.0537187 -0.0654758 106 84 70
0.0655443 0.0406937 -0.0360161 63 44 37
0.0647111 0.0788407 -0.0336597 47 29 22
0.0592143 0.0529193 -0.010605 51 34 28
0.0640599 0.0347474 -0.0329533 38 21 13
0.0489206 0.0831325 -0.0246269 48 35 27
0.0631511 0.0789736 -0.034232 48 33 26
0.0424268 0.069382 -0.0134027 48 33 28
0.071019 0.0768515 -0.0358525 68 30 15
0.0380106 0.0586786 -0.0127705 46 31 25
0.0630641 0.0470707 -0.0138886 53 29 20
0.0563842 0.0249113 -0.0365248 40 24 19
0.0710652 0.063391 -0.0493767 47 29 26
0.0622165 0.035466 -0.0333667 53 39 33
0.0670856 0.0402597 -0.0208786 124 67 53
0.0340146 0.0708989 -0.0221772 54 25 19
0.0299303 0.0704081 -0.0205947 51 31 23
0.0684493 0.0276782 -0.0350612 196 165 144
0.0363176 0.0580483 -0.0183287 49 34 27
0.0587996 0.0828346 -0.0256731 38 27 25
0.0655809 0.0330777 -0.0315814 83 47 39
0.0546281 0.0471043 -0.006025 59 45 39
0.0592838 0.0715498 -0.015825 48 31 26
0.0705197 0.0544555 -0.0710709 87 61 51
0.0637081 0.0315614 -0.0395673 60 39 29
0.0698041 0.0521234 -0.015635 43 27 23
0.051008 0.0588095 -0.00729548 43 27 23
0.061305 0.0348168 -0.0304692 56 40 37
0.068085 0.0435069 -0.0225472 38 26 21
0.0403268 0.0209306 -0.0104439 0 0 0
0.0661216 0.051518 -0.012525 46 31 24
0.07518 0.0673637 -0.0236696 31 20 15
0.0615411 0.0807402 -0.0350745 34 25 19
0.0715406 0.0562949 -0.0518838 61 45 36
0.0606225 0.0347473 -0.0315249 45 34 26
0.0682708 0.0318181 -0.013987 192 122 112
0.0315556 0.0504818 -0.0208941 42 29 23
0.0617318 0.0298074 -0.0662195 100 71 59
0.037458 0.03128 -0.0368853 62 43 37
0.0549391 0.0330549 -0.0210083 47 31 26
0.0571731 0.0383474 -0.0166318 48 32 27
0.0611898 0.0766258 -0.0530237 58 38 32
0.0405672 0.026318 -0.0425549 51 35 28
0.040214 0.0300356 -0.03451 59 42 37
0.0486958 0.0636943 -0.0105901 46 30 30
0.0582707 0.031059 -0.0328579 55 41 34
0.0640374 0.032404 -0.06667 111 87 80
0.062448 0.0346259 -0.0196201 46 16 5
0.0426593 0.0268695 -0.0317786 53 40 35
0.073731 0.0545822 -0.0212457 14 0 0
0.0588377 0.0260364 -0.0540101 53 36 30
0.0557438 0.024902 -0.0622089 52 32 32
0.0733687 0.0531884 -0.0373704 81 58 52
0.0311902 0.0561203 -0.0410421 40 23 19
0.0604237 0.0798391 -0.0250242 44 31 26
0.0641502 0.0762076 -0.0237666 45 27 22
0.070346 0.048501 -0.0374922 60 43 37
0.0633225 0.0332897 -0.0432884 52 35 29
0.0323924 0.0437051 -0.0162096 44 29 23
0.0446024 0.0619308 -0.0110149 47 30 23
0.0648814 0.0330843 -0.068815 99 70 57
0.066583 0.0418418 -0.0277951 48 33 27
0.0278177 0.0522662 -0.0421372 73 45 39
0.0634129 0.0773333 -0.0419497 51 36 31
0.0711174 0.0539937 -0.0526705 61 44 38
0.0661525 0.0371307 -0.0851292 189 143 127
0.0709019 0.062874 -0.0394442 70 57 49
0.0618209 0.0800357 -0.0284636 41 26 22
0.0723359 0.0541884 -0.0549899 67 39 32
0.0686743 0.0373951 -0.047266 66 47 41
0.0352383 0.067775 -0.0214375 51 33 28
0.0383675 0.0289123 -0.0341132 56 43 36
0.0697481 0.0703078 -0.0471313 52 35 30
0.0750432 0.0539158 -0.0234092 51 39 37
0.0726464 0.0606017 -0.0384445 72 66 59
0.0484941 0.0611864 -0.00894693 48 32 26
0.0246595 0.0602745 -0.0313737 0 0 0
0.0369653 0.0380251 0.00444102 26 11 8
0.0792538 0.0660261 -0.0364527 151 117 97
0.0477547 0.0823569 -0.021615 46 29 24
0.0716539 0.0533188 -0.040816 61 45 38
0.0389838 0.0254163 -0.0462118 60 41 36
0.0720565 0.0489176 -0.0465309 55 38 32
0.0351576 0.061726 -0.0208646 59 39 31
0.0491682 0.0232818 -0.0489939 53 37 31
0.0636049 0.0335002 -0.0425664 51 33 28
0.0432792 0.0804549 -0.0317519 42 29 24
0.0637315 0.043628 -0.0207889 52 36 31
0.0638377 0.0315971 -0.0388447 64 43 35
0.0330349 0.041769 -0.0386041 63 48 41
0.0476296 0.0235008 -0.0469539 55 38 33
0.071329 0.0634237 -0.0552205 59 21 11
0.0618203 0.0765795 -0.0186263 44 28 23
0.0369483 0.0593804 -0.0145571 40 29 23
0.0661228 0.0328319 -0.0421771 102 113 102
0.0385944 0.0292394 -0.0349788 57 40 34
0.0506437 0.102862 0.0015381 0 0 0
0.0699623 0.0424062 -0.0673172 94 68 57
0.0400739 0.0810675 0.0103726 0 0 28
0.0809596 0.0664141 -0.0268295 182 186 173
0.0480295 0.0312816 -0.0200107 47 32 27
0.0704404 0.0498183 -0.0720014 90 65 56
0.033274 0.0747972 0.0197571 0 0 0
0.0346784 0.0428893 -0.0545091 49 32 26
0.0673817 0.0420009 -0.0791688 96 67 55
0.0541226 0.0329051 -0.0183559 52 35 31
0.0712992 0.0583792 -0.0388884 69 50 42
0.0614505 0.0422071 -0.0204467 52 35 29
0.0707759 0.0718738 -0.0152322 42 28 24
0.0696012 0.0419233 -0.0397127 59 41 36
0.0599262 0.0401435 -0.0140175 45 29 23
0.0694264 0.0377093 -0.0491208 77 63 57
0.0588097 0.0612362 -0.00849579 37 24 21
0.064758 0.0422257 -0.0226185 47 31 25
0.0567092 0.025485 -0.0469652 52 35 29
0.0719933 0.0495398 -0.0222174 47 33 21
0.0664556 0.0427442 -0.0227905 45 29 23
0.0293833 0.0465425 -0.04106 38 19 19
0.0556475 0.076514 -0.0126994 45 31 25
0.074938 0.0641369 -0.01477 48 37 33
0.0517566 0.0320675 -0.0207603 47 31 26
0.0691911 0.0385735 -0.0724742 206 174 171
0.0688648 0.0435001 -0.0361843 55 37 32
0.0397508 0.0603224 -0.0157278 49 33 27
0.0690476 0.0485512 -0.0204094 34 23 16
0.0378768 0.0767764 -0.0157964 94 65 44
0.041369 0.0242153 -0.0444313 53 31 27
0.0580352 0.0615426 -0.00797234 55 36 31
0.0741271 0.0628315 -0.0412241 53 37 28
0.070803 0.0507831 -0.071511 90 64 55
0.036417 0.0756437 -0.0258173 41 27 26
0.0350838 0.0427357 -0.0147022 46 32 26
0.0302953 0.0665335 -0.0312922 44 29 25
0.0684097 0.050819 -0.0187829 45 29 24
0.0703446 0.0709917 -0.013648 41 26 24
0.0681285 0.0388158 -0.0557902 71 57 48
0.0376195 0.0290001 -0.0318398 31 29 26
0.068733 0.0536324 -0.0595835 21 0 0
0.065329 0.0349507 -0.0473946 60 40 34
0.0338877 0.0361153 -0.0383058 62 44 38
0.0636563 0.0408816 -0.0208107 43 28 22
0.0432811 0.029151 -0.0164091 30 21 0
0.0619443 0.0431833 -0.0171032 37 19 14
0.0529921 0.0343001 -0.0177881 51 37 31
0.0707682 0.0621521 -0.0424466 54 36 30
0.0701103 0.036436 -0.0720749 164 138 136
0.068763 0.036094 -0.073306 145 120 111
0.0601582 0.0345907 -0.0304308 21 3 0
0.0695378 0.0419406 -0.0679231 112 89 78
0.0682238 0.0750602 -0.0359522 46 31 25
0.0707705 0.058988 -0.0386999 58 45 38
0.0307402 0.0475429 -0.042833 52 36 29
0.0489643 0.081915 -0.0232844 44 30 24
0.0459246 0.0808289 -0.0267158 44 31 24
0.0536708 0.0827847 -0.0297641 38 26 20
0.0691741 0.0717838 -0.0146582 43 29 25
0.0587502 0.0462753 -0.00745783 45 30 25
0.0330778 0.0413289 -0.0350927 26 16 12
0.048687 0.0233484 -0.0660883 87 61 52
0.0499291 0.0238774 -0.0416805 49 34 29
0.0735944 0.0391383 -0.0448815 55 40 31
0.058261 0.0586403 -0.00935504 54 38 31
0.0553869 0.0245241 -0.0470372 48 31 26
0.0390834 0.0330697 -0.024632 42 26 20
0.0407573 0.0771359 -0.0160637 20 12 11
0.0740437 0.0403203 -0.0437127 41 0 0
0.060081 0.0570035 -0.00978865 46 32 28
0.0324904 0.0453166 -0.0429064 58 40 34
0.0373383 0.0325779 -0.0527902 44 30 24
0.0327174 0.0428739 -0.0128516 31 14 8
0.0565205 0.0325277 -0.0295151 38 19 16
0.0415984 0.0615268 -0.0137554 54 38 30
0.0424272 0.0815192 -0.0276567 43 27 20
0.0301094 0.0440117 -0.023797 47 31 27
0.036764 0.0623042 -0.0187721 52 36 29
0.0725656 0.0529448 -0.0351602 56 40 36
0.0703574 0.0751222 -0.0200477 51 26 0
0.0624874 0.0321336 -0.0972754 130 99 91
0.0369347 0.0580704 -0.0167211 47 30 24
0.0440929 0.0288958 -0.0209097 45 29 24
0.0790416 0.0580927 -0.0234578 53 24 0
0.0698751 0.0462154 -0.0238849 44 29 25
0.0704769 0.0655267 -0.0421184 60 44 37
0.0736551 0.05351 -0.0172604 36 17 4
0.0700383 0.0449315 -0.0245372 47 33 29
0.0601407 0.0824692 -0.0233897 50 31 25
0.0454587 0.0821312 -0.023193 54 36 20
0.0612283 0.028693 -0.0472468 54 37 31
0.0655835 0.0749646 -0.0458867 57 38 32
0.0699746 0.038998 -0.0383006 100 84 71
0.0652718 0.038506 -0.0356072 63 43 38
0.0683886 0.0321975 -0.0437225 52 37 45
0.0392737 0.057968 -0.0103624 49 34 28
0.0361715 0.0575856 -0.00435519 52 50 35
0.0662055 0.0768877 -0.0402855 46 28 24
0.0634061 0.0334233 -0.0375081 51 35 30
0.0714328 0.0808034 -0.0266545 59 16 0
0.0601454 0.0523772 -0.0113261 53 36 30
0.0320522 0.0632213 -0.0549235 255 221 165
0.0432029 0.0648006 -0.00672597 0 0 0
0.0367914 0.0603637 -0.0200539 55 39 32
0.0389445 0.0307887 -0.00717171 0 0 0
0.0449597 0.0810991 -0.0215383 42 29 23
0.0745725 0.0472475 -0.023717 0 0 0
0.0596979 0.0309245 -0.0628666 14 0 0
0.0508952 0.0210646 -0.0557924 255 255 255
0.0520278 0.0240417 -0.0614195 100 87 78
0.0665291 0.039314 -0.0799021 111 96 79
0.0691464 0.0537151 -0.0604877 72 53 43
0.0697294 0.0548312 -0.0594217 61 44 37
0.069441 0.0562715 -0.0598124 60 44 37
0.0372673 0.0489253 -0.0689611 97 68 55
0.0399889 0.0766526 -0.0419855 51 41 34
0.0423529 0.0246314 -0.0553701 117 87 79
0.039479 0.0291838 -0.0605383 115 87 75
0.0666457 0.037487 -0.0801394 81 56 46
0.0692526 0.0538561 -0.0605576 68 50 41
0.0691119 0.0492169 -0.0617261 90 67 56
0.070291 0.0609803 -0.0604177 56 29 38
0.0676787 0.0638954 -0.0735457 91 67 57
0.0571089 0.0270176 -0.0620805 93 67 63
0.0521384 0.0254641 -0.0624547 92 66 57
0.0559581 0.0266782 -0.0622946 84 57 44
0.0364006 0.0329029 -0.0350002 54 41 35
0.0377816 0.0468797 -0.0668545 91 72 59
0.0373861 0.045487 -0.0669845 108 73 63
0.0603074 0.029136 -0.0633047 96 76 65
0.0372424 0.03991 -0.0650481 93 71 65
0.0693088 0.0636364 -0.0600798 71 58 51
0.0694176 0.0634095 -0.0592726 74 53 48
0.0382922 0.0291736 -0.0585102 94 79 71
0.0364851 0.0336433 -0.0360374 52 38 34
0.0602764 0.0292057 -0.0633504 90 69 60
0.0695167 0.0613469 -0.0593551 60 43 38
0.0608124 0.0313217 -0.0630557 83 55 44
0.0658775 0.0361233 -0.0861276 161 122 111
0.0409134 0.0774289 -0.039664 29 19 16
0.0397158 0.0313622 -0.0621789 87 63 51
0.0677841 0.0685958 -0.0624712 57 38 35
0.037246 0.0405462 -0.0653452 84 63 50
0.0705312 0.0558012 -0.0572723 105 84 71
0.0501588 0.0215515 -0.0532754 255 255 255
0.0690494 0.0508591 -0.0623091 93 67 55
0.0638391 0.033712 -0.0559875 63 45 39
0.0323267 0.0404383 -0.0418424 62 45 39
0.0415311 0.0797975 -0.0405232 48 32 23
0.0356848 0.0577063 -0.0577787 96 63 51
0.0697521 0.0604312 -0.0596856 71 60 45
0.0701716 0.0420187 -0.0820045 115 92 81
0.0663803 0.0768372 -0.0469486 53 35 29
0.0665427 0.0658025 -0.0740786 81 60 51
0.0663817 0.0703215 -0.0615657 67 44 35
0.0619122 0.0310924 -0.0547951 43 25 21
0.0706758 0.0523449 -0.0377577 61 45 38
0.0659743 0.0370563 -0.0774532 121 95 84
0.0311886 0.0431776 -0.0445716 52 31 25
0.0688386 0.0634921 -0.058952 62 46 39
0.0619665 0.0338745 -0.0613034 71 53 45
0.0713404 0.0479654 -0.0760215 82 55 45
0.0561698 0.0310477 -0.031469 61 44 37
0.0322192 0.0451071 -0.0462918 54 35 29
0.0367706 0.0465725 -0.0646802 83 56 47
0.0357086 0.051943 -0.0677949 49 38 31
0.0533497 0.0812801 -0.0413792 36 24 21
0.0347875 0.0534068 -0.0604016 61 43 37
0.0355309 0.0473068 -0.0619875 81 56 46
0.036178 0.0556731 -0.0634229 68 45 36
0.0374441 0.0550069 -0.0649928 75 51 42
0.0337783 0.0504782 -0.0585389 65 44 38
0.0667802 0.0369308 -0.0780026 118 92 82
0.0368469 0.0530414 -0.066473 89 69 58
0.0313694 0.0519332 -0.0387197 55 31 25
0.0670366 0.073978 -0.0407426 60 46 40
0.0704928 0.0560544 -0.0385814 47 30 26
0.0300477 0.0518902 -0.03377 62 44 38
0.0664422 0.0716409 -0.0451659 52 37 31
0.059941 0.0288996 -0.0636131 85 66 55
0.0682469 0.0407917 -0.0621108 63 44 35
0.0452606 0.0801557 -0.0376171 43 33 28
0.0682493 0.0400069 -0.038199 65 42 38
0.0661067 0.0362414 -0.0796136 79 62 41
0.0314724 0.0464183 -0.0341089 76 51 41
0.0345937 0.0540348 -0.0604488 11 0 0
0.0331627 0.0542927 -0.0548204 55 38 30
0.0643593 0.0336635 -0.0734096 106 74 65
0.0336288 0.0529999 -0.048101 53 39 32
0.0363758 0.054356 -0.0632477 99 80 68
0.0321045 0.0551352 -0.0395177 37 24 21
0.0349773 0.0575598 -0.0598814 50 34 28
0.0315209 0.0450201 -0.0341545 95 75 64
0.0539237 0.0248218 -0.0632663 100 69 60
0.0368673 0.0331208 -0.0361833 57 37 32
0.0603767 0.0312966 -0.0637159 88 70 60
0.0664344 0.0366315 -0.0792947 130 105 94
0.0348972 0.0627941 -0.0556478 184 153 130
0.033062 0.0542109 -0.0543915 255 228 195
0.0691 0.0504354 -0.0603291 54 37 37
0.0345503 0.0596799 -0.0518818 16 5 9
0.0693494 0.0480253 -0.0567762 42 24 19
0.0331106 0.0570467 -0.0463239 46 32 27
0.0318812 0.0489828 -0.0444469 59 41 35
0.0343717 0.0551205 -0.0596445 43 26 20
0.0709742 0.0504607 -0.0374818 62 45 39
0.0612211 0.0287213 -0.0439827 49 31 26
0.0649694 0.0355669 -0.0758037 108 85 76
0.0721622 0.0449126 -0.0451797 50 29 25
0.0338234 0.0721071 -0.0341256 27 11 8
0.067991 0.0415096 -0.0579038 64 48 40
0.0342491 0.0549137 -0.0574328 12 0 0
0.0344821 0.0523358 -0.0576085 160 128 108
0.0651568 0.0388967 -0.0349591 69 47 42
0.0642518 0.0351466 -0.0664338 111 81 71
0.0359527 0.0351344 -0.0365114 58 42 35
0.0681012 0.0354868 -0.0517646 87 77 73
0.069209 0.0452047 -0.0575168 75 61 48
0.0638379 0.0743179 -0.0605598 66 31 6
0.0708292 0.0534737 -0.0382046 52 40 31
0.0644963 0.0323312 -0.0735987 100 71 60
0.0367703 0.0484192 -0.061342 44 28 23
0.0653484 0.075328 -0.0421528 52 35 33
0.0326022 0.0439021 -0.0389342 67 49 42
0.0323967 0.0590712 -0.0468006 38 27 23
0.0635625 0.0347671 -0.0575839 78 65 58
0.0695166 0.0745213 -0.0327122 45 30 25
0.0711588 0.0504569 -0.0373758 58 43 37
0.032301 0.0524748 -0.0508801 152 113 92
0.0368529 0.0598097 -0.0581574 38 21 18
0.0327106 0.0452377 -0.0386014 68 46 39
0.0368032 0.063401 -0.0573782 33 20 17
0.03603 0.0420402 -0.0638132 8 0 0
0.0272233 0.0504335 -0.0480652 80 59 47
0.0707955 0.0554953 -0.0385142 46 30 22
0.0699276 0.0421737 -0.0780849 105 80 71
0.0307978 0.0449138 -0.0401029 60 47 41
0.0371592 0.0430572 -0.0643163 21 0 0
0.0709218 0.0545955 -0.0383603 61 47 37
0.0703052 0.0432098 -0.0364368 59 42 37
0.0639052 0.0344 -0.062107 8 0 0
0.0698979 0.063112 -0.0546529 38 27 21
0.0333644 0.0550266 -0.0479046 47 29 26
0.0633824 0.0366798 -0.0327391 45 33 27
0.0650713 0.0304183 -0.0744378 92 67 59
0.0311541 0.0553068 -0.0409064 35 20 16
0.0335027 0.0531857 -0.0549388 28 18 13
0.062614 0.0363668 -0.0326772 50 38 33
0.0684773 0.0425112 -0.0376337 62 44 38
0.0296859 0.0537885 -0.0209595 44 30 25
0.0663614 0.0374913 -0.0799109 132 95 86
0.03204 0.0510735 -0.0384475 66 47 41
0.0314747 0.0548617 -0.0412818 40 23 18
0.0484227 0.0238651 -0.0430998 47 30 25
0.0684031 0.0436795 -0.0758128 76 48 37
0.0663921 0.0386834 -0.0820044 125 90 80
0.0371264 0.0634417 -0.0589319 37 26 20
0.069422 0.0347081 -0.0501516 104 109 109
0.070789 0.0477214 -0.0381545 59 43 36
0.0366478 0.0411671 -0.0643972 28 0 0
0.0337886 0.0668989 -0.041166 66 54 45
0.068036 0.0426386 -0.0351912 46 23 25
0.0654824 0.0372768 -0.0675837 104 76 63
0.0658978 0.0757601 -0.0471499 53 36 31
0.0747864 0.0340848 -0.0510745 233 231 219
0.0691986 0.0406076 -0.0523008 68 51 44
0.0363769 0.0374376 -0.0650845 34 17 0
0.0628772 0.0316139 -0.0473138 56 38 33
0.0329413 0.0662827 -0.0446057 34 26 20
0.0325504 0.0445241 -0.038017 70 54 45
0.0405017 0.0245026 -0.0556723 133 109 94
0.0331993 0.0444873 -0.0502209 48 31 26
0.0435624 0.0234768 -0.0534478 116 88 77
0.0673806 0.0726118 -0.0393655 12 0 0
0.0656197 0.0367559 -0.077862 126 95 82
0.0657678 0.0365779 -0.0811519 109 76 70
0.0675671 0.0370468 -0.077086 121 97 86
0.027504 0.0586471 -0.0379315 58 42 33
0.0689911 0.0418174 -0.0359293 54 37 32
0.0628466 0.0327875 -0.0389133 45 29 24
0.0700914 0.0449506 -0.0520912 50 33 26
0.0655726 0.0347361 -0.0501557 66 46 40
0.0638433 0.0355045 -0.035876 59 43 38
0.0656939 0.0352054 -0.0777412 113 84 75
0.0658265 0.0405101 -0.0341039 0 0 0
0.0693611 0.0465854 -0.0669217 79 54 43
0.0502588 0.0295287 -0.0268154 65 44 40
0.0698192 0.0462026 -0.0696436 86 58 48
0.034455 0.0492796 -0.058517 110 87 73
0.0653646 0.0330252 -0.0762555 70 29 0
0.0652265 0.0365969 -0.0654221 115 88 75
0.0324361 0.0399019 -0.0415108 61 43 36
0.063229 0.0774276 -0.0403737 38 26 23
0.0694723 0.0468796 -0.0562317 49 32 27
0.0325614 0.051915 -0.0468228 53 35 29
0.0654697 0.0751974 -0.0414155 35 25 22
0.0317628 0.0521076 -0.050087 150 111 96
0.0665785 0.0361432 -0.0631863 31 22 0
0.0351923 0.0560787 -0.0529487 47 31 26
0.0682361 0.042606 -0.0638766 60 45 37
0.0315932 0.0466226 -0.0554842 219 170 145
0.0653215 0.074589 -0.0439903 48 34 28
0.0624176 0.0361634 -0.0324255 40 29 24
0.0303237 0.0600036 -0.0299735 40 24 19
0.024074 0.0601806 -0.0289838 0 0 0
0.0520863 0.0223375 -0.0495465 55 42 36
0.0633015 0.0328688 -0.0405201 54 39 34
0.0441528 0.0240194 -0.0482204 50 34 30
0.0313118 0.0671978 -0.0298874 35 20 16
0.0374713 0.0338852 -0.0574738 55 37 31
0.0518848 0.0282205 -0.0320988 54 39 33
0.0366383 0.0510029 -0.0663818 96 73 63
0.0612848 0.0293158 -0.0648858 87 65 55
0.0688887 0.0414198 -0.0661359 93 72 62
0.0346088 0.0664029 -0.0437071 48 31 26
0.0660245 0.0498219 -0.00241205 67 45 76
0.0360332 0.0324036 -0.0520389 84 59 50
0.0364485 0.0607907 -0.0648586 71 49 48
0.0717547 0.0523983 -0.0693807 81 61 49
0.0660227 0.0351576 -0.0713957 142 118 111
0.0644318 0.034714 -0.0856186 90 63 49
0.064175 0.0354028 -0.0714725 86 60 51
0.0399252 0.0269819 -0.0400363 53 35 30
0.0441606 0.0314509 -0.0170987 42 27 22
0.0634279 0.0347591 -0.0359777 56 36 29
0.0375975 0.0610659 -0.0635458 76 53 44
0.0691758 0.0430654 -0.0649559 97 75 67
0.034926 0.0668375 -0.0177534 62 48 37
0.0673567 0.0411103 -0.0807181 125 94 86
0.0705024 0.0564469 -0.0587295 24 0 0
0.037329 0.0752616 -0.0373979 21 18 15
0.0687626 0.0672178 -0.063396 63 42 36
0.0366963 0.0314847 -0.0475863 47 33 27
0.0451589 0.0555179 0.00150344 40 22 16
0.0717011 0.0522266 -0.0646046 96 74 62
0.066303 0.0385904 -0.0780087 121 87 76
0.0529818 0.0836238 -0.0238379 51 38 29
0.0634487 0.0311073 -0.0748038 116 95 68
0.0636432 0.0372388 -0.035034 64 44 39
0.0567214 0.0824974 -0.0234346 35 24 19
0.0708069 0.0561757 -0.0526802 58 41 35
0.0607502 0.0448838 0.00127349 60 42 36
0.044431 0.0698673 -0.0124542 49 33 28
0.0352441 0.0519689 -0.0683502 94 52 47
0.0691005 0.0712087 -0.0406794 68 56 41
0.0414017 0.026662 -0.0453198 53 36 31
0.069054 0.0344006 -0.0459577 98 85 79
0.0463544 0.0809875 -0.0166047 34 22 25
0.0633519 0.0801552 -0.0267253 40 27 26
0.0656387 0.104743 -0.00954815 45 25 0
0.0668886 0.0756895 -0.0163025 39 27 23
0.0336138 0.0697319 -0.038571 96 67 55
0.0503884 0.101031 -0.00491086 0 0 0
0.064753 0.0375752 -0.0324683 46 31 24
0.0609929 0.0428025 -0.018832 46 29 23
0.0509292 0.0223577 -0.051486 37 17 13
0.0379444 0.0570007 -0.0109516 51 35 29
0.0666282 0.0396087 -0.081673 131 98 85
0.0374141 0.0591284 -0.0617936 62 40 36
0.0506391 0.0939377 0.0118676 0 0 0
0.0356609 0.0329246 -0.0501194 7 1 0
0.0680281 0.0652393 -0.0671659 68 43 37
0.0508295 0.038008 -0.00819099 49 33 27
0.0502518 0.0296595 -0.0263044 63 45 39
0.0346573 0.0513708 -0.0680673 101 86 81
0.0338751 0.0678437 -0.0161904 55 35 34
0.0583691 0.0319084 -0.0320795 62 42 35
0.0541351 0.0642383 -0.0128065 55 38 31
0.0720987 0.0685168 -0.0489149 80 59 53
0.0724625 0.0582217 -0.0530312 60 49 43
0.0628925 0.0796341 -0.0367409 41 28 23
0.0312249 0.0596866 -0.0326605 52 29 22
0.0422444 0.0264325 -0.0522286 50 32 27
0.0540649 0.0479928 -0.00725424 55 39 32
0.0690868 0.0695863 -0.0466378 49 33 28
0.0482788 0.0244899 -0.040802 53 36 31
0.0688275 0.0437535 -0.0685645 84 61 50
0.0672917 0.0337963 -0.0518554 77 63 59
0.0394849 0.0780503 -0.0321454 44 29 23
0.0599264 0.0362029 -0.0204953 49 34 30
0.0714816 0.0506373 -0.037817 63 49 40
0.0767205 0.0500529 -0.00566427 0 0 0
0.0418798 0.0278955 -0.0310698 58 40 38
0.0357884 0.0560018 -0.0662139 97 80 70
0.06971 0.0387383 -0.071877 255 243 244
0.0707633 0.0449359 -0.0670752 131 107 97
0.0356735 0.0357067 -0.0533179 42 26 21
0.0695952 0.0449823 -0.0359774 81 61 52
0.0456094 0.0268712 -0.0226476 74 65 56
0.0670158 0.0393716 -0.0633802 94 83 74
0.0587495 0.0818333 -0.0291041 40 28 23
0.0600654 0.0543004 0.0152862 84 66 70
0.0337785 0.0375946 -0.0399376 59 42 35
0.0688102 0.0395327 -0.0499201 64 48 41
0.0501067 0.0281091 -0.0220755 109 92 81
0.0309809 0.0696085 -0.0227059 52 36 24
0.0321452 0.0578944 -0.0431215 41 27 23
0.0630124 0.0320014 -0.0732688 100 73 61
0.0326175 0.0627418 -0.0488707 0 0 0
0.0701851 0.047292 -0.0363911 72 50 44
0.0372678 0.0431949 -0.00696557 30 21 9
0.0593824 0.0538711 0.00869562 79 55 55
0.0657014 0.0371173 -0.0810183 124 89 78
0.0720115 0.0492524 -0.0359448 64 45 36
0.0710035 0.0602496 -0.0388011 80 42 35
0.0652771 0.0356353 -0.0648756 107 81 63
0.029719 0.0570558 -0.0349427 87 65 57
0.0705407 0.0578734 -0.054627 65 45 37
0.0596223 0.0269361 -0.0473127 52 34 29
0.0326639 0.0498983 -0.0391077 68 52 45
0.0352721 0.0555405 -0.068454 78 57 44
0.0637482 0.0773467 -0.0228724 35 19 14
0.0635381 0.0781282 -0.0306928 45 30 25
0.0589005 0.0568247 -0.00981642 58 42 34
0.069225 0.0439015 -0.0697918 93 69 59
0.0462915 0.0219265 -0.0489821 38 23 22
0.0673098 0.0501567 -0.0196889 45 30 25
0.0322829 0.0606129 -0.0369961 58 43 40
0.0709079 0.049975 -0.0373487 58 45 36
0.0390681 0.0297244 -0.0381159 57 40 34
0.0485736 0.0251496 -0.0353768 59 40 34
0.0338015 0.0708791 -0.0275111 41 26 22
0.0657293 0.0484288 -0.0190568 47 31 29
0.0367823 0.0536966 -0.0651064 40 20 18
0.0648807 0.0354255 -0.0729357 108 81 69
0.0322331 0.0619585 -0.0347325 62 39 34
0.0624037 0.0389786 -0.0226623 42 26 21
0.0325137 0.0620517 -0.034003 46 27 22
0.0456213 0.0816013 -0.031252 39 28 22
0.0721525 0.0494641 -0.0378861 61 43 38
0.0448686 0.0940933 0.0116554 0 0 15
0.0357188 0.0315683 -0.0255751 77 65 59
0.0654055 0.0367995 -0.0747991 111 82 70
0.0325513 0.0473334 -0.0487666 47 31 25
0.062636 0.0784547 -0.0280045 44 30 24
0.057475 0.0368715 -0.0166766 40 26 22
0.0342067 0.0375496 -0.038679 59 41 35
0.0485501 0.0756344 -0.00620705 0 0 19
0.0306553 0.0537132 -0.0210765 42 24 19
0.070651 0.0434394 -0.0402647 59 40 33
0.0360351 0.0513439 -0.0717694 91 64 52
0.0494078 0.0239362 -0.0454772 57 39 34
0.0668727 0.0382112 -0.0867447 109 79 64
0.0241533 0.0634873 -0.0286139 16 10 14
0.069488 0.0713262 -0.0443933 31 23 23
0.0717674 0.0568283 -0.0391826 57 38 34
0.0625438 0.0826636 -0.0344484 94 71 52
0.0589237 0.0881647 -0.0314838 43 29 26
0.0641315 0.0359885 -0.0674028 103 77 66
0.0367249 0.0306637 -0.0417918 58 39 34
0.0385784 0.0306176 -0.0374652 58 41 34
0.0724951 0.0508704 -0.0190398 44 36 36
0.038334 0.0757969 -0.0284849 45 31 26
0.0605756 0.0274445 -0.0503704 54 36 32
0.0200181 0.0666672 0.0133199 0 0 0
0.0315841 0.0556232 -0.0171876 57 43 36
0.0618273 0.078091 -0.0215245 43 25 21
0.0286715 0.0495176 -0.0204453 45 31 25
0.033889 0.0708975 -0.0226989 28 23 16
0.0720145 0.0534238 -0.0371961 68 50 49
0.0685486 0.0413384 -0.0371242 63 43 38
0.0378268 0.0328345 -0.0315077 33 19 14
0.0605521 0.0349466 -0.0317404 49 34 28
0.0658719 0.0376654 -0.0775787 121 90 80
0.0670033 0.0364384 -0.0782472 98 71 63
0.0718635 0.0480928 -0.0372392 62 44 36
0.0614477 0.0362912 -0.024754 45 30 25
0.0716976 0.0677411 -0.0517029 112 82 71
0.0530401 0.0320059 -0.0215798 48 33 27
0.0486016 0.0256493 -0.0346343 53 41 37
0.0390195 0.0762812 -0.0219743 42 28 25
0.0343633 0.0321699 -0.0420947 59 40 33
0.0634514 0.0337826 -0.0702978 83 55 43
0.0694237 0.0455458 -0.0723136 76 48 40
0.0423001 0.0269347 -0.0341622 52 37 31
0.0402969 0.0272533 -0.0401392 57 39 33
0.0530817 0.0328778 -0.0192674 50 34 29
0.0717006 0.0558483 -0.0390848 58 44 37
0.0714681 0.044442 -0.0397498 63 46 42
0.0743455 0.0617491 -0.0110374 46 30 24
0.0724222 0.0417898 -0.0406172 61 34 33
0.07046 0.0589586 -0.0527975 58 43 37
0.0351617 0.0369379 -0.0505891 49 32 27
0.067318 0.0677272 -0.0655587 59 37 30
0.0435368 0.0829214 -0.0282248 43 27 22
0.0707977 0.0579309 -0.0481945 46 28 24
0.0647533 0.0830814 0.00301847 9 6 49
0.0574155 0.0839038 -0.0242849 28 13 16
0.0655829 0.0723043 -0.0446999 50 35 29
0.0719074 0.0486084 -0.0692761 83 72 67
0.0706411 0.0644484 -0.0463648 48 30 26
0.0665203 0.0486186 -0.0193373 54 36 32
0.0575439 0.033588 -0.023403 48 32 28
0.0551972 0.0324641 -0.0214014 49 34 28
0.0709018 0.0425344 -0.0453665 52 33 27
0.0588296 0.0380302 -0.0175512 44 30 25
0.0451406 0.0233794 -0.0392152 28 20 22
0.0695017 0.0663226 -0.0523896 46 31 26
0.0523502 0.0315833 -0.0240764 46 30 26
0.0451811 0.0215921 -0.0431687 41 25 20
0.0726721 0.0444506 -0.0413027 54 31 25
0.0718337 0.0489665 -0.0417565 59 41 35
0.0307932 0.0704246 -0.0316582 64 46 38
0.0664033 0.0408358 -0.0232946 40 26 21
0.0563179 0.0845993 -0.0175408 33 17 35
0.0339271 0.0389058 -0.0507973 40 26 21
0.0651898 0.0388021 -0.0858258 96 63 51
0.0443427 0.0234516 -0.0481313 58 40 33
0.0359803 0.0337998 -0.0485685 53 37 31
0.0722235 0.0612973 -0.0403026 78 68 56
0.0584418 0.0704176 -0.0150883 52 34 29
0.0694647 0.0422496 -0.0545529 65 45 37
0.0642354 0.0335197 -0.0422268 59 45 37
0.0390887 0.0287826 -0.0519983 50 32 26
0.0311746 0.0473919 -0.0424001 53 35 28
0.0675794 0.0372268 -0.0413278 66 54 49
0.0641244 0.0276511 -0.047396 78 58 52
0.069613 0.0420758 -0.0375398 57 42 37
0.0514996 0.0236254 -0.0431795 47 26 23
0.0320628 0.061803 -0.0358498 67 50 42
0.0295279 0.0703681 -0.0301744 95 76 65
0.0377273 0.0753387 -0.0232794 44 32 28
0.0366952 0.0586459 -0.0187584 50 34 28
0.0665621 0.0387604 -0.0776817 117 90 79
0.0412031 0.0253 -0.0394679 59 39 35
0.074385 0.0594907 -0.0197535 45 29 25
0.0685706 0.0448766 -0.0276937 40 26 21
0.04043 0.0256416 -0.00846664 33 19 0
0.0444012 0.0271957 -0.0347758 56 40 34
0.0567369 0.0816802 -0.0412532 27 20 16
0.04485 0.0243845 -0.0410445 49 30 26
0.0414388 0.0266604 -0.0528593 63 43 37
0.028734 0.0514357 -0.0142694 54 45 40
0.0663185 0.103168 -0.0116543 20 20 0
0.0430758 0.0730214 -0.0131322 45 31 26
0.0633931 0.0341734 -0.0680928 102 76 64
0.0690835 0.0439992 -0.0723428 86 61 47
0.0574237 0.0835407 -0.0217265 37 24 23
0.0715124 0.051441 -0.0406474 62 43 37
0.0715654 0.0564311 -0.0391588 55 40 35
0.0751401 0.0587563 -0.016082 35 22 21
0.0680934 0.0445862 -0.0257245 46 32 27
0.0717964 0.0546512 -0.0425475 59 41 34
0.0678538 0.0377515 -0.0826105 121 79 75
0.0335552 0.0612765 -0.0355753 33 21 17
0.0464779 0.0276755 -0.0290234 48 35 31
0.0324523 0.0412387 -0.0398425 56 39 33
0.0392451 0.0316189 -0.0266625 42 27 24
0.0656749 0.0385478 -0.0795054 102 74 61
0.0723691 0.0590882 -0.0394022 56 81 77
0.0340445 0.0626996 -0.0558741 169 136 115
0.033845 0.0407319 -0.0543023 55 36 27
0.0625868 0.0307287 -0.0739676 91 62 52
0.0662075 0.0402469 -0.0802413 92 64 52
0.0671184 0.0402755 -0.0723242 80 57 46
0.0640913 0.0339875 -0.0709862 85 59 46
0.0682391 0.0410123 -0.0664645 98 73 63
0.0315074 0.0597445 -0.0354245 74 58 52
0.0401087 0.0277665 -0.0521064 61 44 38
0.0305063 0.0479751 -0.04052 31 18 17
0.0689697 0.0415329 -0.0712306 79 58 46
0.0702365 0.0405836 -0.0833897 120 85 68
0.0497816 0.0824111 -0.0279027 42 28 22
0.0691418 0.0377371 -0.0673148 99 68 56
0.0523356 0.0247966 -0.0349869 16 0 0
0.0485267 0.0350765 -0.0110633 46 32 27
0.0611637 0.0803415 -0.0314782 40 27 23
0.0564518 0.0389883 -0.00896612 48 34 26
0.0330207 0.0582908 -0.0172241 43 25 21
0.038716 0.0331723 -0.0616957 32 0 0
0.0729614 0.0646451 -0.0233775 49 34 29
0.033257 0.0437984 -0.0179459 44 30 24
0.058069 0.0264976 -0.0387676 48 34 28
0.0703665 0.0421884 -0.05098 69 53 47
0.0637824 0.0319349 -0.0487133 64 45 38
0.0717116 0.0555355 -0.0437801 58 40 33
0.0673653 0.0759251 -0.0363709 34 24 21
0.0397847 0.0766766 -0.0268492 45 32 26
0.0362371 0.0630551 -0.0205589 56 39 32
0.0698434 0.0422334 -0.0355823 48 32 28
0.0339646 0.0642682 -0.0213644 47 31 29
0.0328643 0.0378322 -0.0369216 67 47 41
0.0716176 0.0390733 -0.0490575 74 62 53
0.0356428 0.0354004 -0.0331787 23 14 12
0.0388356 0.0317402 -0.0328827 48 32 26
0.0593797 0.0719128 -0.0154513 54 34 29
0.0308462 0.0366901 -0.0195465 46 28 24
0.04746 0.0248961 -0.0629623 92 63 54
0.0691861 0.0439946 -0.0554203 62 46 39
0.0485869 0.0307845 -0.0223096 46 31 26
0.0496698 0.0310679 -0.0220569 46 32 27
0.0295482 0.0413921 -0.0211291 37 22 16
0.0684725 0.0710864 -0.0427405 54 38 30
0.0314779 0.0417592 -0.0231945 48 32 27
0.0343041 0.0651171 -0.0218748 50 34 29
0.0530642 0.0333774 -0.0183354 47 31 25
0.0713119 0.0606419 -0.044147 58 40 33
0.071585 0.0400887 -0.0707137 105 85 76
0.0533444 0.0278235 -0.0309647 53 39 33
0.0699112 0.0404618 -0.0423329 55 39 34
0.062237 0.0786717 -0.0251264 51 35 28
0.0581727 0.0484636 -0.00505236 33 18 15
0.0669844 0.0824924 -0.0264822 52 39 33
0.0478046 0.0825043 -0.0201813 39 29 24
0.0701412 0.0427662 -0.0517074 67 50 43
0.0360383 0.0332559 -0.00909902 51 36 24
0.0730299 0.0647151 -0.0270948 45 30 26
0.0295101 0.0519169 -0.0524285 177 133 111
0.0689087 0.0542205 -0.0125549 49 33 26
0.0760262 0.0674786 -0.0190228 33 24 23
0.0588439 0.0260824 -0.0484482 57 39 33
0.0652173 0.0333617 -0.0867617 137 97 86
0.0784929 0.0601065 -0.0274928 58 51 0
0.073965 0.0613105 -0.0107856 53 36 26
0.0702874 0.0395483 -0.0426053 50 24 20
0.0664906 0.0748611 -0.0198929 41 27 22
0.032681 0.0538556 -0.0156665 48 32 25
0.0716315 0.0521776 -0.0420637 58 41 34
0.0691613 0.0762444 -0.0266647 44 31 25
0.0653488 0.0369888 -0.0829523 116 82 72
0.0583663 0.0490783 -0.00665832 49 33 28
0.0417624 0.0606566 -0.0111272 44 30 24
0.0503566 0.0821588 -0.0179189 43 30 25
0.0496671 0.0765776 -0.00497276 47 31 28
0.0413302 0.0296878 -0.0314945 56 40 35
0.0394548 0.0323314 -0.061917 17 0 0
0.0578879 0.0263222 -0.0400939 59 43 36
0.0379848 0.0526162 -0.00974328 51 35 29
0.0354496 0.0658694 -0.0193821 51 37 29
0.0678079 0.0420199 -0.0683159 86 62 51
0.0591766 0.0833179 -0.0154107 49 34 27
0.0708579 0.0583378 -0.0515319 44 33 27
0.0653916 0.0343655 -0.0822982 111 80 66
0.0639519 0.0319251 -0.0397737 51 32 22
0.0383239 0.0743918 -0.0201089 48 33 28
0.0316594 0.0408598 -0.0279307 42 28 24
0.0630296 0.0333811 -0.0394799 53 34 29
0.0566805 0.0286616 -0.0344277 60 42 36
0.0346218 0.0335841 -0.0167493 34 24 18
0.0370549 0.0352434 -0.0142906 43 30 24
0.0728451 0.0549448 -0.0218798 47 32 29
0.0297245 0.052615 -0.0194093 43 28 22
0.0356596 0.0341965 -0.0232592 41 27 23
0.0729116 0.0470831 -0.0451822 45 28 20
0.0600296 0.0297853 -0.0365636 56 41 35
0.0375075 0.0420485 -0.00895896 46 31 26
0.0463845 0.0233562 -0.0663888 87 64 59
0.0309377 0.0604033 -0.0268846 41 29 23
0.0690752 0.0443418 -0.0566834 60 44 37
0.0639729 0.0841245 -0.0336124 75 48 43
0.0705716 0.0381044 -0.0443829 71 64 50
0.0279473 0.0676562 -0.0304272 109 84 68
0.0360969 0.0554314 -0.0640589 104 78 65
0.0326126 0.0422596 -0.0383375 66 47 40
0.0436869 0.0256234 -0.0391874 61 44 37
0.0625778 0.037433 -0.0244318 43 28 23
0.0257984 0.0631685 -0.0342476 0 0 0
0.0666011 0.0386769 -0.0690322 83 56 45
0.0671106 0.0410572 -0.0802312 102 81 68
0.0721913 0.0387659 -0.0423524 94 72 60
0.0306072 0.0629298 -0.02334 47 32 27
0.033486 0.0649442 -0.0403604 51 35 29
0.0300562 0.0598934 -0.0215019 48 34 30
0.0645827 0.0812404 -0.0286395 54 37 22
0.0723346 0.0553132 -0.0463407 68 49 42
0.0747675 0.0559093 -0.0247805 51 35 32
0.0302075 0.0475368 -0.0402922 43 24 22
0.0761693 0.0562825 -0.0113695 66 56 29
0.0634433 0.0732903 -0.0111012 48 27 21
0.0450305 0.0758779 -0.0142568 44 30 25
0.0376012 0.0386532 -0.0131807 45 31 25
0.0756183 0.0437481 -0.0352617 38 12 5
0.0635212 0.075069 -0.0126128 25 30 38
0.0728936 0.0520185 -0.0449027 53 39 31
0.0663069 0.0400926 -0.0848091 96 67 57
0.0312243 0.0422006 -0.0507328 255 218 185
0.0306546 0.0485559 -0.0414852 26 14 12
0.0446193 0.036694 -0.00544542 29 15 1
0.0520413 0.0287802 -0.0213991 127 111 92
0.0522946 0.0627367 -0.0110888 45 30 25
0.0272589 0.0719729 -0.0293752 0 0 0
0.068826 0.0669295 -0.0404818 53 37 30
0.0539064 0.0658012 -0.00921341 63 41 32
0.0538498 0.0309601 -0.0299043 63 45 37
0.0365504 0.0539592 -0.0661094 106 85 71
0.0607819 0.0288456 -0.0656851 90 65 55
0.067978 0.0404513 -0.0675626 88 69 61
0.034717 0.0676484 -0.0430784 40 27 21
0.0375278 0.0618013 -0.0609682 61 39 32
0.0659432 0.0346989 -0.0713236 141 120 113
0.0349562 0.0336722 -0.0517012 91 66 44
0.0582044 0.0323314 -0.0301025 58 34 31
0.0334623 0.0519373 -0.0162222 48 33 27
0.0638102 0.0347513 -0.0713146 77 49 37
0.0438715 0.0332214 -0.0174835 46 32 26
0.0620222 0.0362958 -0.0325393 51 39 33
0.0497278 0.0666509 -0.00534115 39 20 21
0.0353786 0.0657654 -0.0194614 43 27 23
0.0673357 0.0417113 -0.0811645 129 100 86
0.0357393 0.0516385 -0.0691074 98 79 68
0.0693171 0.0568639 -0.0581428 12 0 0
0.035678 0.0319174 -0.0466306 62 41 36
0.0468698 0.0522554 0.003816 59 39 32
0.0353505 0.0552122 -0.0638238 127 98 89
0.0684872 0.0442867 -0.0648122 89 66 57
0.0668422 0.0406711 -0.0771487 94 62 54
0.0642336 0.0341085 -0.0766075 110 80 72
0.058061 0.0809794 -0.0413835 23 18 15
0.0712814 0.0415525 -0.0429238 51 44 35
0.0642235 0.0383042 -0.0343618 58 40 36
0.0623094 0.0834858 -0.0231101 23 12 6
0.070134 0.0544583 -0.0554346 54 35 29
0.0602176 0.0493005 -0.0007966 64 35 39
0.0407848 0.0690133 -0.0134676 49 32 26
0.0292735 0.0514438 -0.0168619 34 26 20
0.0669345 0.0737652 -0.0406192 48 34 29
0.0397174 0.0274443 -0.0453692 53 37 32
0.0692693 0.036746 -0.0440738 69 55 47
0.0614989 0.0781057 -0.0248429 45 29 24
0.0640185 0.105745 -0.00614954 22 22 0
0.0321697 0.069047 -0.0391356 77 61 53
0.0460255 0.10035 -0.00418638 0 0 0
0.0614489 0.0351272 -0.0319786 25 12 6
0.0417443 0.0262787 -0.0439259 53 35 31
0.0527542 0.0228965 -0.0526731 43 31 26
0.0366838 0.0583689 -0.0121933 47 33 27
0.0672048 0.040168 -0.0819034 137 93 83
0.0371475 0.0573671 -0.0619647 55 36 29
0.0605299 0.0293916 -0.0384769 45 29 24
0.0363228 0.0330709 -0.0459115 51 33 29
0.036502 0.0330591 -0.0480891 52 33 29
0.067824 0.0662567 -0.0661399 64 41 33
0.0351294 0.0671681 -0.020516 48 32 27
0.0328318 0.0593793 -0.0404899 51 35 32
0.0688209 0.0693354 -0.0450164 53 39 33
0.0453061 0.0246393 -0.066127 86 56 48
0.0532024 0.0639811 -0.0126847 55 38 32
0.0706038 0.0574619 -0.0529282 60 42 35
0.0633458 0.0780871 -0.0357461 45 30 24
0.0336059 0.0683871 -0.0372422 54 39 32
0.030222 0.0607929 -0.033057 110 87 77
0.0426321 0.0257643 -0.0521725 51 36 31
0.0703422 0.0690012 -0.0469435 52 36 31
0.0434981 0.0258311 -0.0543697 49 32 27
0.0494582 0.0241647 -0.0400761 51 35 29
0.0683076 0.0429665 -0.0671669 87 62 51
0.067758 0.0348476 -0.049988 99 85 76
0.0378278 0.0778652 -0.0321166 46 29 23
0.0423169 0.027725 -0.0319071 70 45 38
0.0387582 0.0283229 -0.0410669 54 36 31
0.0361449 0.054048 -0.0647815 105 86 71
0.0700185 0.0389124 -0.0716965 231 239 227
0.0370707 0.036946 -0.0170516 46 32 26
0.0701285 0.0440156 -0.0667346 114 97 88
0.0741546 0.046285 -0.0369685 1 0 0
0.0432129 0.0262186 -0.0217685 95 78 68
0.0661844 0.0409799 -0.0654052 97 73 61
0.070574 0.0638241 -0.0506633 45 30 26
0.0610646 0.0539279 0.0157798 62 44 48
0.0364152 0.0332011 -0.0387875 61 43 37
0.0460847 0.0292205 -0.0292927 43 33 27
0.0316429 0.0672508 -0.0212999 36 28 20
0.0625785 0.0315824 -0.0726147 91 66 56
0.0335119 0.0663745 -0.0488156 49 35 32
0.0723712 0.0451732 -0.0376303 58 38 35
0.0391057 0.0420339 -0.00865145 48 33 28
0.0569376 0.0554069 0.00432344 53 36 30
0.065517 0.03617 -0.0806054 124 91 79
0.071317 0.0503108 -0.0373222 59 45 38
0.0720568 0.0596466 -0.0414948 60 44 36
0.0651278 0.0365695 -0.0655032 122 91 79
0.0663494 0.0481316 -0.0109513 20 12 0
0.0670448 0.0383057 -0.0720787 120 97 88
0.0306623 0.0584843 -0.0339979 112 91 80
0.0704887 0.0567114 -0.0547435 57 39 34
0.0602869 0.027754 -0.0469057 52 36 31
0.032541 0.0507905 -0.0391874 69 53 47
0.036243 0.056183 -0.069066 83 56 49
0.0695018 0.0727439 -0.023225 45 30 25
0.0628181 0.0785976 -0.0269555 46 31 27
0.0605853 0.0820072 -0.0334675 41 26 22
0.0593559 0.0566171 -0.0100979 58 43 34
0.0316204 0.0445253 -0.0417291 61 39 34
0.0694414 0.0431242 -0.0713765 89 70 60
0.0460771 0.0238473 -0.0465724 54 36 32
0.0702812 0.051242 -0.0188069 42 26 22
0.0690449 0.0429325 -0.0340742 17 23 27
0.0692986 0.0461066 -0.0261304 45 30 26
0.0289442 0.0617569 -0.0400029 39 23 22
0.0712806 0.0458206 -0.0408179 61 41 36
0.0367488 0.0327847 -0.0368595 57 40 34
0.0353442 0.0746357 -0.0262862 43 29 26
0.0646444 0.0460787 -0.0184886 49 30 26
0.0649945 0.035942 -0.0736525 110 82 70
0.0600125 0.0379599 -0.0174298 46 35 30
0.0320326 0.0596779 -0.0348006 45 29 24
0.0463918 0.0287922 -0.0291346 62 41 36
0.0450422 0.0816304 -0.0313285 39 27 22
0.06787 0.0365913 -0.0622251 18 0 0
0.0315008 0.0584874 -0.0242448 53 41 34
0.0721537 0.0483907 -0.0366247 59 43 36
0.0442497 0.0914127 0.0115958 0 0 14
0.0360111 0.0332689 -0.0281136 38 26 22
0.0648975 0.036848 -0.0757736 102 74 65
0.032429 0.0484444 -0.0474915 48 31 27
0.0647141 0.0362552 -0.0661884 114 84 73
0.0608454 0.0799171 -0.0255196 46 29 26
0.0333975 0.0362598 -0.0405704 66 46 40
0.0503375 0.0756534 -0.00933474 20 13 19
0.0708854 0.0454013 -0.0399738 56 39 32
0.0362826 0.0505816 -0.0734173 85 63 52
0.0488593 0.0236104 -0.0463239 59 40 35
0.0680093 0.0707672 -0.0456018 54 36 31
0.0715611 0.0630609 -0.0403375 79 70 58
0.0609703 0.090606 -0.0301212 47 28 29
0.0600247 0.0791983 -0.021672 39 26 22
0.0648328 0.0348917 -0.0665338 101 69 58
0.0724335 0.0478605 -0.0466775 53 33 29
0.0376403 0.0305846 -0.0381787 57 39 34
0.0737768 0.0512361 -0.0242567 46 31 32
0.0499631 0.0247214 -0.03823 56 43 38
0.0611907 0.0279458 -0.0499398 54 37 31
0.0631109 0.0762138 -0.0214009 47 31 26
0.0308472 0.0438248 -0.0440463 55 38 31
0.0317569 0.0693387 -0.0254652 44 28 21
0.0732779 0.0487667 -0.0393338 59 55 38
0.0337961 0.0650276 -0.0443602 56 36 31
0.0658071 0.0351002 -0.0787124 106 62 66
0.0319325 0.0650435 -0.0350409 60 46 35
0.0345082 0.0610395 -0.0570135 31 28 25
0.0718196 0.0649473 -0.0518931 75 45 39
0.0473243 0.0241822 -0.0417885 45 30 25
0.0355965 0.0758907 -0.0256064 43 29 25
0.0435735 0.024382 -0.0433406 48 30 27
0.0686809 0.0445249 -0.0717112 76 48 38
0.0411501 0.0278143 -0.0376098 57 40 34
0.0464302 0.0257818 -0.0359325 54 38 33
0.0616896 0.0318504 -0.0356808 56 39 32
0.0498192 0.0319563 -0.018179 51 35 30
0.0711657 0.0552082 -0.0387042 51 35 31
0.0733955 0.0456016 -0.0424028 61 42 35
0.0675627 0.0410735 -0.0348883 57 32 28
0.0700746 0.0607415 -0.0545328 56 40 33
0.0323777 0.059107 -0.0365447 56 40 34
0.0348389 0.0377281 -0.0506483 52 32 27
0.0675481 0.066933 -0.0663785 60 39 34
0.0463493 0.024189 -0.044908 58 42 36
0.0503442 0.0821718 -0.0389703 38 27 23
0.0711226 0.0571133 -0.050278 43 28 23
0.0632277 0.0800075 0.00655756 25 16 43
0.0505962 0.0832021 -0.0232022 42 26 21
0.0684348 0.0708429 -0.0437018 50 40 33
0.0707565 0.0481139 -0.0691908 80 60 50
0.0712746 0.0621983 -0.0450873 53 37 31
0.0707631 0.066078 -0.0481079 51 34 28
0.0666969 0.0477846 -0.0198554 50 33 28
0.0574452 0.033896 -0.0215519 47 33 25
0.0401384 0.0270356 -0.0400736 51 34 28
0.0722885 0.044449 -0.0467922 45 28 22
0.0466676 0.0251709 -0.0357313 49 34 29
0.0698598 0.0660765 -0.0509584 48 31 27
0.0710843 0.0422504 -0.0500727 39 22 16
0.0535366 0.0318632 -0.0246425 44 29 24
0.0729599 0.0478803 -0.0437098 48 33 26
0.0716955 0.0467866 -0.0409402 60 40 35
0.0315418 0.070915 -0.0322839 58 35 24
0.0438622 0.0242103 -0.0463175 53 34 30
0.0366078 0.0329993 -0.0507114 46 31 26
0.0711241 0.0549097 -0.0383441 54 38 31
0.0325995 0.0725493 -0.0316288 46 28 20
0.0708041 0.0721169 -0.0259665 43 29 24
0.0609755 0.0726975 -0.0152056 45 30 27
0.0676717 0.039826 -0.0581569 73 56 50
0.0675694 0.0357376 -0.0749809 112 84 75
0.0385417 0.0312999 -0.0534877 43 28 24
0.0397658 0.0282676 -0.0524716 58 36 32
0.0745513 0.0588107 -0.0247532 42 28 24
0.0627686 0.0293384 -0.0469953 65 50 44
0.0406896 0.0285954 -0.056061 46 30 25
0.0508599 0.023836 -0.0419412 46 29 26
0.0558291 0.0720041 -0.0133762 44 29 25
0.0367946 0.0741336 -0.0239021 54 37 30
0.0663843 0.0369481 -0.0782288 121 87 81
0.0302393 0.0449417 -0.0486905 255 246 211
0.0712389 0.0522771 -0.0507555 42 24 21
0.0422234 0.0260199 -0.0397654 56 39 33
0.0735462 0.0611494 -0.0198542 31 17 18
0.048314 0.0277658 -0.0286064 64 45 39
0.0445506 0.0250345 -0.0414776 52 35 30
0.0413202 0.0272485 -0.0510326 50 34 28
0.058852 0.104693 -0.00540366 16 14 0
0.0431595 0.0742529 -0.0134577 41 27 24
0.0494872 0.02409 -0.0429614 47 29 25
0.0638489 0.0348658 -0.0691792 97 69 57
0.0683472 0.043408 -0.0718217 82 58 48
0.0326036 0.0630043 -0.0213782 59 40 29
0.0718144 0.0536448 -0.0420217 62 44 36
0.0403268 0.0387197 -0.00876332 47 32 28
0.0713966 0.0603129 -0.0381987 70 62 53
0.0749726 0.0574332 -0.0165845 17 1 3
0.0668284 0.0438957 -0.0221246 49 35 29
0.0666133 0.0394737 -0.0825013 126 90 81
0.0319774 0.0565583 -0.0340979 46 30 25
0.0583151 0.0311302 -0.0316893 60 38 32
0.0450654 0.0290141 -0.0277907 40 29 25
0.0721653 0.054456 -0.0341452 0 0 0
0.0388994 0.0307422 -0.03109 48 35 30
0.0665835 0.0396788 -0.0794796 109 73 62
0.0328865 0.0679142 -0.0354075 59 44 37
0.0329647 0.0470703 -0.051036 58 37 33
0.0304898 0.0482714 -0.0409148 30 21 17
0.0335501 0.063073 -0.0568484 173 135 105
0.0313689 0.0482841 -0.045387 36 22 19
0.0320059 0.0591633 -0.0382352 67 54 45
0.065209 0.039149 -0.0655876 108 80 71
0.0344017 0.0414779 -0.0528086 48 32 27
0.0633757 0.0311434 -0.0727245 92 62 47
0.0669601 0.0358947 -0.0706289 83 56 46
0.0681695 0.0396229 -0.0816051 100 67 57
0.0676003 0.0412399 -0.0721832 81 54 43
0.0643562 0.0352642 -0.0716585 89 63 52
0.0462841 0.0243426 -0.0407787 54 36 31
0.0628746 0.0316392 -0.0717411 78 58 52
0.0688083 0.0404821 -0.0638499 115 86 78
0.0315734 0.0584293 -0.0375469 73 64 53
0.0701328 0.0396808 -0.0502867 71 56 50
0.0405085 0.0280313 -0.051477 51 34 28
0.0300584 0.0475131 -0.0401324 11 5 0
0.0701418 0.0408044 -0.0728765 81 47 37
0.0687203 0.0422188 -0.0811648 106 77 60
0.0679355 0.039962 -0.0799011 99 58 50
0.0482852 0.0345802 -0.0145099 46 29 26
0.0572966 0.0839751 -0.0326924 44 31 26
0.0511279 0.0412737 0.00261671 57 36 27
0.0381939 0.0343415 -0.0618246 19 0 0
0.0339597 0.0485473 -0.0150803 49 34 28
0.0577007 0.0273185 -0.0372364 41 24 20
0.0677026 0.0354381 -0.0492807 77 61 55
0.0564289 0.0372306 -0.0168353 49 33 27
0.0634001 0.0302509 -0.0464124 60 39 33
0.0722203 0.0593081 -0.0441606 55 41 34
0.038333 0.0762974 -0.0246452 49 35 29
0.0336859 0.0650665 -0.0222355 44 28 24
0.0659811 0.0362498 -0.0435631 55 40 35
0.0384727 0.0273437 -0.0526435 255 217 197
0.0688894 0.0437353 -0.0353266 69 47 36
0.0344409 0.0645382 -0.0191736 64 44 35
0.0696715 0.0527305 -0.0566065 36 18 15
0.0397551 0.0320555 -0.0138895 50 35 31
0.0707568 0.0377564 -0.0488551 58 44 34
0.0376746 0.0315588 -0.0343501 50 30 26
0.0719634 0.04023 -0.0486358 52 33 31
0.05854 0.0743574 -0.0162531 46 27 22
0.0232549 0.0657673 -0.0307807 0 0 0
0.0466756 0.0246293 -0.0631462 93 59 50
0.0445274 0.0226375 -0.0486386 61 43 38
0.0674487 0.0405126 -0.0687441 84 59 48
0.0683702 0.0284753 -0.0458565 48 18 15
0.0496403 0.0242926 -0.0548195 50 33 29
0.0406751 0.0783019 -0.0270991 44 31 26
0.0515352 0.0322257 -0.018178 50 36 32
0.0721751 0.0599948 -0.0423759 63 47 40
0.0696299 0.0419984 -0.0686115 105 84 74
0.0692893 0.0410631 -0.0413227 52 35 29
0.0445827 0.0822183 -0.0253838 53 39 30
0.0639108 0.0766104 -0.019815 46 30 24
0.0660049 0.0783049 -0.0267946 49 33 27
0.0536518 0.0219633 -0.0451522 68 51 45
0.0697277 0.0430844 -0.0513033 54 38 32
0.0731929 0.0641897 -0.0268557 46 33 29
0.0301105 0.0509322 -0.0536408 173 136 108
0.057372 0.0252082 -0.0532476 54 35 30
0.0642363 0.0356321 -0.0883234 123 82 69
0.0774091 0.0581623 -0.0257242 29 7 0
0.0531884 0.0679333 -0.0112757 44 27 23
0.0705189 0.0608972 -0.00972534 43 24 23
0.0699359 0.0382987 -0.0461074 51 32 27
0.0700121 0.0751737 -0.0259342 38 25 21
0.0312219 0.0531165 -0.0163898 53 42 35
0.0654279 0.0377111 -0.0850763 103 76 67
0.0594798 0.0506288 -0.0102955 45 29 23
0.0660662 0.0394353 -0.0668492 104 77 66
0.0439974 0.0273743 -0.0320454 46 31 27
0.0379231 0.0316226 -0.0633054 29 0 0
0.0585966 0.0257255 -0.0427246 50 33 29
0.0515902 0.0835573 -0.0204477 42 29 23
0.0578411 0.0280755 -0.0346661 54 42 35
0.0648078 0.0335443 -0.0460737 64 47 41
0.0357895 0.0663456 -0.0173452 19 6 9
0.0695849 0.0437346 -0.0671425 92 72 61
0.0655575 0.0764378 -0.015748 52 26 18
0.0645707 0.0340584 -0.0799644 122 96 84
0.036664 0.0703513 -0.0201144 47 32 27
0.0317855 0.0396846 -0.0270805 42 29 26
0.0634369 0.0337396 -0.038232 45 32 26
0.0603249 0.0742078 -0.0177468 54 37 31
0.0374435 0.0340358 -0.0149557 43 32 27
0.0582654 0.0410931 -0.00958066 49 34 28
0.0388217 0.035966 -0.01373 46 32 26
0.029199 0.0487379 -0.0193294 50 33 28
0.0645221 0.0370598 -0.0680149 102 74 62
0.0344689 0.0567653 -0.0196421 49 32 27
0.0714345 0.0429575 -0.0437109 62 39 35
0.0474097 0.0241789 -0.064277 84 57 50
0.0639987 0.0831584 -0.0301353 78 57 20
0.0691929 0.0369306 -0.0444494 70 53 46
0.0305473 0.0716564 -0.0327198 111 81 68
0.036534 0.0532233 -0.0649259 89 75 64
0.0449412 0.0252587 -0.0377738 55 38 32
0.0259926 0.0652208 -0.0366304 0 0 0
0.0667498 0.041111 -0.0798648 90 60 47
0.0300097 0.0607024 -0.0217014 46 31 27
0.0713966 0.0534992 -0.0476551 50 35 29
0.0731391 0.0685845 -0.027838 50 32 26
0.0739735 0.0590508 -0.0221721 22 11 9
0.073206 0.0536777 -0.0127427 35 9 6
0.0493896 0.0804963 -0.0154762 42 28 24
0.0428374 0.0767774 -0.0166936 45 31 27
0.0694282 0.074986 -0.0209521 49 32 21
0.0680239 0.0405078 -0.0849544 112 82 72
0.0317131 0.0459558 -0.0517484 255 221 187
0.0405567 0.0803712 -0.0212075 51 37 27
0.0312948 0.047703 -0.0427398 41 24 19
0.0534842 0.0232451 -0.0525017 48 28 24
0.0487608 0.031535 -0.0129274 27 28 14
0.0727949 0.0659346 -0.0168294 35 24 19
0.0700902 0.0659012 -0.0399281 59 44 39
0.0546645 0.0823666 -0.00101922 68 49 45
0.0605777 0.0314291 -0.0629823 19 0 0
0.0600186 0.0265823 -0.0644054 27 0 0
0.0566258 0.0260863 -0.0634466 27 0 0
0.0609339 0.0311912 -0.0640011 82 58 48
0.0665564 0.0375635 -0.080338 110 81 68
0.0670947 0.0393912 -0.0803679 126 100 84
0.0695546 0.0529467 -0.0610408 76 55 44
0.0698315 0.0560557 -0.0599851 61 44 37
0.069792 0.0575791 -0.06028 67 42 33
0.0693686 0.056058 -0.0601798 65 44 37
0.0372296 0.0461361 -0.0658116 103 81 69
0.0386239 0.0480282 -0.0700927 113 78 64
0.0662202 0.0638123 -0.0730022 95 69 57
0.0604917 0.0272999 -0.0642253 26 0 0
0.0609201 0.0311455 -0.0638333 82 62 51
0.0590483 0.0276914 -0.0630341 77 60 47
0.0404342 0.0244797 -0.0569059 111 87 80
0.0602272 0.0336147 -0.0322766 55 40 35
0.0670654 0.0370662 -0.0812269 98 68 55
0.0363508 0.028666 -0.0552169 225 173 136
0.0688155 0.0508468 -0.0620003 90 65 54
0.06987 0.057979 -0.0585079 62 39 36
0.0370834 0.0453154 -0.0661024 102 77 65
0.0368581 0.039838 -0.065919 88 60 49
0.0389314 0.0504611 -0.0669586 91 64 52
0.0682353 0.0632926 -0.0725294 53 35 28
0.0673006 0.0635796 -0.0730203 91 67 58
0.0560907 0.0269153 -0.0624951 77 53 45
0.0539682 0.0252836 -0.0620229 80 53 47
0.0312884 0.0402377 -0.0325695 95 69 61
0.0626788 0.0353754 -0.0340733 51 38 32
0.0557489 0.0266753 -0.0623825 79 56 46
0.0368058 0.033126 -0.0341847 50 31 28
0.0376347 0.0467649 -0.0665395 85 65 57
0.059657 0.0283589 -0.0638238 97 71 62
0.0597886 0.0305959 -0.0631182 91 69 55
0.0693694 0.0622948 -0.059122 70 53 52
0.0391174 0.0294147 -0.0579003 104 79 67
0.0357295 0.0340497 -0.0357 45 26 20
0.0609614 0.0314935 -0.0640532 76 58 46
0.0573015 0.0267696 -0.0613103 97 81 80
0.0699366 0.0607697 -0.0596316 63 49 40
0.0605998 0.0310399 -0.0635023 89 67 54
0.0692451 0.0428907 -0.0708426 98 85 74
0.0695922 0.0636419 -0.0591046 12 0 0
0.034376 0.0570695 -0.0589621 110 87 75
0.0633878 0.0763533 -0.0438253 47 30 26
0.0672261 0.0422075 -0.0612291 65 44 37
0.0699686 0.061699 -0.0590059 75 46 38
0.068466 0.0475626 -0.0629817 90 69 59
0.0687517 0.0664922 -0.059648 68 49 44
0.0607853 0.0776989 -0.0438735 41 30 27
0.0335193 0.0699985 -0.0400792 37 25 20
0.0373586 0.031823 -0.0359619 55 37 31
0.0358351 0.0537963 -0.0631517 96 72 61
