ply
format ascii 1.0
comment Created by Open3D
element vertex 1212
property double x
property double y
property double z
property uchar red
property uchar green
property uchar blue
end_header
0.0457622 0.0476653 -0.00707823 82 54 44
0.045121 0.0458911 -0.00442533 83 55 44
0.0646708 0.0450206 0.00250784 84 55 45
0.0385439 0.0353142 -0.0570199 0 0 0
0.0520824 0.0520864 -0.00710182 83 55 44
0.0379195 0.0325591 -0.0569613 0 0 0
0.0389494 0.0346591 -0.0557094 0 0 0
0.0473005 0.0512834 -0.00672399 81 53 43
0.0583069 0.0466176 -0.0119512 79 54 44
0.0340676 0.0365233 -0.000319119 75 49 40
0.0571806 0.0501399 -0.00383979 82 54 43
0.0468673 0.0484701 -0.0175901 81 53 43
0.0637805 0.0519508 0.00241306 90 59 50
0.0630314 0.0497905 0.00012362 92 60 51
0.0479006 0.048132 -0.00859128 84 56 45
0.0517539 0.0570179 -0.00448435 86 58 47
0.0700692 0.0403768 -0.0666615 117 90 78
0.0393491 0.0338991 -0.0562118 0 0 0
0.0457855 0.059445 -0.0062313 83 55 44
0.053948 0.0518131 -0.00435483 84 56 45
0.0387092 0.0354712 -0.0581833 0 0 0
0.0352526 0.0415973 -0.0346592 75 50 41
0.0440697 0.056205 -0.00698231 85 56 45
0.0615598 0.0527092 0.0133102 78 48 38
0.0556712 0.0553436 -0.0135509 82 54 44
0.0386286 0.0463624 -0.00277467 80 54 43
0.0437018 0.0471593 -0.0109305 83 56 45
0.0605116 0.0569766 0.013864 78 49 40
0.0575659 0.0580329 -0.00676307 84 54 44
0.0383886 0.0372104 -0.0584013 0 0 0
0.059437 0.0586115 -0.00824995 83 54 44
0.045231 0.0492776 -0.00765438 82 53 43
0.0392147 0.0373863 -0.0580952 0 0 0
0.0623417 0.0575328 -0.00807653 77 50 42
0.0443481 0.0535953 -0.00672784 84 56 45
0.0587661 0.0607758 -0.0109989 80 52 43
0.0401936 0.034618 -0.056202 98 71 57
0.0643544 0.0654568 -0.011041 77 50 41
0.0394567 0.0474289 -0.0644116 96 69 57
0.0699735 0.0596432 -0.0554372 73 48 40
0.0679341 0.0529187 -0.0644938 73 48 41
0.0393782 0.0364642 -0.0581258 0 0 0
0.0499543 0.0618493 -0.00668952 82 53 43
0.0611642 0.0651171 -0.0108573 76 49 40
0.068998 0.0434204 -0.0517894 114 85 72
0.0392246 0.04071 -0.0576751 98 73 60
0.0463205 0.0573222 -0.0049696 84 56 45
0.0490399 0.0576679 -0.00722917 84 56 45
0.0403986 0.0408242 -0.0583686 90 65 54
0.0379658 0.0535038 -0.0072155 84 56 45
0.0488538 0.0651468 -0.00750587 84 54 44
0.0495654 0.0597979 -0.00465044 83 55 45
0.0424529 0.0603122 -0.00630025 81 53 43
0.0663851 0.0550918 -0.0575193 75 53 44
0.0681034 0.0522106 -0.055593 91 64 53
0.0384645 0.0404069 -0.0598316 0 0 0
0.0652601 0.0666109 -0.0153886 70 45 37
0.0385417 0.0384675 -0.0583177 0 0 0
0.0450623 0.0636606 -0.00986332 82 54 43
0.035669 0.0560781 -0.00970413 83 55 44
0.0397158 0.0555664 -0.0086014 78 50 41
0.0407376 0.061481 -0.0122883 89 63 52
0.0414207 0.0568341 -0.0173298 82 54 44
0.0387168 0.0383029 -0.0591894 0 0 0
0.0421037 0.0616275 -0.0119882 82 54 44
0.0440534 0.0559111 -0.00373149 84 55 44
0.0549397 0.0624387 -0.0157249 86 54 44
0.077461 0.0610713 -0.0467736 78 53 45
0.0508639 0.0593142 -0.00820691 84 56 46
0.0381957 0.0457462 -0.0610059 99 72 60
0.0388103 0.0441384 -0.0625684 0 0 0
0.0376045 0.0533 -0.00996356 82 55 45
0.0646041 0.0672786 -0.00866895 76 49 40
0.0710038 0.0502619 -0.0649197 0 0 0
0.039805 0.0601404 -0.00374507 84 55 45
0.0435141 0.0666501 -0.01139 86 57 46
0.0726118 0.0485437 -0.0615726 0 0 0
0.0704783 0.0527708 -0.0650802 0 0 0
0.0388121 0.0419085 -0.0578102 97 72 59
0.0672972 0.0670637 -0.00946405 75 48 39
0.0381968 0.039566 -0.0587443 0 0 0
0.0720289 0.0518623 -0.0639331 0 0 0
0.0339958 0.0531255 -0.0377712 62 39 32
0.04889 0.0612562 -0.00799557 81 53 43
0.0665458 0.0733344 -0.0151909 71 46 37
0.0694022 0.0664068 -0.0049099 75 48 39
0.0389383 0.0440562 -0.0597627 93 62 51
0.0359553 0.0642305 -0.00966619 84 54 43
0.0683848 0.0790325 -0.0132969 67 43 34
0.0257523 0.0641761 -0.00751735 79 52 43
0.0458716 0.0652251 -0.0170791 83 54 44
0.0383917 0.0432293 -0.0612534 0 0 0
0.0370246 0.0698209 -0.00417257 86 54 43
0.0584583 0.0682603 -0.0185059 80 51 42
0.0699461 0.059466 -0.0527018 76 50 42
0.060167 0.0688429 -0.015711 74 47 39
0.0715703 0.0714092 -0.0138979 69 43 34
0.0462557 0.0754604 -0.0142114 71 45 36
0.045945 0.0654582 -0.00968502 85 56 45
0.0381831 0.0445131 -0.0633859 0 0 0
0.0498865 0.0633821 -0.0102314 83 54 44
0.0435841 0.0661416 -0.0158627 82 53 43
0.0386175 0.0471482 -0.0658273 0 0 0
0.0392955 0.0431285 -0.061998 96 69 57
0.0664057 0.0677504 -0.0537971 68 48 39
0.0421138 0.0503432 -0.0672402 86 59 50
0.066278 0.0729868 -0.0199336 68 44 35
0.0666753 0.0735328 -0.0157444 71 46 37
0.0335341 0.068052 -0.0104951 88 58 46
0.0348204 0.0584245 -0.055464 75 52 44
0.0388233 0.0453741 -0.0629448 96 66 52
0.0381832 0.0457895 -0.063637 0 0 0
0.043243 0.0757933 -0.0150847 70 45 37
0.0608744 0.0727187 -0.0194861 78 50 40
0.0380057 0.0456286 -0.0649626 0 0 0
0.0407233 0.0426368 -0.0628929 94 65 54
0.0383261 0.0467953 -0.0650307 0 0 0
0.0442484 0.0720394 -0.0141184 76 49 40
0.0373484 0.0482307 -0.0660134 0 0 0
0.0486483 0.0738534 -0.0122012 76 50 40
0.039196 0.0521096 -0.0641853 78 49 40
0.0374764 0.0500901 -0.0663007 0 0 0
0.069474 0.0609824 -0.0521876 80 54 46
0.0712096 0.0595146 -0.0535307 77 51 44
0.0382843 0.0472506 -0.0610431 96 67 56
0.0387167 0.0753634 -0.0214988 76 50 40
0.0384603 0.045993 -0.0646634 0 0 0
0.0655888 0.0800493 -0.0224021 71 46 37
0.0529128 0.0781975 -0.0272931 76 50 40
0.0396151 0.0535305 -0.0620274 80 57 48
0.0514477 0.0806388 -0.0218904 70 46 37
0.0690668 0.0609006 -0.0643767 0 0 0
0.038994 0.0480235 -0.0641843 92 66 54
0.068134 0.0570879 -0.0662583 0 0 0
0.0379403 0.0458742 -0.0655824 0 0 0
0.0387781 0.0473241 -0.0659668 0 0 0
0.0645181 0.0560137 -0.0652635 68 44 36
0.039822 0.0492608 -0.0649964 95 68 55
0.0402729 0.0518983 -0.0646673 82 55 46
0.0689327 0.0585469 -0.0658396 0 0 0
0.046198 0.0798188 -0.00754475 72 46 37
0.0553806 0.0779927 -0.0299008 70 46 37
0.0503292 0.0802742 -0.0225726 71 46 37
0.0385135 0.0485782 -0.0640661 86 63 51
0.0690583 0.060137 -0.0659013 0 0 0
0.0540237 0.0828284 -0.0201042 71 46 37
0.0399864 0.0482004 -0.0659877 93 67 54
0.0387147 0.0515737 -0.0698589 0 0 0
0.0377616 0.0490214 -0.0635658 90 64 53
0.0671097 0.0582902 -0.0671209 0 0 0
0.0560342 0.0847365 -0.0194407 77 51 42
0.0653654 0.0606118 -0.0688856 0 0 0
0.0427652 0.0786666 -0.0270303 74 50 40
0.0672238 0.0596247 -0.0663907 0 0 0
0.0444755 0.0775294 -0.031326 70 47 38
0.0656677 0.0619946 -0.0660409 0 0 0
0.0386483 0.057144 -0.0536747 72 48 40
0.0389288 0.0578616 -0.0602563 0 0 0
0.0672836 0.0685693 -0.0556509 60 39 32
0.0569743 0.0777648 -0.0415183 53 36 30
0.0477816 0.0777096 -0.0399501 0 0 0
0.0383926 0.0730416 -0.041732 0 0 0
0.0599453 0.0803401 -0.0352853 42 28 23
0.0649605 0.0681474 -0.0566957 69 43 36
0.0380434 0.0536913 -0.0639116 0 0 0
0.0603406 0.0791897 -0.0396005 44 29 23
0.0482965 0.028671 -0.0646202 85 59 50
0.0486224 0.0226494 -0.057705 0 0 0
0.0662491 0.0338119 -0.0763534 0 0 0
0.0474921 0.025803 -0.0569908 86 59 50
0.0466516 0.0244733 -0.0600635 72 47 41
0.0636496 0.0309895 -0.0608626 100 73 62
0.0585096 0.0278997 -0.0640675 0 0 0
0.048475 0.025263 -0.0573497 86 58 50
0.0518106 0.0221181 -0.0493764 87 62 54
0.0466874 0.0243972 -0.0597313 73 50 43
0.0675196 0.0324806 -0.0702042 0 0 0
0.0654478 0.0320749 -0.0668259 121 89 78
0.0656701 0.031246 -0.0688402 0 0 0
0.0581642 0.0278622 -0.0560595 98 69 59
0.0645678 0.0291597 -0.0565578 90 62 52
0.0671298 0.0331137 -0.0736984 0 0 0
0.0475177 0.0250846 -0.046516 88 64 55
0.0663329 0.0315849 -0.0689258 0 0 0
0.0597137 0.026447 -0.0554686 85 57 47
0.0593478 0.0303631 -0.0526543 90 67 56
0.0594464 0.0284443 -0.0542549 96 69 58
0.0682135 0.0359704 -0.0737071 0 0 0
0.0560095 0.0256885 -0.0517961 102 72 60
0.0650753 0.0306611 -0.0683782 0 0 0
0.0683269 0.0334898 -0.0720609 0 0 0
0.0585754 0.026983 -0.0538733 102 74 62
0.0577603 0.0272987 -0.0510735 97 72 61
0.0658335 0.035367 -0.075432 156 116 102
0.0674995 0.0322927 -0.0724478 0 0 0
0.0577161 0.0259542 -0.0551151 87 59 50
0.0663237 0.032403 -0.0674435 103 76 64
0.0689902 0.0319794 -0.0365397 121 89 76
0.0678072 0.0327689 -0.0705107 0 0 0
0.0487636 0.0242063 -0.0547451 84 57 48
0.0650308 0.0342765 -0.0667817 128 95 83
0.059939 0.0302021 -0.0570689 97 70 58
0.0651813 0.0344683 -0.0753896 158 116 102
0.0481262 0.02336 -0.0603945 0 0 0
0.0561783 0.0239766 -0.0348788 62 40 34
0.0495216 0.0221753 -0.0328053 68 44 39
0.0631263 0.0272358 -0.0342735 95 69 58
0.0504601 0.0249558 -0.0475785 86 62 53
0.0428226 0.0265105 -0.0575379 0 0 0
0.053328 0.02446 -0.0331041 66 44 38
0.0424278 0.0274406 -0.0530137 92 66 54
0.0430705 0.0248972 -0.052596 86 59 51
0.0666826 0.0319305 -0.0700849 0 0 0
0.0488818 0.0327517 -0.0209868 83 57 47
0.0432187 0.0291401 -0.0543437 96 69 57
0.0686361 0.0365628 -0.0710096 0 0 0
0.0406779 0.0305328 -0.0559467 0 0 0
0.0409547 0.0262311 -0.0469194 93 66 55
0.0419763 0.0276404 -0.0504248 93 68 55
0.047244 0.026672 -0.0262772 75 52 44
0.0689897 0.0414373 -0.0700701 0 0 0
0.0449628 0.0268269 -0.0510524 94 65 56
0.0594016 0.0367597 -0.0196874 87 59 49
0.0410704 0.025858 -0.0555625 0 0 0
0.0632576 0.0352044 -0.0680027 118 85 73
0.0395595 0.0261872 -0.033941 62 41 35
0.0693706 0.0404427 -0.0703083 0 0 0
0.0411301 0.0257592 -0.0301512 68 44 37
0.0402579 0.03138 -0.0550167 0 0 0
0.0399279 0.0297867 -0.0510393 94 68 56
0.0676913 0.0391375 -0.0671877 102 72 61
0.0398893 0.029961 -0.0559083 0 0 0
0.0408642 0.0303357 -0.0516388 92 65 53
0.0378053 0.0323913 -0.0544486 0 0 0
0.067425 0.037936 -0.0711195 107 81 69
0.0641587 0.0409384 -0.0349927 91 62 53
0.0424622 0.0406497 -0.0133246 76 51 41
0.0676804 0.0402084 -0.0383522 79 52 43
0.0385421 0.0345046 -0.0562082 0 0 0
0.055435 0.038781 -0.00635498 73 48 39
0.0392668 0.0325183 -0.0555669 0 0 0
0.0501752 0.0457618 0.0100686 82 54 43
0.0559813 0.0415025 -0.00537856 82 54 44
0.0411925 0.0452622 0.0238181 81 54 44
0.0518124 0.0415769 -0.000703099 75 47 38
0.053435 0.0458093 -0.00946405 83 55 44
0.0435881 0.0378563 -0.00979804 78 51 41
0.0503216 0.0452419 -0.014761 85 57 45
0.0479468 0.0500948 0.00958373 81 54 43
0.0597639 0.0458928 0.00571893 78 52 42
0.0552002 0.0548332 -0.00234054 83 55 44
0.0498438 0.0461224 0.00153503 86 59 47
0.0553445 0.0493216 -0.00131015 83 56 45
0.0560962 0.0477966 -0.00306176 84 57 45
0.0526515 0.04496 -0.00829645 82 54 44
0.0328273 0.0432011 -0.0414377 54 33 27
0.0556431 0.0526756 -0.010133 83 55 44
0.0437228 0.0462993 -0.0106694 83 56 45
0.0394645 0.0335122 -0.0552827 0 0 0
0.0448704 0.0471576 -0.011272 84 56 45
0.0431521 0.0454627 -0.00580507 81 53 42
0.048462 0.0415315 -0.00909328 80 53 43
0.0386236 0.0330239 -0.0560407 0 0 0
0.0385563 0.0356262 -0.0562836 0 0 0
0.0413658 0.0405738 -0.00135332 78 52 42
0.0383272 0.0366329 -0.0563437 0 0 0
0.0625775 0.0477335 0.00216855 87 56 46
0.0599966 0.046301 0.00560638 76 49 39
0.0379932 0.0422771 -0.00631552 77 51 41
0.044735 0.0442239 -0.00581274 82 54 44
0.0693465 0.0433835 -0.06463 84 55 46
0.0386374 0.0328505 -0.0561336 0 0 0
0.0395629 0.032355 -0.0557459 0 0 0
0.0380195 0.0522509 0.00424158 85 57 45
0.0384628 0.0361579 -0.0573728 0 0 0
0.0572348 0.0617887 -0.0105945 83 59 50
0.0388219 0.0385287 -0.0583434 0 0 0
0.035582 0.038448 -0.0304124 78 52 42
0.0379027 0.0529862 0.0147579 85 57 45
0.0584359 0.0607664 -0.0117369 80 52 43
0.0699623 0.0471182 -0.0660094 0 0 0
0.0386145 0.0374708 -0.0572084 0 0 0
0.0365074 0.0380078 -0.0311034 75 50 41
0.0405162 0.054961 -0.00540605 86 57 46
0.067794 0.0495902 -0.0542272 99 72 60
0.0703155 0.0486946 -0.0669024 0 0 0
0.0625296 0.0622448 -0.00825824 78 50 41
0.0715401 0.0415883 -0.0636463 116 90 79
0.0726496 0.0484795 -0.0642244 0 0 0
0.0380631 0.0464087 -0.0613694 92 66 54
0.067815 0.051175 -0.0486015 64 41 34
0.0700034 0.0515907 -0.0624463 81 57 48
0.0331268 0.0354108 -0.0381684 52 30 25
0.0371341 0.0520091 -0.0173762 81 53 43
0.0698761 0.0491338 -0.0532314 103 73 61
0.0508438 0.0614084 -0.00703587 81 53 43
0.0640203 0.0635533 -0.0103559 78 51 41
0.0565627 0.0632752 -0.00940952 113 83 73
0.0624444 0.0677614 -0.00902428 75 48 39
0.0705977 0.0720093 -0.0151314 66 41 33
0.0533813 0.0599645 -0.00795406 81 53 43
0.0702844 0.0526777 -0.0657003 0 0 0
0.0381621 0.0413092 -0.0618798 0 0 0
0.0645139 0.0615646 -0.0166772 73 46 37
0.038372 0.0408765 -0.0624165 0 0 0
0.036803 0.0564783 -0.00826708 82 54 44
0.0688333 0.0566361 -0.054572 75 50 42
0.070458 0.0629322 -0.00769037 74 48 39
0.0614174 0.0753421 -0.0111076 74 47 38
0.0391299 0.0519027 -0.0628751 92 66 55
0.0447626 0.0621265 -0.00958689 83 55 44
0.0704746 0.0500359 -0.0655622 0 0 0
0.0410577 0.0624096 -0.00296248 83 54 43
0.039724 0.0613701 -0.00766843 98 71 61
0.0677332 0.0784838 -0.014576 68 43 34
0.0517683 0.0642608 -0.0121985 87 55 44
0.0516753 0.0749985 -0.0121439 67 41 34
0.0618122 0.0747366 -0.0135558 73 46 37
0.0421909 0.0683456 -0.00375864 85 56 45
0.036696 0.0521228 -0.0607483 90 64 52
0.0476291 0.0789299 -0.0139572 73 48 39
0.0377143 0.0453885 -0.0644523 0 0 0
0.0637961 0.0749294 -0.0122894 71 47 38
0.0636488 0.0733687 -0.0133978 72 47 38
0.0668287 0.0671447 -0.0533978 68 47 39
0.0401242 0.0484886 -0.0657909 94 67 55
0.0408191 0.0460075 -0.0666631 95 68 55
0.0566321 0.0787271 -0.0263568 75 49 40
0.0371557 0.0453944 -0.0651024 0 0 0
0.0475166 0.0753348 -0.02478 68 43 35
0.0611736 0.0772531 -0.0136503 77 49 39
0.0680009 0.057648 -0.0661214 0 0 0
0.0383965 0.0503901 -0.065085 91 67 56
0.0671974 0.058738 -0.0679216 0 0 0
0.068162 0.059799 -0.0656212 0 0 0
0.06725 0.0591919 -0.0670942 0 0 0
0.0372764 0.0471256 -0.0651379 0 0 0
0.0623146 0.0560118 -0.0677671 65 46 37
0.0388019 0.0504376 -0.0690647 0 0 0
0.039145 0.0489994 -0.0646696 93 66 54
0.0411183 0.0549136 -0.0539993 51 33 27
0.0384504 0.0488465 -0.0665255 0 0 0
0.039391 0.050792 -0.0644099 89 62 51
0.0525653 0.0779625 -0.0282125 77 53 43
0.0382931 0.0510122 -0.0651467 94 67 56
0.056349 0.0776957 -0.0426018 54 36 31
0.0419029 0.0742137 -0.0351506 43 28 23
0.0425086 0.0739312 -0.0403411 48 35 29
0.0451584 0.0766601 -0.0381733 41 28 23
0.0566408 0.0791682 -0.0397856 53 35 30
0.0582651 0.0792647 -0.0395008 50 34 28
0.0599624 0.0769656 -0.0397509 42 28 23
0.064942 0.0612815 -0.068581 0 0 0
0.0602032 0.0769027 -0.0452933 49 33 27
0.0550878 0.0507032 -0.00348775 84 57 45
0.0658693 0.0348813 -0.0751449 154 115 102
0.0437102 0.0280971 -0.0507613 90 66 56
0.039232 0.0564768 -0.0129679 83 54 44
0.0570791 0.0274101 -0.0571684 98 69 59
0.0520278 0.0221737 -0.0495421 86 63 54
0.0404027 0.0326009 -0.0542634 98 73 59
0.0681084 0.0582818 -0.0679599 0 0 0
0.0386853 0.0320721 -0.0561457 0 0 0
0.0600784 0.0276215 -0.0552806 90 62 51
0.0662819 0.0326216 -0.0768082 0 0 0
0.0399684 0.0314388 -0.0566653 0 0 0
0.0499988 0.0237959 -0.049893 91 61 53
0.0475878 0.0228886 -0.0337167 69 47 40
0.0541457 0.0220031 -0.0374315 88 65 55
0.0716418 0.0367127 -0.0702772 0 0 0
0.0393299 0.0296828 -0.0561508 0 0 0
0.040348 0.0280352 -0.0290499 69 44 37
0.0485098 0.0395043 -0.00411428 72 45 36
0.058722 0.0470235 0.00425436 74 48 38
0.0545267 0.0431045 -0.00570322 78 50 41
0.0326744 0.0388888 -0.0372743 51 33 28
0.0467904 0.0475107 -0.00883764 82 55 44
0.0487899 0.0523251 -0.0101665 84 56 45
0.0367864 0.0379711 -0.0295164 75 51 42
0.0549564 0.0233894 -0.0545279 0 0 0
0.051396 0.0239395 -0.0460519 92 68 59
0.0592761 0.0295547 -0.0545882 99 72 60
0.0472088 0.0248136 -0.0466515 92 67 57
0.0623551 0.0312035 -0.0518299 115 85 73
0.0377032 0.0438479 -0.0594425 93 65 53
0.0480334 0.0239903 -0.0492635 87 60 50
0.0693634 0.0519911 -0.0531153 96 69 58
0.070302 0.0473767 -0.0522854 104 75 64
0.042174 0.0338244 -0.0239305 64 41 33
0.0398276 0.0314658 -0.0546288 0 0 0
0.0387758 0.0305146 -0.0563959 0 0 0
0.0391744 0.0322039 -0.0557584 0 0 0
0.0399827 0.0286084 -0.0493262 91 64 51
0.0363084 0.0374032 -0.0296365 74 49 40
0.0349779 0.0430547 -0.036087 75 48 40
0.0413842 0.0286645 -0.0549213 0 0 0
0.0594827 0.0282291 -0.0550711 93 66 55
0.0389042 0.0291054 -0.0533389 0 0 0
0.0387515 0.036432 -0.0568258 0 0 0
0.0389486 0.0417125 -0.0577972 98 73 60
0.0378771 0.0453834 -0.0638264 0 0 0
0.0580589 0.0260232 -0.051175 100 73 63
0.0487747 0.0218045 -0.0503256 85 60 52
0.0572573 0.0281115 -0.052472 93 70 59
0.0564795 0.0268644 -0.0530485 100 73 62
0.0479213 0.0776591 -0.0427458 0 0 0
0.0536988 0.0243181 -0.0505815 95 68 58
0.0589026 0.0274426 -0.0515731 99 72 61
0.057227 0.0268496 -0.0511393 100 75 63
0.0401073 0.0316501 -0.0560839 0 0 0
0.0680246 0.0500384 -0.0573613 97 70 58
0.0690331 0.0453883 -0.0564144 95 68 57
0.0368516 0.0378303 -0.0268977 50 30 24
0.0696339 0.0611723 -0.0524902 77 52 43
0.0696701 0.0728035 -0.0141285 69 44 36
0.0488145 0.0397008 -0.000776672 72 45 36
0.0521111 0.0367392 -0.0160171 70 44 37
0.0583318 0.0259387 -0.0551553 95 65 53
0.039364 0.0280852 -0.0314694 69 45 38
0.0376671 0.0369793 -0.0295478 74 51 43
0.0555273 0.0430038 -0.0145513 74 47 38
0.0565892 0.0272114 -0.0529165 100 74 63
0.0574321 0.0272535 -0.0538656 98 71 60
0.0415035 0.0281019 -0.0546232 0 0 0
0.0376723 0.041154 -0.0601082 0 0 0
0.0390303 0.0412578 -0.0571708 100 74 61
0.0386451 0.0361573 -0.0568704 0 0 0
0.0367701 0.0434138 -0.0610976 0 0 0
0.066966 0.0619262 -0.0559473 77 53 44
0.0507042 0.0245394 -0.0490751 148 116 105
0.0487769 0.0217286 -0.0480075 86 57 49
0.058224 0.0267865 -0.0539701 93 69 58
0.0378849 0.0435539 -0.0622887 0 0 0
0.0382478 0.0429232 -0.0633562 0 0 0
0.0379863 0.0555186 -0.0584604 82 57 48
0.0381942 0.0412978 -0.0595219 0 0 0
0.0369632 0.036774 -0.0298082 74 50 41
0.059928 0.0256393 -0.0519923 89 62 53
0.0462578 0.0190073 -0.0507538 0 0 0
0.0382676 0.0400939 -0.0588275 0 0 0
0.0400097 0.0413725 -0.0581689 96 72 59
0.0386169 0.0368861 -0.0570798 0 0 0
0.0376558 0.0440421 -0.0635239 0 0 0
0.0362895 0.0531443 -0.0597094 87 61 50
0.0394715 0.033397 -0.0565955 0 0 0
0.0597475 0.0307328 -0.0575574 102 74 62
0.0401851 0.0350765 -0.0555431 90 65 53
0.07047 0.0513653 -0.0540462 95 69 57
0.0679746 0.049331 -0.0514666 69 45 37
0.0672416 0.0789634 -0.0143632 69 44 35
0.0510541 0.0408661 -0.00241979 71 44 35
0.0554562 0.0259915 -0.053292 95 69 57
0.0582806 0.0274143 -0.0531508 101 75 64
0.0521952 0.0245607 -0.0586826 0 0 0
0.0514831 0.023026 -0.052904 90 61 52
0.0551739 0.0257367 -0.0527556 99 71 60
0.0609385 0.0268029 -0.055166 87 60 51
0.0483705 0.0250699 -0.0555365 87 60 51
0.0590853 0.0277152 -0.0542661 89 63 54
0.038427 0.0352004 -0.038052 67 43 35
0.0393338 0.0364924 -0.0573366 0 0 0
0.0332597 0.0447767 -0.0461386 102 74 61
0.068279 0.0580934 -0.0521474 80 57 48
0.0651899 0.0572191 -0.0653802 63 41 34
0.0347951 0.0428426 -0.0308559 73 49 41
0.0488571 0.0246592 -0.0485299 85 61 51
0.0718121 0.0352907 -0.0656064 148 115 101
0.0688468 0.0448392 -0.0550405 105 76 65
0.0701419 0.0508274 -0.0525205 103 75 63
0.0348602 0.0385459 -0.0428696 51 32 27
0.0327673 0.0407797 -0.0358332 56 36 30
0.0327535 0.0404145 -0.0412928 61 38 31
0.0346482 0.0356066 -0.0341418 62 40 33
0.0408641 0.0742436 -0.0366794 36 25 21
0.0553437 0.0251123 -0.0346199 68 45 38
0.0507842 0.0263373 -0.0280502 65 43 36
0.0332839 0.0372617 -0.039397 56 36 31
0.0386791 0.0344444 -0.057679 0 0 0
0.0690499 0.0508315 -0.0535453 101 74 62
0.0431387 0.0267934 -0.0546053 82 55 46
0.0382825 0.0415302 -0.0615719 0 0 0
0.0360046 0.0410931 -0.0330085 78 54 45
0.0576766 0.0276588 -0.0539036 98 72 61
0.0533298 0.0416018 -0.00553232 76 48 38
0.0530743 0.038864 -0.00607718 76 50 41
0.0751457 0.0456433 -0.0481284 96 68 57
0.0703496 0.0457807 -0.0520395 104 76 64
0.0709856 0.0482782 -0.049157 108 80 68
0.0673508 0.0596458 -0.0663696 0 0 0
0.0389811 0.0426887 -0.0594986 94 67 56
0.0708907 0.047315 -0.0508649 108 78 66
0.0312096 0.0478818 -0.0257525 85 59 49
0.0574642 0.0280954 -0.0527903 95 71 60
0.0537394 0.0269938 -0.052073 53 34 28
0.0524408 0.0221935 -0.0505549 0 0 0
0.0363717 0.0398842 -0.0311298 73 50 41
0.0502799 0.0184728 -0.0372791 82 56 47
0.0588964 0.0432903 -0.00954095 82 55 45
0.0563156 0.0406217 -0.0167125 79 52 43
0.0574484 0.023088 -0.0430026 100 71 60
0.0507511 0.0231234 -0.0346785 66 45 39
0.056454 0.0253797 -0.0531316 95 67 56
0.0575669 0.0268272 -0.053311 106 77 66
0.0400941 0.0309835 -0.0554312 0 0 0
0.0668859 0.0381534 -0.0304096 78 52 43
0.0653756 0.0626127 -0.0683966 0 0 0
0.0453652 0.0221897 -0.0316022 66 43 37
0.0452826 0.0252923 -0.0473014 89 62 54
0.0676075 0.0583208 -0.0564183 78 53 44
0.0399873 0.0300897 -0.0565482 0 0 0
0.0552873 0.0259947 -0.0509796 92 68 57
0.0702508 0.0477643 -0.0553583 89 62 51
0.0686787 0.0457263 -0.026824 102 70 60
0.060772 0.0491774 0.00578677 74 45 36
0.038909 0.0329688 -0.034514 71 46 38
0.0411672 0.0723942 -0.0298233 76 51 41
0.0734792 0.0492922 -0.0539667 87 60 51
0.0460391 0.0205342 -0.042721 88 60 51
0.0700972 0.0521469 -0.053762 94 69 58
0.0404933 0.0307466 -0.054704 0 0 0
0.0381392 0.0354287 -0.0580904 0 0 0
0.070885 0.0484254 -0.051381 102 74 63
0.0448044 0.0253622 -0.0472216 93 64 56
0.0695289 0.0499277 -0.053219 105 76 64
0.0669014 0.0609063 -0.0576813 72 49 40
0.0587766 0.0293765 -0.0549481 99 73 62
0.0678461 0.0517189 -0.0569503 92 64 53
0.0354175 0.0779186 -0.0152007 80 53 44
0.0384358 0.0499691 0.0175834 100 71 60
0.0526319 0.025197 -0.0540166 99 72 63
0.0691306 0.0446006 -0.0546809 104 75 64
0.036864 0.0495281 -0.0509604 105 77 64
0.0519662 0.0233363 -0.0351652 62 39 34
0.0380262 0.0566948 -0.0609248 0 0 0
0.0332208 0.0369023 -0.0337702 57 36 30
0.0712016 0.0608662 -0.0462705 85 59 50
0.0526376 0.0397135 -0.00681478 80 53 43
0.0492817 0.0246585 -0.0488226 88 63 54
0.0697786 0.0505353 -0.0536154 102 75 63
0.0675209 0.0604673 -0.055084 81 58 48
0.0378701 0.0371675 -0.0592034 0 0 0
0.0673144 0.0544691 -0.0576991 79 53 45
0.0679847 0.0590389 -0.0665127 0 0 0
0.0694679 0.0585468 -0.0540527 75 49 41
0.0710554 0.0491613 -0.0516617 97 72 60
0.0692142 0.0490361 -0.0523606 108 80 68
0.0676077 0.0668442 -0.0508434 69 48 41
0.0528449 0.0244158 -0.0526696 93 64 55
0.0689124 0.0488977 -0.0531352 107 79 67
0.0734052 0.0446695 -0.0605738 0 0 0
0.0688631 0.081564 -0.0116327 94 66 56
0.0723713 0.0579797 -0.0271159 88 60 50
0.0389857 0.0330859 -0.0435354 52 32 26
0.0718832 0.0519639 -0.0469279 106 78 66
0.0380057 0.0858275 -0.0184561 80 54 43
0.0693268 0.0680478 -0.0137458 70 44 36
0.0593897 0.0235988 -0.0369897 103 77 66
0.0699768 0.0365386 -0.0444288 130 97 83
0.0673722 0.0457164 -0.0392789 88 61 51
0.0723691 0.0572912 -0.0499967 87 60 51
0.0666021 0.0813243 -0.0297603 66 41 33
0.0662187 0.0737534 -0.0264038 69 45 37
0.0401695 0.0310214 -0.054609 0 0 0
0.0670253 0.0497947 -0.0571336 96 69 57
0.0379842 0.0406998 -0.059688 0 0 0
0.0488612 0.023273 -0.0271094 69 46 39
0.0403036 0.023257 -0.0285582 66 43 37
0.0726018 0.0508789 -0.0496791 98 70 57
0.0641409 0.0505187 -0.0673385 74 49 41
0.0680396 0.0409143 -0.0556395 110 81 68
0.0697332 0.049372 -0.0538152 102 74 63
0.0442514 0.0237178 -0.0344514 67 44 38
0.0688504 0.047095 -0.0550079 104 76 65
0.0689472 0.055448 -0.0554145 78 52 43
0.044104 0.0230616 -0.0342498 66 42 36
0.0566025 0.0877368 -0.0081859 74 49 39
0.0478614 0.037449 -0.0123007 76 50 40
0.0597592 0.0249804 -0.0558 0 0 0
0.0624406 0.0804077 0.00252116 74 47 38
0.0735594 0.0517463 -0.0135349 87 60 49
0.0706795 0.0451778 -0.0505949 108 79 67
0.0420031 0.0722392 -0.000545991 91 61 50
0.0444425 0.0811498 -0.0200445 71 47 37
0.0515092 0.0797687 -0.0223281 70 46 37
0.0665137 0.0416261 -0.0618334 92 66 54
0.0398247 0.0365465 -0.057683 0 0 0
0.0390394 0.028376 -0.0364602 62 40 34
0.0361734 0.0454794 -0.0606196 0 0 0
0.0691314 0.0467506 -0.0556598 100 72 60
0.069968 0.0465339 -0.0524587 110 80 68
0.0676402 0.0796668 -0.0141325 71 46 37
0.0679457 0.0413351 -0.0570247 102 74 61
0.039989 0.0724248 -0.0396247 51 34 29
0.0533357 0.0231743 -0.0457089 97 71 62
0.0672054 0.0472841 -0.0522041 61 39 32
0.0708058 0.0465244 -0.0549714 95 69 58
0.0690629 0.0479938 -0.0545223 103 75 63
0.0688778 0.0541301 -0.0540305 83 57 47
0.0646306 0.0792928 -0.0242796 72 47 38
0.0652945 0.0310501 -0.0651131 116 87 75
0.0729923 0.0540192 -0.0262041 91 63 52
0.0608945 0.0294671 -0.0306199 66 43 36
0.066987 0.0915104 -0.0082356 75 48 39
0.0406213 0.0250934 -0.0338658 65 41 35
0.0664039 0.0815001 -0.00180021 72 47 38
0.0530861 0.0269405 -0.0262927 72 48 41
0.0683164 0.0328934 -0.0774217 0 0 0
0.0617447 0.0281524 -0.037277 74 50 41
0.0721266 0.0555694 -0.0555988 77 52 43
0.0472431 0.0229869 -0.0346456 68 46 39
0.0663113 0.0346184 -0.0768206 0 0 0
0.0666946 0.0412636 -0.0621346 99 71 59
0.0346711 0.0468262 -0.0535358 94 66 54
0.0466667 0.0273899 -0.0495539 58 37 32
0.0679085 0.0422872 -0.0528595 117 88 76
0.0700092 0.0464303 -0.0530061 107 77 66
0.0701876 0.0467129 -0.0554609 89 63 52
0.0523028 0.0219115 -0.0496339 0 0 0
0.0504183 0.0203281 -0.0464003 0 0 0
0.0652317 0.0733419 -0.0185064 92 66 57
0.0598543 0.0438829 -0.0356004 88 58 48
0.0333191 0.0750292 -0.0242421 71 45 37
0.0458626 0.0222706 -0.0492436 84 57 49
0.0681354 0.0749558 -0.01335 68 44 35
0.0724234 0.0323281 -0.061585 149 112 99
0.0580721 0.0264941 -0.0340139 68 45 38
0.0376568 0.0370392 -0.0514156 93 67 55
0.0380412 0.0730725 -0.0234208 78 51 42
0.0372047 0.0350265 -0.0437785 52 34 29
0.0693406 0.0505695 -0.0329609 88 61 51
0.0628634 0.0778893 0.00039128 74 47 39
0.065334 0.0329424 -0.0756982 0 0 0
0.0420216 0.0456858 -0.00682791 85 57 46
0.0384429 0.0373821 -0.0609456 0 0 0
0.069714 0.0514023 -0.0536916 97 70 58
0.0713847 0.0461197 -0.0556804 92 65 55
0.0695048 0.0489728 -0.0522887 106 77 65
0.0605046 0.0303164 -0.0573139 98 71 59
0.0390335 0.0398343 -0.0611571 0 0 0
0.0698492 0.0502434 -0.0511987 106 78 66
0.0682654 0.0513151 -0.0553967 93 66 54
0.0710585 0.0507542 -0.0531506 94 66 55
0.0443471 0.0753916 -0.0400189 0 0 0
0.0520946 0.0960869 -0.0186457 105 71 58
0.0385566 0.043206 -0.0600215 96 69 58
0.0683502 0.0425239 -0.0555 108 78 67
0.0687178 0.0482621 -0.0585917 91 64 53
0.0363434 0.0370701 -0.00389012 78 51 41
0.0690688 0.0523274 -0.0296382 66 39 32
0.0542914 0.0257949 -0.059513 0 0 0
0.0518218 0.0272018 -0.0279791 73 50 42
0.0400265 0.0305788 -0.0480778 86 63 53
0.0715928 0.0675683 -0.0124933 66 39 31
0.0383142 0.035392 -0.0437666 59 37 32
0.0457255 0.0226503 -0.0455088 95 65 55
0.0441856 0.0254526 -0.0502296 90 62 53
0.0711369 0.0422211 -0.0566812 99 72 61
0.0400275 0.0371519 -0.0587275 0 0 0
0.0381083 0.0433634 -0.0619717 0 0 0
0.069155 0.0403775 -0.0702496 0 0 0
0.0395069 0.0278032 -0.0556414 0 0 0
0.0681802 0.0405443 -0.0699745 116 88 77
0.0518704 0.0226195 -0.0515863 92 67 57
0.0712402 0.0514856 -0.0604422 84 59 50
0.0645139 0.0727201 -0.02855 73 47 38
0.0513089 0.024232 -0.0491001 168 138 128
0.0602052 0.0267903 -0.0376624 68 45 38
0.0614113 0.056535 0.0208537 76 47 37
0.0675368 0.0658266 -0.0356102 77 53 43
0.0734437 0.0532819 -0.0413775 104 77 64
0.0683832 0.0777166 -0.0237805 70 46 38
0.042112 0.0278279 -0.0447958 55 35 30
0.0741039 0.0402775 -0.058144 123 94 81
0.0409759 0.0207897 -0.0427732 80 54 46
0.058097 0.0257538 -0.0344513 68 46 39
0.0671816 0.0621877 -0.0374446 79 55 45
0.0496202 0.0342603 -0.0171357 63 39 32
0.0379561 0.0579347 -0.0123135 83 55 45
0.0352976 0.04168 -0.0501811 99 72 60
0.065789 0.0361524 -0.0670036 127 93 81
0.0323523 0.0489875 -0.0318303 83 57 47
0.0529134 0.069522 0.00929478 81 51 41
0.0530786 0.0686612 -1.06355e-05 89 57 46
0.0422454 0.0732095 -0.00326813 82 53 43
0.0678018 0.0807755 -0.0206226 75 51 43
0.0611993 0.0797557 -0.0106829 79 50 41
0.0708526 0.0812943 -0.0117352 75 49 39
0.0621704 0.0843403 -0.0046836 82 54 44
0.0633752 0.0811122 -0.0190756 85 56 47
0.0707138 0.074472 -0.0284615 80 55 45
0.0478632 0.0848465 -0.0161774 73 48 38
0.0513135 0.0819276 -0.0214271 71 47 37
0.0490757 0.0468261 -0.00565094 82 55 43
0.0394813 0.0430971 -0.0618268 100 71 60
0.0348769 0.055839 -0.0382482 64 38 32
0.0645997 0.0317359 -0.0683717 116 88 76
0.0534657 0.0243059 -0.0481307 92 67 57
0.035125 0.0435456 -0.0326568 76 52 43
0.0346525 0.0440852 -0.0358558 73 47 39
0.0489188 0.0237173 -0.049222 89 60 52
0.0561901 0.0841196 -0.0196501 77 51 42
0.0675453 0.0743628 -0.0204965 75 49 40
0.0710636 0.0623116 -0.0658945 0 0 0
0.0694858 0.0465974 -0.0546216 106 77 65
0.068138 0.0466859 -0.0546562 109 81 69
0.0689264 0.0771265 -0.0172881 76 49 40
0.0503092 0.0921725 -0.0117232 82 57 47
0.044702 0.0279639 -0.0312615 75 50 42
0.0555703 0.0411949 -0.0067172 81 53 44
0.0632398 0.0396817 -0.0307664 88 59 49
0.0634765 0.0728809 -0.0165978 72 47 39
0.0638491 0.0805869 -0.0213903 73 45 37
0.0595456 0.02671 -0.0349313 67 44 37
0.0361506 0.0373225 -0.0254622 75 51 43
0.0679377 0.046351 -0.0229619 87 59 49
0.0432429 0.0348871 -0.0119272 69 45 36
0.0421274 0.024687 -0.0483682 85 57 48
0.0361468 0.055128 -0.0112702 83 55 44
0.0413345 0.0411606 -0.00471748 77 51 41
0.0434512 0.0567885 -0.00415189 85 56 45
0.0512219 0.0369303 -0.0200974 71 45 37
0.0694758 0.0406513 -0.00885709 86 58 48
0.0635672 0.0769702 -0.0276976 73 47 38
0.0679325 0.053944 -0.0362785 85 58 48
0.0707129 0.0444094 -0.0189465 93 62 53
0.0422471 0.0222789 -0.0462604 84 57 48
0.0718819 0.0685665 -0.031408 78 54 44
0.0681329 0.0409288 -0.0551836 112 82 69
0.0420197 0.0474186 -0.00757887 83 56 45
0.0381502 0.041755 -0.0604863 0 0 0
0.0730304 0.0498282 -0.0574668 85 61 51
0.0360359 0.0484054 -0.0594668 90 65 53
0.0490725 0.0228805 -0.0520063 94 63 54
0.0399612 0.0245661 -0.0489509 0 0 0
0.0675386 0.0596675 -0.0665864 0 0 0
0.0503138 0.0251295 -0.0504965 90 65 55
0.0646302 0.0344439 -0.0521935 131 97 83
0.0677687 0.0465151 -0.0536815 106 81 69
0.0496713 0.0228516 -0.0443728 103 73 63
0.0698114 0.0390625 -0.0689678 0 0 0
0.0706635 0.0505144 -0.0527503 103 74 63
0.0498363 0.0939886 -0.0097365 80 56 46
0.06462 0.0720995 -0.0265022 77 50 41
0.0494214 0.0963663 -0.00527571 102 80 72
0.0489872 0.0264116 -0.0246644 74 51 42
0.0606122 0.0355688 -0.00652497 86 58 48
0.0440182 0.0783462 -0.0214221 71 47 38
0.0694621 0.0502891 -0.0569842 92 65 54
0.0373397 0.0288686 -0.0363538 56 35 29
0.0351356 0.0450536 -0.0365009 82 55 46
0.068567 0.0446238 -0.0685031 0 0 0
0.0715834 0.0477301 -0.0499908 102 73 62
0.0553183 0.0221545 -0.049078 0 0 0
0.0665855 0.0843791 -0.0260386 71 46 38
0.0716074 0.0460282 -0.0163814 98 67 57
0.0403815 0.0295771 -0.056367 0 0 0
0.0702267 0.0457057 -0.0548265 94 65 54
0.0394621 0.0499626 -0.00888198 85 57 46
0.0660869 0.0733521 -0.0213981 67 42 34
0.070534 0.0641219 -0.0624801 0 0 0
0.0370806 0.05243 -0.0661315 0 0 0
0.0407567 0.05412 0.00425639 87 58 47
0.0388792 0.042059 -0.0598617 97 69 58
0.0515328 0.023717 -0.0490962 179 143 135
0.0387668 0.0376654 -0.057573 0 0 0
0.0541502 0.0877105 -0.0151109 74 49 40
0.0365324 0.0308829 -0.0481545 0 0 0
0.0680402 0.0525333 -0.055781 86 61 51
0.0438985 0.0239023 -0.0473377 89 62 54
0.0703387 0.047971 -0.0565818 91 64 54
0.0668146 0.0753968 -0.0251958 66 44 35
0.048861 0.0227256 -0.0350168 69 45 39
0.0654877 0.0349219 -0.0755099 157 117 103
0.0702611 0.0521032 -0.0554301 90 63 53
0.0538905 0.0233248 -0.0528749 0 0 0
0.0708673 0.0590499 -0.0354705 81 56 47
0.0708531 0.0576585 -0.0348506 82 56 46
0.0708173 0.0666764 -0.0300092 82 57 46
0.067272 0.0354028 -0.0667256 135 101 88
0.0677178 0.0519519 -0.0575518 87 60 50
0.0599072 0.0434649 -0.0152974 80 51 42
0.0468694 0.0470732 -0.0119172 83 55 44
0.069609 0.0585924 -0.0589538 72 47 40
0.049106 0.023918 -0.0265895 68 45 38
0.0642285 0.0327665 -0.0664234 115 85 75
0.0664514 0.0318428 -0.0559497 109 79 67
0.0545498 0.0220562 -0.0450736 94 63 52
0.0326493 0.0389245 0.01949 77 51 41
0.0386962 0.0508967 -0.0106342 84 56 45
0.0349914 0.052609 -0.0625087 0 0 0
0.0650975 0.0345343 -0.0546047 133 97 84
0.0323233 0.0582971 -0.00375591 82 54 43
0.0722148 0.0592373 -0.0120887 78 52 42
0.066182 0.0450707 -0.0246059 83 54 44
0.0678257 0.0335647 -0.0516968 121 88 75
0.050023 0.0324913 -0.0197636 84 57 47
0.0631374 0.0691447 -0.0108375 74 48 39
0.0464684 0.0216789 -0.0479893 87 59 50
0.0505012 0.0209467 -0.0485253 0 0 0
0.0581938 0.0355438 -0.0244904 90 62 53
0.0603901 0.0343714 -0.0143348 82 54 45
0.0406005 0.0305145 -0.0549527 0 0 0
0.038234 0.0392132 -0.060919 0 0 0
0.0710775 0.0776187 -0.0233837 60 37 29
0.0387502 0.035276 -0.0570956 0 0 0
0.0380312 0.0410161 -0.060214 0 0 0
0.0693285 0.0577598 -0.0547773 71 45 37
0.0504476 0.0228587 -0.0516849 77 52 45
0.0678762 0.0664677 -0.0517306 76 51 43
0.0711335 0.0487917 -0.0604692 89 63 54
0.0711017 0.0466041 -0.0561874 93 66 56
0.0530095 0.0767068 -0.0269588 71 46 37
0.0683296 0.0408525 -0.0558069 106 76 64
0.0324239 0.0453673 -0.0434683 104 77 64
0.06889 0.0354446 -0.061106 126 93 80
0.0552082 0.0248362 -0.0335058 67 45 38
0.0304456 0.0648941 -0.0074119 86 56 45
0.037567 0.0307924 -0.0333994 64 42 35
0.0397038 0.0268495 -0.029338 70 46 39
0.0550465 0.0402175 -0.0061035 78 51 42
0.0387634 0.0558464 -0.00801125 85 56 45
0.0562104 0.0374516 -0.000901026 69 45 36
0.059884 0.0377141 -0.0299785 85 56 47
0.0349754 0.0420327 -0.0472796 94 70 58
0.0530612 0.0258678 -0.0498982 77 54 46
0.0403136 0.0298596 -0.0565653 0 0 0
0.0540096 0.0230467 -0.0523393 0 0 0
0.0468626 0.0256913 -0.0496326 95 68 59
0.0679167 0.0585912 -0.0667312 0 0 0
0.0502961 0.0819843 -0.0242818 76 51 41
0.0573158 0.0268176 -0.0510563 99 74 62
0.0416345 0.0232287 -0.0303455 65 43 37
0.0529922 0.0249692 -0.053577 93 64 54
0.0695555 0.059056 -0.0561592 73 48 41
0.034783 0.0339865 -0.0468406 0 0 0
0.0691817 0.0454486 -0.0540468 106 78 66
0.0389278 0.0522889 -0.0623679 90 64 53
0.0670682 0.0803601 -0.021789 70 46 37
0.0684811 0.0762218 -0.0210824 71 46 37
0.0685372 0.0593037 -0.0384924 80 55 45
0.0461929 0.0238775 -0.0369584 65 42 36
0.0674017 0.0739188 -0.0230954 66 43 34
0.0369175 0.0775001 -0.0168138 81 54 44
0.0475557 0.0913072 -0.00871532 88 65 56
0.048454 0.0343391 -0.0143649 64 41 33
0.0686639 0.0389551 -0.0608666 104 75 64
0.048176 0.0229262 -0.0366757 61 39 34
0.0626419 0.0319017 -0.0579427 102 73 61
0.0725625 0.0465807 -0.0493648 99 71 59
0.0527043 0.0341277 -0.0048491 72 46 37
0.0657784 0.0737038 -0.0497368 66 45 37
0.0703149 0.0348677 -0.0613917 135 100 88
0.0582114 0.0437526 -0.0106201 80 53 44
0.0682892 0.0365113 -0.031943 83 55 46
0.0603382 0.0271415 -0.0424953 97 73 60
0.0724206 0.0505465 -0.0104898 85 57 47
0.0649948 0.0314207 -0.056473 107 80 68
0.0710662 0.064075 -0.0431943 54 35 29
0.0600435 0.0645784 -0.0135334 73 47 39
0.0683028 0.0565163 -0.0350234 81 55 45
0.0571232 0.0446348 -0.0214888 79 53 42
0.0684801 0.0682887 -0.0543814 63 41 34
0.0693938 0.0551157 -0.0395848 78 53 44
0.0342348 0.0479902 -0.0547292 96 67 55
0.0689052 0.0335924 -0.0590339 127 94 82
0.0561841 0.0346438 -0.0216109 84 56 46
0.055444 0.0465596 -0.00953193 84 57 45
0.0368461 0.0526988 -0.060659 87 61 50
0.0679908 0.0323826 -0.0721982 0 0 0
0.065278 0.0353628 -0.0695477 124 92 79
0.06877 0.0609508 -0.0359194 81 56 46
0.0732149 0.0416483 -0.0611453 115 88 76
0.0659316 0.0386075 -0.0515821 99 72 60
0.0549805 0.0463745 0.0040197 82 55 44
0.0386366 0.0299433 -0.0341759 68 44 38
0.069939 0.0828107 -0.00943197 73 48 38
0.0376825 0.036339 -0.0450138 49 32 27
0.0669029 0.032984 -0.0768551 0 0 0
0.070414 0.0349829 -0.0416599 132 98 84
0.0636289 0.0323007 -0.0523964 125 92 78
0.0499603 0.0225996 -0.0519544 82 58 50
0.0595918 0.036685 -0.0196853 87 58 49
0.0382819 0.0286442 -0.0551269 0 0 0
0.0705878 0.0468931 -0.0530022 98 70 59
0.0376715 0.0430216 -0.0622282 0 0 0
0.0475936 0.0229365 -0.0478682 91 63 54
0.0528265 0.0244687 -0.0496541 99 76 67
0.0396149 0.0321004 -0.0562398 0 0 0
0.0723079 0.0495694 -0.0529883 90 64 53
0.0674811 0.0414285 -0.0559374 110 81 69
0.0695533 0.0562204 -0.0557594 77 50 43
0.0682857 0.0436749 -0.0547055 110 81 69
0.0684647 0.0453516 -0.0558947 104 75 63
0.0669611 0.0681544 -0.0368259 77 53 43
0.0675808 0.0523825 -0.0577878 86 59 49
0.0474322 0.0207885 -0.0455861 88 63 54
0.0674898 0.0791497 -0.0140669 69 44 35
0.0499163 0.0919403 -0.0116404 87 63 53
0.066686 0.0342467 -0.0686501 119 86 75
0.0694046 0.0678803 -0.0364752 73 51 41
0.034471 0.0525817 -0.0338365 84 59 49
0.0431371 0.0829132 -0.020932 79 54 44
0.0648629 0.0771551 -0.0349424 80 55 45
0.0646173 0.0305583 -0.0531749 95 66 55
0.0659789 0.0720657 -0.0387701 75 52 42
0.0716708 0.0701009 -0.0105163 71 45 37
0.078693 0.0742124 0.00164864 77 50 40
0.0463653 0.093521 -0.0119545 79 53 42
0.0316804 0.0475916 -0.00066898 81 53 43
0.0745565 0.0753397 -0.00924952 73 47 38
0.0687516 0.066073 -0.0354689 81 56 46
0.0683812 0.0354977 -0.0612007 127 93 81
0.0655025 0.0629479 -0.0547196 56 37 30
0.0704947 0.0600028 -0.0391664 62 40 32
0.0669 0.0338247 -0.0584074 120 88 75
0.0490867 0.0823557 0.00571976 73 46 38
0.0576817 0.0760338 -0.0164268 71 43 34
0.0353143 0.0732619 -0.0143983 76 48 39
0.0594681 0.0953747 -0.00957332 72 47 38
0.0353845 0.0555981 -0.00804805 84 56 46
0.0311414 0.0513227 -0.00756432 81 53 42
0.0685336 0.0420265 -0.0625825 96 70 59
0.0674099 0.0333067 -0.0701806 141 105 93
0.0765388 0.074577 -0.00269219 81 54 40
0.0370809 0.0404648 -0.0607209 0 0 0
0.0641639 0.032466 -0.065058 111 81 71
0.0670475 0.0585171 -0.0574982 79 54 46
0.0623065 0.0685871 -0.0497336 57 38 31
0.056641 0.0251571 -0.0539971 88 62 52
0.0697059 0.0380742 -0.067406 108 80 68
0.0619727 0.0337336 -0.0595429 128 94 81
0.0413344 0.0297589 -0.0531678 93 67 54
0.0680575 0.0412072 -0.0704178 0 0 0
0.040996 0.0431973 -0.00638585 77 51 41
0.0689277 0.0511697 -0.0558989 94 68 56
0.0382637 0.043613 -0.0595618 100 70 59
0.036965 0.0507965 -0.0625961 88 63 53
0.0358173 0.045675 -0.0518679 105 76 63
0.0656265 0.0329157 -0.0762147 0 0 0
0.0424823 0.0279224 -0.0471871 84 61 52
0.0687673 0.0379104 -0.0726547 0 0 0
0.0395738 0.0297783 -0.0546754 0 0 0
0.0664995 0.0330718 -0.0763652 0 0 0
0.0334714 0.0439654 -0.0324304 78 51 42
0.0699514 0.0612586 -0.0527738 72 48 40
0.0674617 0.0506749 -0.0577854 94 67 55
0.0666112 0.0654794 -0.0541914 70 48 40
0.0683959 0.0603597 -0.0538431 76 52 43
0.0332486 0.0435207 -0.0475404 105 76 64
0.0688016 0.0548432 -0.0549092 81 54 45
0.068187 0.0408135 -0.0560843 107 76 64
0.0690498 0.0446712 -0.0609172 91 64 53
0.0688599 0.0745587 -0.0363793 66 40 34
0.0696135 0.0513588 -0.055058 97 71 60
0.0703669 0.0624776 -0.0634038 0 0 0
0.068302 0.0426924 -0.0542769 111 82 70
0.0702374 0.0648783 -0.0609971 0 0 0
0.0688671 0.0741007 -0.0265515 60 38 30
0.0680767 0.05768 -0.0339097 59 36 28
0.0361455 0.0529821 -0.0616332 88 62 51
0.0390326 0.0494489 0.0141446 100 71 60
0.0694163 0.0494769 -0.0561536 95 68 56
0.0702249 0.053491 -0.0540338 92 65 54
0.068995 0.0398091 -0.054533 110 81 68
0.053592 0.0842098 -0.0319197 38 26 22
0.0705214 0.0443528 -0.0571094 93 65 55
0.0392121 0.0329094 -0.0500994 81 57 48
0.0690229 0.0655744 -0.0371188 79 54 45
0.0488184 0.0929987 -0.0086075 83 59 50
0.0673696 0.0354442 -0.0665504 135 101 88
0.0604266 0.0529111 -0.0138034 79 50 41
0.0644925 0.0678485 -0.0124271 74 47 39
0.0526271 0.0354078 -0.0108574 66 42 34
0.0579948 0.0436531 -0.00843446 81 54 44
0.0527377 0.0229501 -0.0402489 82 57 49
0.0318449 0.0502478 -0.0392641 67 43 35
0.0358823 0.0542488 -0.00966536 87 58 47
0.062194 0.0316539 -0.0549164 114 83 70
0.0601836 0.0336822 -0.0266328 79 54 45
0.0514901 0.0361555 -0.0106816 69 43 35
0.0666306 0.0409847 -0.0689253 81 55 45
0.0543533 0.0695971 -0.0139997 79 50 41
0.0667376 0.0364195 -0.0674417 113 85 70
0.0671748 0.0485456 -0.0577963 103 76 64
0.0343223 0.0598709 -0.034895 98 68 57
0.067351 0.0387197 -0.0323311 77 50 41
0.0671681 0.0820952 -0.0402061 52 35 28
0.0692855 0.0385143 -0.0677096 115 86 74
0.0506609 0.0767966 -0.0166886 74 49 40
0.0506637 0.0246121 -0.0557614 83 56 48
0.0661142 0.0717761 -0.017589 71 46 37
0.0327494 0.048203 -0.038416 64 41 34
0.0701995 0.0410735 -0.0559824 101 73 61
0.0352515 0.057346 -0.0116882 80 52 42
0.0412011 0.0701964 -0.000447772 86 56 45
0.0687786 0.0426377 -0.064299 97 66 58
0.0411261 0.0365116 0.00775011 79 53 43
0.0680267 0.0354988 -0.0731896 0 0 0
0.0365993 0.07398 -0.0252484 73 48 39
0.0749058 0.0499751 -0.0452766 95 68 57
0.0628477 0.0846317 -0.0176886 76 48 39
0.050848 0.0418619 -0.0106677 80 53 43
0.0551698 0.0253723 -0.0407497 61 39 33
0.0320183 0.0473322 -0.0120173 80 52 42
0.0355226 0.0661801 -0.0100885 90 59 48
0.0478485 0.0401841 -0.00264338 74 48 39
0.0299008 0.0361589 -0.0331602 90 65 54
0.036045 0.0526001 -0.0120753 82 54 44
0.0607657 0.0734719 -0.0204864 76 48 39
0.0579129 0.0349875 -0.024492 87 59 49
0.0689102 0.0425873 -0.0554392 102 74 62
0.0699974 0.0456423 -0.0655907 0 0 0
0.0815044 0.0499848 0.00613667 95 65 55
0.0691587 0.0365041 -0.0691873 114 81 68
0.0429288 0.0278918 -0.0469913 49 29 23
0.0665098 0.0307966 -0.0678794 0 0 0
0.0658405 0.0680343 -0.0574841 59 41 34
0.0275916 0.0806855 -0.0124668 74 48 39
0.0668541 0.0633009 -0.0522077 54 36 29
0.0621082 0.0269059 -0.0525448 86 60 50
0.0676074 0.0327201 -0.0459984 128 93 80
0.0601637 0.030734 -0.053636 107 80 67
0.0599501 0.029739 -0.0576645 94 68 57
0.0664993 0.0375636 -0.0666509 111 75 66
0.0603678 0.0317708 -0.0545967 110 83 70
0.0400072 0.0306633 -0.0537126 0 0 0
0.0379128 0.0367535 -0.0581189 0 0 0
0.0700676 0.0650727 -0.0545216 68 44 37
0.0677577 0.0398755 -0.0703577 121 94 82
0.0677435 0.036862 -0.0709206 102 72 61
0.0379574 0.0285804 -0.0560181 0 0 0
0.0385859 0.0394482 -0.0586581 0 0 0
0.037476 0.034521 -0.0488592 90 64 53
0.0587127 0.0310289 -0.0572927 94 70 59
0.0693806 0.0473329 -0.0530136 107 79 67
0.0597839 0.0325244 -0.0557913 99 74 63
0.0403896 0.0500317 0.0150235 84 57 45
0.0700555 0.0458367 -0.0570837 95 68 57
0.0680464 0.0515805 -0.0565445 92 64 52
0.0666533 0.0468635 -0.0508992 63 40 33
0.0709141 0.046951 -0.0555452 93 66 56
0.0675296 0.0816306 -0.0160774 80 54 44
0.0676959 0.0617095 -0.0375376 82 57 47
0.0661799 0.0401985 -0.0543916 115 89 75
0.0667814 0.0765271 -0.0250985 72 49 40
0.0680256 0.0414342 -0.0558653 108 79 67
0.0379586 0.0360334 -0.0572494 0 0 0
0.0675526 0.034417 -0.0687139 117 83 73
0.0706981 0.0474328 -0.0541526 91 65 54
0.0717596 0.0508468 -0.0480228 104 76 64
0.0520866 0.022715 -0.0523788 0 0 0
0.0701595 0.0611907 -0.0347497 80 54 44
0.0506831 0.0797675 -0.0223958 71 46 37
0.069882 0.060103 -0.0363621 80 55 44
0.0319239 0.0524975 -0.0393554 71 46 38
0.0375513 0.0558264 -0.059606 75 52 44
0.0435719 0.0221877 -0.0516455 85 59 50
0.0660421 0.0754446 -0.0234075 73 48 38
0.0330036 0.0471415 -0.0372357 69 44 36
0.0536232 0.0812067 -0.0264054 72 48 38
0.0683992 0.0426399 -0.0559322 106 78 66
0.0690232 0.0434866 -0.0562887 101 73 61
0.0680928 0.0414539 -0.0546097 111 82 70
0.0655049 0.0408537 -0.0569617 114 87 73
0.0706062 0.0397232 -0.0659711 117 87 74
0.0675534 0.0406055 -0.0567271 110 80 68
0.0392648 0.0501792 -0.0668793 91 63 52
0.035523 0.0344335 -0.0351113 61 39 33
0.0514152 0.0364194 -0.0112219 69 43 35
0.0687396 0.0426877 -0.0554115 104 76 64
0.0323528 0.0368562 -0.0256776 71 46 38
0.0543072 0.0442126 -0.00628555 80 53 43
0.0398183 0.0662547 -0.00249796 81 54 43
0.0408081 0.0646549 -0.00680224 81 53 43
0.0712931 0.044797 -0.0606112 87 59 50
0.0678863 0.0648995 -0.0118167 75 48 39
0.0650164 0.0320464 -0.0578803 109 81 69
0.0640421 0.0700913 -0.0546213 64 44 35
0.0324433 0.0415115 -0.0361174 55 35 29
0.0624431 0.0341532 -0.0555763 127 95 81
0.0361502 0.0511003 -0.0113951 81 54 43
0.0432534 0.0244068 -0.0371344 62 40 34
0.0681876 0.0362579 -0.0709069 124 93 80
0.072973 0.0496492 -0.0431309 110 82 69
0.0424553 0.0609605 -0.00989934 84 55 44
0.050372 0.024205 -0.0506296 103 73 63
0.0420315 0.0631484 -0.00843255 82 55 44
0.0493702 0.0395318 -0.00135336 74 47 37
0.0642706 0.0709894 -0.0150124 73 47 38
0.0690923 0.0594251 -0.0369961 80 55 45
0.0590894 0.0443345 -0.00161844 84 56 46
0.0700381 0.0636457 -0.0087526 73 47 39
0.0369931 0.0815913 -0.0162854 77 51 41
0.0685538 0.0379862 -0.0719507 0 0 0
0.0637999 0.0289608 -0.0476783 101 72 61
0.0655854 0.0674497 -0.00777472 75 48 39
0.0333799 0.0487495 -0.0124087 81 53 43
0.0697694 0.0434511 -0.0563956 97 69 58
0.0726938 0.0632975 -0.0362229 63 41 34
0.0667576 0.038626 -0.0571439 117 86 73
0.0345735 0.0790087 -0.0161144 77 51 41
0.0683511 0.0425721 -0.0604418 97 71 60
0.061165 0.067033 -0.0164052 75 48 40
0.054543 0.0251026 -0.0507687 97 70 59
0.0667812 0.0353391 -0.0652374 128 93 80
0.0603245 0.0390736 -0.0313325 84 54 45
0.0326933 0.0511735 -0.0406695 69 44 37
0.0329897 0.049915 -0.0104544 82 53 43
0.069366 0.042248 -0.0396927 89 62 52
0.0586091 0.0456503 -0.0202022 67 40 32
0.0551367 0.0605258 -0.0080803 80 51 41
0.0683103 0.0373408 -0.0690771 118 86 75
0.0689428 0.0338323 -0.0476189 129 93 80
0.0491523 0.0799158 -0.00979101 73 47 39
0.0547065 0.0796503 -0.0255958 76 50 41
0.0491629 0.0798895 -0.020815 72 48 38
0.0588597 0.0317414 -0.0556019 57 36 30
0.0683312 0.0335943 -0.0683543 130 102 89
0.0686041 0.0374746 -0.0675685 128 95 83
0.0578676 0.0330056 -0.024994 80 54 45
0.0388694 0.0291131 -0.055191 0 0 0
0.0383408 0.0447361 -0.0595078 86 59 49
0.0554599 0.0855399 -0.0219338 95 71 62
0.0538356 0.0242055 -0.0523446 92 63 54
0.0673001 0.0499392 -0.0570401 95 68 56
0.0590729 0.0256327 -0.0557927 0 0 0
0.067141 0.0513699 -0.0562798 91 66 55
0.0670741 0.0398114 -0.0596577 103 74 61
0.0508359 0.0236006 -0.0482824 139 110 100
0.0681361 0.0406861 -0.0558228 110 80 67
0.0670745 0.0732653 -0.0211989 73 47 38
0.0721251 0.0498609 -0.055534 88 60 51
0.0519937 0.0972946 -0.00847543 83 58 47
0.0534234 0.0230774 -0.0528193 0 0 0
0.0500317 0.0801237 -0.0242752 73 48 38
0.0326342 0.0480683 -0.0278843 77 51 42
0.0532995 0.0241427 -0.0485012 94 69 60
0.0693728 0.0447585 -0.0545757 103 74 62
0.0686764 0.0409719 -0.0499968 115 87 74
0.0694563 0.0452836 -0.0572379 94 67 56
0.0685627 0.0408149 -0.0641004 86 60 50
0.0315094 0.0571049 -0.0385086 77 51 43
0.0528717 0.024391 -0.0556605 86 63 53
0.0661584 0.0477218 -0.0531876 61 38 32
0.068934 0.0453723 -0.0572941 93 65 54
0.0681382 0.0368508 -0.067358 133 99 87
0.0513455 0.0234861 -0.0543478 83 55 46
0.0325097 0.0507879 -0.0355984 65 41 33
0.0677354 0.042449 -0.0560153 109 80 68
0.0685101 0.0586621 -0.0641677 0 0 0
0.0693123 0.0435724 -0.0584468 94 68 57
0.0657279 0.0360226 -0.0301826 77 51 41
0.0559975 0.0401466 -0.0114288 78 51 43
0.0693466 0.0374817 -0.0250943 81 54 45
0.0381082 0.0361856 -0.0277541 74 49 41
0.034443 0.0530336 -0.00579291 83 55 45
0.0503623 0.042612 -0.00966868 79 52 42
0.058983 0.0296662 -0.0285619 71 47 39
0.0581028 0.0612164 -0.00830444 85 55 45
0.0409437 0.0354087 -0.00615636 73 48 39
0.0615197 0.0343266 -0.0287347 69 43 36
0.069754 0.0428763 -0.0639465 79 51 42
0.0698029 0.0458753 -0.0554464 93 65 54
0.0715063 0.0436979 -0.0315264 87 59 49
0.0388317 0.0716952 -0.0430386 0 0 0
0.0687988 0.0442588 -0.053658 113 83 71
0.075621 0.083338 -0.0173412 79 55 45
0.0566945 0.0435864 -0.0165569 70 44 35
0.0384137 0.0311468 -0.0327861 68 43 36
0.0683624 0.0690592 -0.0193897 69 44 36
0.0710313 0.0680469 -0.0151973 66 40 31
0.036374 0.0709682 -0.0151115 75 48 39
0.0390299 0.0532915 -0.0502636 57 35 29
0.0706791 0.0679244 -0.045809 80 57 48
0.055918 0.0620123 -0.00904764 88 58 47
0.0714969 0.0660644 -0.0406764 53 35 28
0.0682657 0.034715 -0.0654225 130 93 82
0.0744599 0.0518183 -0.0442424 99 72 61
0.0571312 0.0543202 -0.00690735 81 53 43
0.0371117 0.0354976 -0.0277111 74 48 39
0.0400909 0.0555319 -0.00538837 85 56 45
0.0506885 0.0371659 -0.0141393 74 47 39
0.0551001 0.0247314 -0.0592213 0 0 0
0.0531438 0.0251314 -0.0351554 68 46 39
0.0412307 0.0308638 -0.0356575 68 43 36
0.068096 0.0376595 -0.055264 120 87 75
0.0718786 0.0491507 -0.0268515 88 60 50
0.0476496 0.039639 0.000163502 74 47 38
0.0711379 0.0416471 -0.0644039 111 87 76
0.0693388 0.0429071 -0.0525955 109 81 68
0.0324491 0.0448941 -0.0312164 74 48 40
0.0360191 0.053262 -0.00945593 84 55 45
0.0455116 0.0253703 -0.0351817 67 43 37
0.0649519 0.0689436 -0.0558567 70 44 36
0.0673191 0.056017 -0.0661381 57 35 29
0.0631292 0.0278856 -0.0439016 106 76 64
0.0710947 0.0439487 -0.064378 0 0 0
0.037439 0.0304805 -0.0361049 54 34 28
0.0373766 0.031865 -0.0336065 61 39 32
0.0370613 0.0350586 -0.0456772 58 38 33
0.0599394 0.0329325 -0.0283361 75 49 41
0.0689039 0.0694725 -0.014243 70 44 36
0.0389848 0.0315698 -0.0291342 76 50 42
0.040531 0.0736621 -0.0151482 75 50 40
0.0562097 0.0305811 -0.0175047 81 55 45
0.039675 0.0259605 -0.0500645 0 0 0
0.069367 0.0444217 -0.0553759 99 70 58
0.0638003 0.0319567 -0.0578616 97 69 57
0.0316412 0.0517404 -0.0510449 93 67 54
0.0666527 0.0333576 -0.0654317 124 91 79
0.0654113 0.0308753 -0.0616131 110 81 71
0.0456531 0.027117 -0.0485451 55 34 28
