ply
format ascii 1.0
comment Created by Open3D
element vertex 1187
property double x
property double y
property double z
property uchar red
property uchar green
property uchar blue
end_header
0.0393076 0.0222683 -0.0258587 85 47 44
0.0378139 0.0216345 -0.0278138 72 36 33
0.0384646 0.0236246 -0.0452017 117 62 60
0.0394418 0.0227733 -0.0239914 86 47 44
0.0601966 0.0560592 -0.0143297 73 33 32
0.0577643 0.052671 -0.0132881 78 39 37
0.0386216 0.0242637 -0.0440207 118 73 70
0.0385618 0.0218703 -0.0321429 68 33 30
0.0549637 0.046572 -0.013662 69 32 30
0.0421566 0.0245376 -0.0148831 70 31 28
0.05387 0.0448768 -0.0119998 76 34 31
0.038782 0.0220214 -0.0320472 68 33 30
0.0492812 0.0360258 -0.0116038 80 40 37
0.0435149 0.0267094 -0.0171311 77 37 34
0.047084 0.0293371 -0.012782 83 44 41
0.0441562 0.0291173 -0.0133168 77 37 35
0.0616279 0.0565604 -0.0164856 68 30 27
0.0494344 0.0338794 -0.0122861 79 39 36
0.0473472 0.0295668 -0.0128683 84 45 42
0.0438993 0.0280987 -0.0146132 76 34 31
0.0382594 0.0233196 -0.0504115 117 66 63
0.0613201 0.0583037 -0.0199944 70 32 30
0.0400033 0.0232379 -0.0459879 103 58 55
0.061875 0.0573833 -0.0182115 74 37 35
0.0454484 0.0278612 -0.0146602 84 43 40
0.0487991 0.0321737 -0.012696 77 37 34
0.0578261 0.0478295 -0.0137473 76 38 36
0.0498871 0.0340878 -0.0120099 79 39 36
0.0466511 0.0272558 -0.0150648 85 43 40
0.0604304 0.0516252 -0.0143646 71 33 31
0.0401506 0.0199799 -0.0307561 67 32 30
0.0488888 0.0300648 -0.0126481 79 39 36
0.0456272 0.0250108 -0.0145267 76 36 33
0.0407935 0.0199843 -0.027722 73 36 33
0.0568161 0.0453562 -0.0159054 69 29 27
0.0407013 0.0230789 -0.0426353 68 34 31
0.0566021 0.0448655 -0.0190184 69 28 25
0.0458913 0.0246774 -0.0181905 73 36 34
0.0552987 0.0418704 -0.0160924 70 40 38
0.0404909 0.022184 -0.0427217 91 53 50
0.0547307 0.038116 -0.0130996 84 42 39
0.0556867 0.0398752 -0.0133461 83 40 37
0.0477034 0.0263038 -0.0157319 78 39 36
0.0556705 0.039505 -0.0134062 82 39 36
0.0530003 0.0330617 -0.0109105 82 41 39
0.0539034 0.0340646 -0.0130725 77 37 34
0.0404192 0.022151 -0.0515766 102 56 53
0.0620318 0.0513449 -0.0221859 71 36 34
0.0483909 0.0235233 -0.0197081 68 32 29
0.0444278 0.0199299 -0.0304856 74 37 35
0.045724 0.0210605 -0.0272565 77 41 38
0.0579743 0.0345772 -0.0154169 76 38 36
0.0560203 0.0304704 -0.0144388 91 54 52
0.0580797 0.0351334 -0.0178839 96 59 56
0.0614012 0.0462919 -0.0271599 70 31 28
0.0330075 0.0418866 -0.0841994 255 217 210
0.0313947 0.0461892 -0.0777101 214 118 113
0.0318549 0.0533905 -0.0647583 169 85 80
0.0306085 0.0607933 -0.0520562 94 48 45
0.0346439 0.0400774 -0.0856656 255 227 218
0.0306022 0.0443936 -0.0693387 175 82 75
0.0337021 0.0413491 -0.0770965 222 141 136
0.0335002 0.046404 -0.0656223 182 98 93
0.0336192 0.0446248 -0.0642106 155 93 89
0.0377372 0.0601936 -0.0245412 116 77 74
0.0307345 0.0319099 -0.0511654 97 44 41
0.0340157 0.0494711 -0.0134108 82 43 40
0.0314959 0.0297725 -0.053765 99 49 46
0.0306397 0.0317614 -0.0535456 104 52 49
0.03756 0.0390748 -0.0138652 104 65 61
0.0358152 0.0294822 -0.0438908 92 50 47
0.0367765 0.0387211 -0.0128536 85 49 47
0.0461634 0.0418149 -0.0159169 94 52 49
0.0332165 0.0247339 -0.0270116 71 34 32
0.0357748 0.0256737 -0.0653252 179 89 83
0.0379971 0.0209627 -0.054494 144 77 73
0.03831 0.0235469 -0.0603756 175 94 89
0.0442065 0.0192814 -0.0441418 100 52 49
0.0361549 0.023778 -0.0681062 181 97 92
0.0582599 0.034196 -0.0148156 76 41 39
0.0484979 0.0234462 -0.0211449 66 31 28
0.0421646 0.0237979 -0.0621103 150 88 84
0.0429842 0.0212314 -0.0593081 165 95 91
0.0434821 0.0220853 -0.0639196 179 100 95
0.0460196 0.0191181 -0.0514311 92 50 48
0.0337063 0.0593598 -0.0626294 151 85 82
0.0274206 0.0441559 -0.0752451 230 129 124
0.0311612 0.0457305 -0.0703086 183 91 85
0.0302699 0.0467928 -0.0752631 174 90 84
0.0283566 0.04931 -0.0679869 175 86 79
0.0282961 0.0537778 -0.0496557 118 60 55
0.0299479 0.0456501 -0.0549522 129 74 70
0.0327848 0.0370588 -0.0786989 220 114 109
0.0312087 0.0387492 -0.0684014 177 91 86
0.0393536 0.0620129 -0.0214383 79 38 35
0.0327853 0.0379928 -0.065358 186 90 83
0.0339607 0.0344178 -0.0750397 211 124 118
0.0343063 0.0315074 -0.0406922 67 29 26
0.0458057 0.0164092 -0.0298713 74 41 39
0.0398888 0.0230493 -0.0656172 175 92 87
0.061626 0.0455244 -0.0241787 75 32 30
0.0402892 0.0378107 -0.014456 78 37 33
0.0317257 0.0410805 -0.0776798 222 129 124
0.0330258 0.0348435 -0.0755 227 123 117
0.0294731 0.0419419 -0.0704928 190 107 102
0.0322583 0.0393506 -0.0777362 229 158 151
0.0333475 0.0378708 -0.078441 237 146 142
0.0331935 0.0396276 -0.0870808 255 177 170
0.0327175 0.0371 -0.0770613 199 99 94
0.0327233 0.0468823 -0.0642897 179 94 88
0.0314414 0.0421211 -0.0799071 247 163 157
0.0335505 0.0395583 -0.0785378 243 164 159
0.0383016 0.0372929 -0.0924579 0 0 0
0.0321549 0.0502334 -0.00364022 80 41 37
0.042956 0.0236095 -0.0621826 153 90 87
0.0327804 0.0388245 -0.0762643 242 173 167
0.0329198 0.0383774 -0.0763053 234 156 149
0.0285311 0.0529163 -0.0653302 171 77 71
0.0311022 0.0341043 -0.0810462 255 180 172
0.03331 0.0322397 -0.0391159 109 60 57
0.0349734 0.0414085 -0.0136041 82 40 38
0.048759 0.020044 -0.0641632 185 108 105
0.0343506 0.0414002 -0.0657695 116 66 62
0.031944 0.0566726 -0.066959 158 74 68
0.0317974 0.0376608 -0.0731402 186 95 90
0.027882 0.0441564 -0.0628814 174 88 83
0.0312322 0.0348686 -0.0704076 157 78 73
0.03818 0.0220076 -0.0393487 114 68 64
0.0588032 0.0311901 -0.0104416 82 47 45
0.0337578 0.0349935 -0.0778035 204 104 97
0.0369903 0.0253721 -0.0704566 181 97 92
0.0329919 0.0273502 -0.0531798 90 45 42
0.0372318 0.0277498 -0.0449986 104 63 60
0.031605 0.0336156 0.00636298 91 57 54
0.0576696 0.0301432 -0.00972953 95 61 59
0.0417897 0.018973 -0.0402459 98 52 49
0.0313107 0.0377858 -0.0679091 180 94 89
0.0277063 0.0492076 -0.0672583 176 86 80
0.0317236 0.0362744 -0.0699267 180 94 89
0.0352393 0.0584518 -0.0677577 134 69 67
0.0603542 0.0452418 -0.0242904 74 33 30
0.0340871 0.0494874 -0.0133851 82 43 40
0.0346511 0.0404938 -0.0128669 82 41 38
0.0347307 0.0500432 -0.0135736 82 43 39
0.0362362 0.0274868 -0.0631653 170 83 78
0.0331837 0.0479077 -0.0659228 174 81 74
0.0313828 0.0411682 -0.0128273 116 85 82
0.0300701 0.0410598 -0.0758066 224 132 127
0.0368015 0.0330648 -0.0887524 0 0 0
0.0310881 0.0343049 -0.0473451 103 50 47
0.0291165 0.0286405 -0.0466429 91 43 40
0.0433102 0.0226576 -0.060325 143 82 79
0.0418548 0.0200457 -0.0635297 160 83 80
0.0341334 0.0467443 -0.0124067 95 53 49
0.0335216 0.0482186 -0.0642338 171 100 95
0.0293753 0.0456957 -0.0754891 221 129 123
0.0364454 0.0248523 -0.0598136 164 82 78
0.0263191 0.060503 -0.0567107 161 76 71
0.0303954 0.0448086 -0.0685809 175 83 76
0.0338662 0.0342093 -0.0435743 110 61 58
0.0320328 0.0357304 -0.0157633 75 36 33
0.0354755 0.0299823 -0.0637121 169 91 87
0.0373648 0.0378079 -0.0127489 76 38 35
0.032523 0.0383665 -0.0139582 79 39 36
0.0335583 0.0412409 -0.0802213 230 135 130
0.0399464 0.0235184 -0.0624932 174 98 93
0.0314898 0.0466249 -0.0143855 91 52 49
0.030198 0.0444931 -0.0691405 176 84 78
0.0344799 0.0577055 -0.0721532 138 71 67
0.0304416 0.0346465 -0.0529727 85 34 31
0.0405387 0.0344803 -0.00968345 84 43 40
0.046364 0.0158999 -0.0487951 123 75 74
0.031067 0.0609853 -0.0522783 83 43 41
0.0417031 0.0198057 -0.0567318 172 96 92
0.0343407 0.052256 -0.0639758 90 40 37
0.0355687 0.043619 -0.0151039 87 46 43
0.0334616 0.0489665 -0.0137514 75 39 35
0.030313 0.0413587 -0.0543186 88 40 37
0.0303471 0.041728 -0.0544253 91 43 39
0.0392137 0.023115 -0.0440307 111 64 61
0.0318887 0.0400914 -0.0758718 237 167 161
0.0322956 0.0375437 -0.0758948 229 137 132
0.0583678 0.0288538 -0.00628036 76 39 37
0.0337027 0.0506965 -0.0446325 77 36 33
0.0296975 0.0374596 -0.0519535 90 42 38
0.0320508 0.0451256 -0.0133451 77 38 34
0.0303156 0.0439047 -0.0543492 89 42 39
0.0315771 0.0465205 -0.0770154 180 93 87
0.0328216 0.0571324 -0.0399554 85 40 37
0.0331121 0.0339274 -0.0751513 214 115 110
0.0327574 0.0410283 -0.0136551 85 48 45
0.0387836 0.0178432 -0.0347325 98 54 50
0.0424539 0.0211504 -0.0428054 87 48 46
0.0346167 0.0620225 -0.0236308 80 41 39
0.0320864 0.0470543 -0.0646896 175 86 80
0.0318039 0.0352075 -0.069953 172 87 82
0.0335476 0.0471545 -0.0640903 153 84 79
0.0338621 0.0364314 -0.0151711 94 59 56
0.0353835 0.0401318 -0.00536237 107 69 66
0.0339268 0.0511661 -0.0638848 141 77 73
0.031009 0.0333124 -0.0313238 105 58 55
0.0458584 0.0183663 -0.0526367 79 38 37
0.0512042 0.0181225 -0.0556509 153 90 87
0.033485 0.0359282 -0.0422469 103 58 54
0.0274391 0.0533742 0.0241526 105 74 71
0.0363289 0.0303757 -0.0660981 175 92 88
0.0306071 0.0368088 -0.0779054 238 133 130
0.0319379 0.0331615 -0.069327 154 76 71
0.0370491 0.0305299 -0.0862696 0 0 0
0.0377524 0.0541672 -0.0138014 81 43 40
0.0322636 0.0589062 0.00517405 79 42 40
0.0300643 0.0528567 0.010597 97 65 62
0.0370727 0.0299977 -0.0852381 0 0 0
0.034407 0.038185 -0.0136464 93 58 54
0.0336862 0.04086 -0.0128165 85 45 42
0.033946 0.0351471 -0.016255 80 43 40
0.029897 0.0497422 -0.0508288 104 51 48
0.0331938 0.0458088 -0.0134418 79 37 35
0.0304317 0.0473787 -0.0086512 83 41 38
0.0357327 0.0420503 -0.00831484 95 54 50
0.0579589 0.0428314 0.00323369 146 126 125
0.0361758 0.0592944 -0.0222021 94 59 55
0.0347495 0.033869 -0.0442069 64 27 25
0.0331891 0.0396539 -0.041798 99 56 54
0.0325003 0.039423 -0.0139077 78 40 37
0.0326628 0.0401793 -0.0124228 83 48 45
0.0330665 0.0580076 -0.021877 78 35 33
0.0290197 0.0434515 -0.0699976 164 83 79
0.0353369 0.0549247 -0.0151922 74 40 39
0.0326109 0.04728 -0.0140988 96 59 55
0.0464733 0.0437176 -0.0156496 99 55 51
0.0391921 0.0222457 -0.0389795 105 67 63
0.0339261 0.0517162 -0.0630714 95 42 38
0.0363868 0.0427095 -0.0121701 88 48 45
0.0263937 0.0412882 0.0204916 107 72 68
0.0301718 0.0677107 0.0104845 137 114 112
0.0375551 0.0280203 -0.083513 0 0 0
0.0344216 0.0436179 -0.0655262 93 48 45
0.0328048 0.0372564 -0.0774916 203 99 93
0.0328768 0.0338218 -0.0814904 255 233 227
0.0352948 0.041434 -0.0130228 86 44 40
0.0296257 0.0441946 0.0176448 77 36 33
0.0326617 0.0470102 -0.0140856 81 42 39
0.0587156 0.042777 0.000293095 77 42 39
0.0304396 0.042787 -0.0694231 178 93 89
0.0327975 0.034908 -0.0821175 255 187 179
0.0338326 0.04461 -0.0443652 73 32 30
0.0375279 0.0272538 -0.0441084 67 34 31
0.0294585 0.0398808 0.00812467 89 50 47
0.037031 0.0595033 -0.019901 83 40 37
0.0307077 0.0537673 -0.0446092 102 53 49
0.0370874 0.0615301 -0.022826 84 44 41
0.0308672 0.0327305 -0.0722215 219 115 109
0.0383684 0.037811 -0.0919533 0 0 0
0.0339561 0.0580428 -0.0214445 86 45 43
0.0323778 0.045246 -0.0139901 76 36 33
0.0311691 0.0457748 -0.0144314 80 39 37
0.0361166 0.027725 -0.0665876 190 99 93
0.0382146 0.0277357 -0.0837885 0 0 0
0.0464299 0.0421811 -0.00824148 105 61 58
0.0334372 0.0601007 -0.0201451 74 33 30
0.0318851 0.0329356 0.00577123 79 43 40
0.0321483 0.0403253 0.0162561 94 54 51
0.0479414 0.0180229 -0.0530095 80 37 36
0.0384627 0.0362392 -0.0925308 0 0 0
0.0279351 0.0481935 0.00405753 83 46 43
0.0385473 0.0367301 -0.0927114 0 0 0
0.0333253 0.0357747 -0.015909 117 87 84
0.0387949 0.0359275 -0.0922845 0 0 0
0.0323169 0.0399472 -0.0779056 214 117 114
0.0342629 0.0395003 -0.0862224 255 202 195
0.0351773 0.0375565 0.00537137 91 53 50
0.0327462 0.0507127 -0.0415889 83 40 36
0.0334675 0.0478486 -0.0133787 78 38 35
0.032827 0.041733 -0.0133971 86 50 46
0.0406439 0.0547967 -0.0146692 92 53 52
0.0253736 0.0398442 0.0290622 103 69 66
0.0470482 0.0134788 -0.0440469 112 67 65
0.0365839 0.0564359 -0.0155281 78 41 38
0.0634878 0.039922 -0.0221817 72 32 30
0.0363875 0.0625361 -0.0232269 85 47 45
0.0329816 0.0380196 -0.014279 79 43 40
0.0300238 0.0401338 -0.0511444 106 54 51
0.032817 0.0395567 -0.0138098 80 42 39
0.0317573 0.0354476 -0.00854511 114 85 81
0.0333366 0.0480977 -0.0433257 73 31 27
0.0467364 0.0229651 -0.0806225 0 0 0
0.0357317 0.0585118 -0.0677769 132 67 65
0.0334345 0.0594472 0.00162955 82 48 46
0.0352941 0.0605151 -0.0225484 80 53 51
0.0332496 0.0477584 -0.0135477 78 40 37
0.0376429 0.0624665 -0.022356 84 42 40
0.0343697 0.0430769 -0.0656979 117 67 65
0.0324702 0.0504952 -0.0140568 89 53 50
0.0577655 0.0317696 -0.0114768 70 34 32
0.0361064 0.0418548 -0.0136112 93 49 46
0.0293544 0.0404082 0.00909084 96 59 56
0.0335836 0.0631695 -0.011903 76 52 49
0.03261 0.0489633 -0.0131794 96 60 56
0.0622481 0.0396064 -0.0196409 75 34 31
0.0332443 0.0382707 -0.0786414 230 153 146
0.0352775 0.0397511 -0.0153249 83 42 39
0.0325506 0.0348754 -0.0759611 184 81 75
0.0311462 0.0458412 -0.0144114 79 38 35
0.0312342 0.045791 -0.0143571 80 39 36
0.0620132 0.0286537 0.0126934 85 51 48
0.0343026 0.0387278 0.00690308 93 57 54
0.049894 0.0461911 -0.0170687 68 28 24
0.0327573 0.0394942 -0.0779057 221 141 136
0.0333398 0.0395482 -0.0139951 98 58 56
0.0345675 0.0455075 -0.0475335 78 38 35
0.0620993 0.039117 -0.0256842 97 58 54
0.0324616 0.0372818 -0.0147631 79 42 40
0.0321229 0.0460028 -0.0139095 79 38 34
0.0307614 0.0394988 0.00940867 87 49 46
0.029591 0.0389459 -0.0536782 109 60 56
0.0573226 0.0307293 -0.0158679 73 35 32
0.0597067 0.0364779 0.0121421 98 57 54
0.0356268 0.0289928 -0.0436457 109 65 62
0.0349079 0.0571903 -0.0713144 137 71 68
0.0303638 0.0413003 -0.0726787 222 135 130
0.0382475 0.0283579 -0.0651541 124 66 63
0.0326524 0.0395303 -0.0138597 79 40 37
0.0341016 0.035048 -0.015633 81 45 42
0.0321333 0.0450835 -0.0140801 77 38 35
0.0583549 0.0331342 -0.012432 76 40 39
0.0312801 0.0418218 -0.0755977 190 99 95
0.0351704 0.0428668 -0.0118494 88 46 42
0.0298553 0.0384718 -0.0536384 96 49 46
0.0386584 0.0356408 -0.0923881 0 0 0
0.0341553 0.0562506 -0.00873088 73 36 34
0.0597053 0.0253624 0.00947076 98 65 63
0.0408044 0.0564122 -0.00690854 98 66 64
0.0339936 0.050233 -0.0138197 83 47 43
0.0348217 0.0584248 -0.021305 80 40 36
0.0333255 0.037896 -0.0754848 184 92 87
0.0374627 0.0383888 -0.0136346 77 38 35
0.0322701 0.0446943 -0.0137819 77 37 34
0.0328483 0.0404756 -0.0134121 84 46 42
0.0311929 0.0456723 -0.0143433 81 39 37
0.0349469 0.0524329 -0.0140528 84 48 46
0.0347277 0.0355703 -0.0142144 79 46 42
0.0349262 0.0555549 -0.0131544 74 39 37
0.0568818 0.0307152 -0.0160392 75 39 37
0.0336151 0.0350962 -0.0838001 255 166 159
0.0363731 0.0591631 -0.0226352 85 51 47
0.0307858 0.0463876 -0.0148262 82 44 41
0.0343422 0.0397213 -0.0133222 85 49 45
0.0343891 0.0403253 -0.012778 82 41 38
0.0362134 0.0595094 -0.0235733 123 93 89
0.0341706 0.0584261 -0.021649 90 52 49
0.0281825 0.0389653 0.00797637 90 53 50
0.0331261 0.0396387 -0.0821038 255 183 176
0.0325452 0.0424898 -0.0753765 195 111 107
0.0323415 0.0407462 -0.0772019 212 118 113
0.0382327 0.0615444 -0.0210604 93 50 46
0.0375675 0.0595262 -0.0211286 85 42 40
0.0339912 0.0578309 -0.0218087 87 43 40
0.0311629 0.0393253 -0.0762646 229 169 164
0.0348189 0.0343762 -0.0651546 149 83 78
0.0352253 0.0311639 -0.0435941 73 32 30
0.0338886 0.0340545 -0.0753819 216 120 113
0.059149 0.036864 -0.0155411 73 35 31
0.0305189 0.0512163 -0.0712133 179 85 78
0.0331482 0.0424663 -0.0796027 227 134 128
0.0455727 0.0421497 -0.0150697 95 51 49
0.0364167 0.0593581 -0.021294 83 46 44
0.0342091 0.0511993 -0.0136115 93 59 57
0.0400519 0.0551023 -0.0150186 88 49 47
0.0288147 0.0336431 0.0103871 109 79 76
0.0351008 0.0594677 -0.0659697 137 70 68
0.0379956 0.0601469 -0.0217911 79 42 39
0.0363495 0.0412841 -0.0123765 102 63 59
0.0395002 0.0214694 -0.0653864 155 72 67
0.0342614 0.0451734 -0.0652803 96 47 44
0.0348599 0.0303726 -0.0673935 177 87 81
0.0324344 0.0462103 -0.013307 76 35 32
0.0354733 0.0608114 -0.0231541 134 118 116
0.0302611 0.0426111 -0.0501797 99 51 48
0.0352542 0.0594764 0.00294109 108 80 77
0.0312127 0.0647807 -0.000802829 77 37 36
0.034346 0.0283586 -0.0682561 177 96 92
0.0599738 0.043924 -0.0238759 88 44 42
0.0332262 0.0415625 -0.0411259 91 48 45
0.0343566 0.0397353 -0.0121801 80 42 39
0.0340629 0.0615774 -0.0170395 76 47 46
0.0331532 0.0410319 -0.0132656 88 51 48
0.0364419 0.0596666 -0.0229241 77 43 38
0.0319695 0.0628153 -0.0131239 75 33 30
0.0334948 0.0380074 -0.0752347 170 88 83
0.0332734 0.0397986 -0.0416809 101 59 56
0.0552018 0.0430858 -0.0171981 99 66 65
0.0345284 0.0659081 -0.00296758 84 46 43
0.0562496 0.043186 -0.0169791 103 64 61
0.0256694 0.0525044 0.0330021 103 71 68
0.0442211 0.0369838 -0.0170897 98 61 57
0.0311178 0.0325579 -0.079069 255 181 174
0.0394908 0.0292391 -0.0244657 76 36 33
0.0340412 0.0384697 -0.0131698 102 61 58
0.0334397 0.0359255 -0.017655 97 63 59
0.0320706 0.0380309 -0.0144659 77 38 35
0.0344478 0.0388905 -0.0452763 72 31 28
0.0315342 0.0606428 -0.0153625 75 32 29
0.0334257 0.063983 -0.00382886 122 95 92
0.0328376 0.0403338 -0.0778704 220 134 131
0.0299966 0.0323987 -0.0537567 150 80 75
0.0429744 0.0186559 -0.0385284 102 60 58
0.0576719 0.0352102 -0.0213531 80 50 49
0.0339527 0.0459198 -0.0456367 72 31 28
0.036395 0.0410925 -0.0121188 102 63 60
0.0311302 0.0456345 -0.0720754 165 79 73
0.0345321 0.0356217 -0.0150798 80 43 39
0.0355186 0.05901 -0.0225887 106 65 60
0.0556372 0.0422319 -0.0121405 71 40 38
0.0678466 0.0399072 0.00194117 82 48 46
0.0338947 0.0337613 -0.0777483 182 88 81
0.031707 0.0684702 0.00545228 126 96 91
0.0375074 0.0598738 -0.0216479 78 41 39
0.0362304 0.0415167 -0.0124144 101 58 55
0.0432871 0.0183212 -0.03622 86 50 47
0.0298143 0.0428775 -0.0669317 169 86 80
0.0328457 0.0531052 -0.0698655 165 77 71
0.0378122 0.0558541 -0.0153673 85 50 47
0.0328668 0.0406534 -0.01349 84 46 43
0.0337221 0.0378279 -0.0135243 96 57 54
0.0373611 0.026519 -0.0424552 80 47 44
0.0608316 0.0553535 -0.013597 82 44 42
0.0443713 0.0190648 -0.0368118 72 38 36
0.0613204 0.0448017 -0.0232572 76 34 31
0.033186 0.0535824 -0.0416582 72 31 29
0.0406442 0.0209576 -0.0554354 140 82 79
0.0625608 0.0442705 -0.023908 91 46 42
0.032687 0.0491152 -0.0651642 173 79 73
0.0308256 0.0480991 -0.0153096 84 45 43
0.038752 0.0552205 -0.0136326 79 41 38
0.0342501 0.0320292 -0.0436558 119 69 65
0.0370914 0.0387851 -0.0131632 93 56 53
0.0360408 0.0298396 -0.0460247 115 67 63
0.0344464 0.061409 -0.0205851 90 49 54
0.0369446 0.0605886 -0.022593 103 68 67
0.0371323 0.0550035 -0.0145473 84 57 52
0.0461752 0.043383 -0.010643 94 49 46
0.0420775 0.0353673 -0.0149096 95 58 55
0.0474251 0.0191021 -0.0550419 105 59 57
0.0358624 0.0286241 -0.0421048 74 30 27
0.0316313 0.0418843 -0.0759009 190 103 100
0.0351326 0.0307372 -0.0647048 180 96 91
0.0340131 0.0394244 -0.0114634 87 52 48
0.0338758 0.0359219 -0.0155967 85 53 50
0.036656 0.0395591 -0.0129579 101 64 63
0.0596195 0.0364604 -0.0164745 79 44 41
0.0340447 0.0589048 -0.0223164 79 40 38
0.0370597 0.060485 -0.0208122 99 57 53
0.0340031 0.0400733 -0.0789564 239 152 147
0.0384821 0.0617578 -0.0216724 84 42 39
0.0342962 0.043273 -0.0655441 118 68 65
0.0313016 0.0552635 -0.0411412 91 43 40
0.0348115 0.0367951 -0.0805629 244 159 154
0.0334501 0.0408975 -0.0419792 78 39 36
0.03314 0.0405758 -0.0124612 93 55 52
0.0330564 0.0568489 -0.0402571 81 38 36
0.0378118 0.0603371 -0.0256972 106 69 66
0.0378259 0.0560686 -0.0148848 79 42 39
0.0315219 0.037494 -0.0731289 193 99 94
0.0363986 0.0599258 -0.0223154 86 51 44
0.0354664 0.0585655 -0.00490024 80 44 41
0.0348343 0.054964 -0.0150809 74 36 33
0.0360448 0.0609534 -0.0228273 87 60 54
0.0334354 0.0355633 -0.0156126 108 80 77
0.0372404 0.0597286 -0.0222061 99 65 62
0.0604751 0.0383246 -0.0169113 70 31 29
0.0341284 0.0691053 0.00922734 101 62 57
0.0312708 0.0346697 -0.0814584 255 163 158
0.0616754 0.0439931 -0.0211549 81 38 35
0.0329197 0.0409073 -0.0774293 223 133 130
0.0374191 0.0280836 -0.0454634 74 40 37
0.0352738 0.0414709 -0.0679015 106 56 53
0.0392919 0.0210275 -0.0549243 138 77 73
0.0349088 0.0526541 -0.0141926 85 49 46
0.0324848 0.0464916 -0.0138418 79 39 36
0.0565555 0.0309765 -0.0162868 80 39 37
0.0396909 0.0632935 -0.0231229 73 34 31
0.0307812 0.0336953 -0.0723827 221 123 117
0.0297097 0.0257509 -0.0241039 130 73 69
0.0615143 0.0432716 0.0197675 91 55 52
0.0564498 0.0439597 -0.0142483 77 36 34
0.0325088 0.070005 0.0108828 100 66 63
0.0353584 0.0330556 -0.0649465 101 49 46
0.0621526 0.0447076 -0.0171077 80 40 37
0.041374 0.00964059 -0.0531695 156 85 81
0.0347641 0.0357816 -0.065841 157 89 85
0.0351758 0.0321149 -0.0638475 105 52 48
0.0353863 0.062692 -0.0173485 108 82 76
0.0611488 0.0448336 -0.0233879 75 34 30
0.033111 0.0678715 0.010125 110 77 74
0.0429454 0.0574904 -0.0149886 70 32 29
0.0346233 0.0398608 -0.0126959 84 44 41
0.0591641 0.0360632 -0.0151973 126 92 89
0.0364058 0.0604042 -0.0219987 123 95 91
0.0350186 0.028986 -0.0418446 109 61 57
0.0571002 0.0435341 -0.00523306 82 48 45
0.0609241 0.0447772 -0.0219824 84 41 39
0.0649247 0.0452259 -0.00672819 115 75 71
0.0266945 0.0377306 -0.07151 219 171 165
0.0342027 0.0447207 -0.0656321 158 97 92
0.0323358 0.0395361 -0.0754807 236 162 155
0.0317421 0.0380029 -0.0146025 76 36 33
0.0337913 0.0382635 -0.0771109 219 132 126
0.0328577 0.0380591 -0.0755277 213 126 120
0.0345063 0.0269087 -0.0361621 99 57 54
0.0386768 0.0640728 -0.0244691 75 34 31
0.0351283 0.0667775 -0.0271895 70 31 29
0.0622468 0.0393908 -0.0198283 77 35 32
0.0639683 0.0446713 -0.00661427 125 86 83
0.0320244 0.0676344 0.0123026 102 65 61
0.0379128 0.0547205 -0.0148174 80 42 38
0.0661672 0.0400405 -0.00721164 91 51 49
0.0318146 0.0567952 -0.0572779 126 69 66
0.0416446 0.0371164 -0.0054978 78 36 33
0.0371198 0.060824 -0.0198991 148 115 110
0.0348385 0.031203 -0.0442046 114 66 63
0.0368471 0.0293649 -0.0466654 63 25 22
0.0324829 0.0415796 -0.0753909 219 135 130
0.0419135 0.0579937 0.00101596 83 48 44
0.0325766 0.0635042 -0.0579035 135 78 75
0.0357398 0.064569 -0.0319215 70 31 28
0.0546358 0.0432639 -0.00670403 82 37 34
0.023024 0.0393342 0.00431157 72 33 30
0.0382889 0.0669864 -0.0315927 64 29 26
0.0342032 0.034026 -0.0433622 91 37 33
0.038516 0.0547561 -0.0141399 80 41 38
0.0369037 0.0636855 -0.01531 86 47 45
0.0333034 0.0425839 -0.064265 182 114 110
0.0393337 0.0370671 -0.0139447 78 38 35
0.0372865 0.020916 -0.0513589 95 52 50
0.0383134 0.0667147 -0.0348098 100 61 58
0.0607388 0.0586214 -0.0150497 79 40 38
0.0345327 0.0356064 -0.0150922 79 42 39
0.0391614 0.0550985 0.00897341 108 72 68
0.0618523 0.0399735 -0.0244295 83 46 47
0.0360553 0.032332 -0.0476148 65 27 25
0.0313245 0.0392021 -0.0763839 230 173 166
0.034019 0.0589397 -0.0221535 79 40 38
0.0353091 0.0596413 -0.0230821 92 65 62
0.035356 0.0673424 -0.00121351 93 55 52
0.0374763 0.0599576 -0.0257069 101 64 61
0.0389086 0.0243824 -0.0435027 115 74 71
0.0338659 0.0684507 0.0100168 107 74 71
0.0404832 0.0587142 0.00503638 115 89 85
0.0322093 0.052183 -0.0714929 163 73 66
0.0391892 0.0221879 -0.0660319 164 84 79
0.0339792 0.0628573 -0.0599279 119 68 65
0.0334899 0.0656854 -0.0514025 91 44 41
0.049475 0.0675637 -0.0112502 83 44 42
0.0359696 0.0301639 -0.0206254 84 42 39
0.0564588 0.0434452 -0.0104498 70 36 34
0.0328337 0.0408795 -0.0786276 205 114 109
0.0351688 0.0592847 -0.0229599 75 51 51
0.0379962 0.0598449 0.0119718 97 58 55
0.0308264 0.047052 -0.0148635 80 42 39
0.0636908 0.0449538 -0.0118386 118 82 78
0.0353677 0.0617443 -0.0225825 110 64 49
0.0397492 0.0258977 -0.0455387 68 32 29
0.0316909 0.0496035 -0.0142311 80 46 43
0.0327203 0.0540771 -0.0697911 169 78 72
0.0221607 0.0486349 0.0315139 82 44 41
0.0646801 0.0390284 -0.0176405 130 106 104
0.0331942 0.0630794 -0.0570825 82 37 34
0.0323532 0.040336 -0.0138556 94 60 57
0.032096 0.0380171 -0.0143187 77 38 35
0.0346634 0.0309849 -0.0439279 121 70 67
0.0357441 0.0567767 0.000480435 91 57 54
0.0297887 0.0421969 -0.0785601 247 176 169
0.0332352 0.0409157 -0.0124184 91 50 46
0.0614462 0.0452404 -0.0237345 80 37 34
0.0534391 0.0429519 -0.0174373 94 51 48
0.0550572 0.0431451 -0.00602753 78 38 35
0.0340964 0.0678121 0.00979365 107 69 66
0.0332885 0.0561227 -0.0686266 153 72 68
0.0352183 0.0672974 -0.0268909 62 24 21
0.0376601 0.0660048 -0.0257589 89 45 42
0.0300292 0.0599596 -0.0662683 151 78 76
0.0323918 0.0533151 -0.0716539 163 72 66
0.0308058 0.0479466 -0.0741822 176 87 82
0.038745 0.0244981 -0.0419575 111 73 69
0.0398514 0.0225899 -0.0394332 83 48 44
0.0291596 0.0391639 0.00947157 88 50 47
0.0312717 0.0458456 -0.0143389 79 38 35
0.0384188 0.0595049 0.00262165 93 53 50
0.037205 0.0609033 -0.0196849 150 116 111
0.0631504 0.0531015 -0.0211696 76 36 34
0.0606182 0.0442078 -0.0220592 83 44 41
0.0326304 0.0407412 -0.0784905 205 110 106
0.032466 0.0381056 -0.0142586 78 40 37
0.0534271 0.0429974 -0.0178554 94 51 47
0.0597843 0.0602813 -0.0140461 73 34 32
0.0252053 0.045461 -0.0617746 178 88 82
0.023758 0.0464091 -0.0702111 221 121 115
0.0315573 0.0360303 -0.0446208 123 60 56
0.0340986 0.0668292 -0.0292446 99 51 48
0.0288124 0.059856 -0.0657366 0 0 0
0.0331768 0.0424169 -0.0800712 235 138 132
0.0279222 0.0594365 -0.0646275 157 74 69
0.0324652 0.0416008 -0.0753143 217 134 129
0.0336484 0.0308752 -0.0459055 133 69 66
0.0319249 0.0619483 -0.0402277 80 39 36
0.0484822 0.0485887 -0.0126266 68 32 29
0.0326958 0.0548951 -0.0166682 79 38 36
0.0324431 0.0582075 -0.0550104 78 36 33
0.0397504 0.0200145 -0.0494562 90 48 45
0.0316974 0.0553223 -0.0514075 76 32 29
0.0241645 0.0515231 0.0252125 82 44 41
0.0506965 0.047266 -0.0150125 67 29 26
0.0338807 0.050464 -0.0670442 170 78 71
0.0411264 0.0245056 -0.0316534 83 44 42
0.0310438 0.0528234 -0.0722349 182 85 78
0.0401672 0.0563189 0.00570708 85 51 48
0.0334419 0.0598873 -0.0513336 75 34 31
0.0331072 0.0195939 -0.0421276 95 47 43
0.0258948 0.0499958 -0.0483501 175 91 85
0.0477814 0.0185762 -0.0483647 93 53 50
0.0411658 0.0634526 -0.0226445 67 30 28
0.0262917 0.0600701 -0.0556848 159 76 71
0.0622167 0.027664 -0.00772147 75 36 33
0.0702066 0.0369218 -0.000755211 75 35 33
0.0440547 0.0326249 -0.0165468 76 34 30
0.0714616 0.0378359 0.000641959 77 39 37
0.0255941 0.0543442 -0.0501693 170 78 72
0.0313783 0.0506756 -0.0467823 103 54 50
0.0719373 0.0448421 0.00146343 77 36 34
0.0497559 0.021995 -0.0202243 83 45 42
0.0303744 0.047152 -0.0448061 107 53 50
0.0537836 0.0269059 -0.00911158 76 39 37
0.0367274 0.0288059 -0.071402 178 97 93
0.0524616 0.0243418 -0.0172808 74 37 35
0.0336382 0.0358084 -0.0775297 196 91 85
0.0238336 0.034797 -0.0597009 165 83 78
0.0543306 0.0381389 -0.0131522 84 41 39
0.0206377 0.038884 -0.0569554 198 108 102
0.0269907 0.058537 -0.064603 165 75 69
0.0442289 0.0142462 -0.0255153 69 35 33
0.0460816 0.0151044 -0.0228688 73 38 36
0.0317869 0.0518487 -0.0717992 174 80 73
0.0395983 0.0240442 -0.0432227 103 66 62
0.0326969 0.0260579 -0.0230257 69 33 30
0.0464172 0.0229957 -0.0208034 66 30 27
0.0420973 0.0575067 -0.0159893 75 35 32
0.0281425 0.0447155 -0.0602525 176 91 86
0.0354588 0.0646021 -0.0194976 80 40 38
0.0320022 0.0386497 -0.0769359 236 177 170
0.028369 0.0555617 -0.0658162 165 75 69
0.0258904 0.056453 -0.0645426 183 89 84
0.0394757 0.0245416 -0.0836485 0 0 0
0.029476 0.0363492 -0.015192 68 30 27
0.0243305 0.0467179 -0.0696548 216 120 115
0.0444109 0.0152961 -0.0318679 104 62 59
0.033724 0.0416658 -0.0796863 218 130 125
0.0377611 0.067413 -0.037911 98 55 52
0.0334181 0.0639931 -0.0566024 81 38 35
0.0420036 0.0668458 -0.0167816 71 35 33
0.0335653 0.0421225 -0.0806645 238 139 133
0.0312624 0.0327937 -0.089147 0 0 0
0.0332393 0.0305868 -0.0452813 133 70 66
0.0298777 0.0445533 -0.0506811 99 50 47
0.0333901 0.0244209 -0.0469617 119 66 62
0.0445647 0.0188753 -0.04339 103 53 51
0.0505546 0.0224173 -0.0193976 71 35 32
0.0257016 0.0304215 -0.0525043 180 91 85
0.0484298 0.0475826 -0.0127216 68 29 26
0.0374845 0.0304629 -0.0678916 171 90 85
0.0521902 0.0189147 -0.0294748 70 37 34
0.0336048 0.0557329 -0.0172606 74 33 31
0.0299022 0.0556017 -0.0449892 81 37 34
0.0304167 0.0559311 -0.051763 81 36 33
0.0247724 0.0520921 0.0255213 89 53 50
0.0310773 0.0482799 -0.0735994 183 85 79
0.0305381 0.050692 -0.0707228 176 82 75
0.0334173 0.0604098 -0.0518564 77 34 31
0.0434911 0.0200963 -0.0300654 74 36 34
0.0249143 0.0535825 -0.0517863 165 75 69
0.0443403 0.0512273 -0.0186843 80 41 39
0.0540976 0.0235617 0.034285 79 39 36
0.0628288 0.0258124 -0.0065268 75 36 34
0.0616057 0.0277692 -0.00705303 78 37 35
0.0693821 0.0363038 -0.00166827 73 34 32
0.045236 0.0252691 -0.0122513 78 37 34
0.0268664 0.0551921 -0.0555846 167 76 70
0.0434588 0.0122444 -0.0260586 103 58 55
0.0455536 0.0185639 -0.0327343 74 40 37
0.0266236 0.0532901 -0.0555308 163 74 68
0.0483881 0.0243035 -0.0209297 64 30 27
0.0306599 0.0460381 -0.0453626 109 53 49
0.0719782 0.0318427 0.0125918 73 33 30
0.0294883 0.0691478 0.00679652 80 42 42
0.0493639 0.0293267 -0.0134527 77 35 32
0.0317622 0.0307464 -0.0153138 80 40 37
0.034096 0.035643 -0.0770547 224 116 110
0.0253643 0.0360766 -0.0594009 177 92 86
0.0193859 0.0386707 -0.0585387 235 141 136
0.0365555 0.0294197 -0.0204411 78 39 37
0.0336392 0.0361099 -0.0786406 240 161 156
0.0309516 0.0458371 -0.0656852 181 99 96
0.0444589 0.0143519 -0.026804 78 44 42
0.0441613 0.0143719 -0.0201848 73 38 36
0.0334852 0.0357004 -0.0785719 241 156 150
0.0329373 0.0574283 -0.0504245 80 37 34
0.0513491 0.0126062 0.00649278 83 46 44
0.0383744 0.0138158 -0.0429466 151 88 84
0.0336498 0.0635549 -0.0597405 137 78 75
0.0282534 0.0468302 -0.0585291 176 88 82
0.029245 0.0441104 -0.0699043 159 79 75
0.0418615 0.056674 -0.015735 77 42 39
0.0326464 0.0651725 -0.020375 73 31 28
0.0277131 0.0568161 -0.064479 163 74 68
0.0339396 0.0415473 -0.079737 214 128 122
0.0593349 0.0494575 -0.0630209 0 0 0
0.0432183 0.0125031 -0.0304901 97 49 47
0.063818 0.0527303 -0.028959 61 25 23
0.0453212 0.0158942 -0.0327364 104 66 64
0.0342161 0.0409141 -0.080071 217 123 117
0.0464112 0.0479246 -0.0241998 73 35 32
0.0340286 0.0550312 -0.0728851 153 72 68
0.0353015 0.057736 -0.0728134 136 72 68
0.035231 0.0574715 -0.0727746 137 71 67
0.0337996 0.0544465 -0.0732951 159 79 73
0.0312059 0.0468946 -0.0761511 175 91 86
0.0339743 0.0545686 -0.0729757 153 74 68
0.0327729 0.0545246 -0.072418 167 81 76
0.0307537 0.0487306 -0.0744081 188 89 82
0.0334689 0.0567823 -0.0713534 157 82 79
0.0323198 0.0522021 -0.0732252 183 84 79
0.0320307 0.0482497 -0.0760776 190 91 84
0.0314856 0.0485746 -0.0757151 183 87 82
0.0310635 0.048046 -0.0756213 166 77 70
0.0304017 0.0482399 -0.0756978 170 85 80
0.0331803 0.0456116 -0.0801849 227 122 117
0.0334857 0.0556437 -0.0721336 155 76 73
0.033248 0.0547284 -0.0724521 159 76 70
0.0331163 0.0453202 -0.0795288 221 127 120
0.0337986 0.0570849 -0.0708451 148 79 77
0.0308412 0.0498221 -0.0739647 193 100 94
0.0308188 0.0489926 -0.0739256 190 90 85
0.032025 0.0521977 -0.0729196 189 92 86
0.0331387 0.0567223 -0.0709375 155 79 75
0.0320811 0.0534104 -0.0727914 172 77 71
0.030947 0.0486109 -0.0744339 186 89 83
0.0317453 0.0522889 -0.0728799 183 90 83
0.0311659 0.0479974 -0.075038 174 81 76
0.0309064 0.0478908 -0.0765626 172 87 82
0.0321671 0.0520453 -0.0727482 176 84 79
0.0327395 0.0455746 -0.0779258 181 98 94
0.0313043 0.0495642 -0.0739071 193 97 91
0.0310011 0.0494005 -0.0736144 195 99 93
0.0326975 0.0449412 -0.0786573 197 107 102
0.0354014 0.0579831 -0.0705529 142 74 71
0.0346587 0.057562 -0.070426 135 72 69
0.0345848 0.0569165 -0.0708224 142 73 70
0.0314433 0.0522878 -0.0710932 172 80 73
0.0340033 0.0431837 -0.0806095 214 119 115
0.0318847 0.0519003 -0.070694 156 68 62
0.0318755 0.0520878 -0.071611 173 81 74
0.0347852 0.0568978 -0.069245 145 71 67
0.0317954 0.0514274 -0.0714289 175 78 71
0.0349729 0.0579051 -0.0695406 139 72 70
0.0320541 0.0454446 -0.0766648 163 82 77
0.0315434 0.0525852 -0.07133 181 89 82
0.0307123 0.0470473 -0.0730935 167 77 71
0.0344525 0.0426358 -0.0813496 223 144 137
0.0348914 0.0577049 -0.0691417 141 73 70
0.0310969 0.047819 -0.0724062 172 79 72
0.0313144 0.0476188 -0.0729218 174 80 73
0.0313699 0.0503761 -0.0703322 172 75 66
0.0309558 0.0487086 -0.0712303 176 86 80
0.0336505 0.0553696 -0.0693775 159 77 72
0.0309315 0.048134 -0.0712653 179 92 87
0.0308621 0.0471171 -0.0720983 168 81 74
0.0317999 0.0440368 -0.0766495 171 86 81
0.0310744 0.0468462 -0.0713536 178 91 85
0.0307889 0.0461047 -0.0729818 163 78 73
0.0347519 0.054774 -0.0677249 171 82 77
0.0304956 0.046022 -0.0727926 164 82 77
0.0309939 0.0437243 -0.074024 165 84 80
0.0332354 0.0426408 -0.0782301 181 91 86
0.0349968 0.0569276 -0.0675632 159 87 83
0.0363107 0.0590284 -0.0668997 132 76 75
0.0305345 0.0460917 -0.0729103 163 81 76
0.0306132 0.0458228 -0.0718126 165 77 71
0.0307421 0.0480705 -0.0699688 183 95 90
0.0310324 0.0438014 -0.0739632 167 85 81
0.0306707 0.0438331 -0.0732349 165 85 81
0.0346175 0.0643152 -0.0586291 0 0 0
0.0338963 0.0641436 -0.0587123 72 31 30
0.034678 0.0555336 -0.0672991 163 80 76
0.0352991 0.0569238 -0.0666541 155 87 84
0.0341123 0.0644412 -0.0567351 82 37 34
0.0333927 0.0646062 -0.0572222 69 29 27
0.03028 0.0442371 -0.0715176 164 81 76
0.0339881 0.0640289 -0.0564545 89 43 41
0.0357351 0.0572963 -0.0653738 88 45 42
0.0333785 0.041194 -0.0783984 205 109 105
0.0311898 0.0431537 -0.0733968 165 83 78
0.0324457 0.0620346 -0.0571764 120 70 67
0.0318579 0.0494713 -0.0677449 173 76 68
0.0305883 0.0432967 -0.0730448 172 88 83
0.0324362 0.0412933 -0.07664 217 130 127
0.0341588 0.0644221 -0.0552173 95 48 46
0.0340375 0.0656989 -0.056228 0 0 0
0.0345521 0.0643517 -0.0550889 98 51 48
0.0343785 0.064784 -0.055525 94 47 44
0.0305772 0.0430896 -0.072499 171 89 84
0.034813 0.055477 -0.0651378 161 93 89
0.0307261 0.0428607 -0.0723787 176 94 89
0.0345246 0.0655061 -0.0540987 94 51 48
0.0330806 0.0397979 -0.0781242 235 157 150
0.0337878 0.0643514 -0.0529449 90 45 42
0.0335995 0.0523015 -0.0652471 172 92 88
0.0320677 0.0601521 -0.0547244 81 42 40
0.0320516 0.0606851 -0.0559103 94 45 42
0.0351493 0.0660446 -0.0530701 0 0 0
0.0338134 0.0653792 -0.0529371 95 49 47
0.0319137 0.0608645 -0.0547799 88 45 42
0.031134 0.0466779 -0.0681399 189 103 99
0.0316558 0.0582093 -0.055765 96 48 45
0.0320509 0.0462288 -0.0689338 194 106 102
0.033108 0.0631249 -0.0526813 92 43 41
0.0332269 0.0413039 -0.0757301 209 128 124
0.0323893 0.0417894 -0.0748051 206 124 120
0.0326865 0.0418171 -0.0752981 207 124 120
0.0337193 0.0637316 -0.0514837 92 45 41
0.0335462 0.0411752 -0.07673 224 142 138
0.0345979 0.0657484 -0.0504508 88 43 39
0.0336152 0.0409033 -0.077033 231 143 138
0.0320363 0.0471097 -0.0675741 169 79 73
0.0339543 0.0406074 -0.0774705 229 153 147
0.0349103 0.0658768 -0.0494782 86 43 40
0.0355933 0.0665114 -0.0487324 88 42 40
0.0338859 0.0515355 -0.0642147 160 89 84
0.0357799 0.0673829 -0.0477506 83 40 38
0.0331769 0.0649992 -0.0463701 76 33 30
0.0330846 0.0486357 -0.0650935 169 77 70
0.0327674 0.0410597 -0.0743611 156 77 72
0.0339731 0.0501585 -0.0645538 156 85 81
0.033133 0.0487512 -0.065066 165 75 69
0.0357191 0.0676129 -0.0450259 79 35 32
0.0328556 0.0489214 -0.0646155 169 76 69
0.0314084 0.055031 -0.0528284 82 38 34
0.0359377 0.0675028 -0.0441156 86 40 36
0.0332039 0.0644552 -0.0439248 84 40 37
0.034736 0.0668395 -0.0432314 90 43 40
0.0336823 0.0662265 -0.0434872 81 36 32
0.0333889 0.0400666 -0.0752375 172 88 82
0.0326579 0.0641567 -0.039625 87 46 44
0.0352297 0.0669468 -0.0397195 87 40 37
0.0361986 0.0680685 -0.0417964 87 42 38
0.0362647 0.0669595 -0.0385406 97 53 50
0.0367333 0.0668541 -0.0380109 96 52 50
0.0358058 0.0653907 -0.0379195 100 51 47
0.0350287 0.063435 -0.0395877 100 50 47
0.0365065 0.066424 -0.0379505 96 49 46
0.0353878 0.0642251 -0.038876 100 50 46
0.0332176 0.0454886 -0.0635568 166 97 92
0.0370094 0.06545 -0.0375496 102 57 54
0.0320393 0.0409636 -0.0658792 187 92 86
0.0363879 0.06455 -0.0379908 98 50 47
0.0343892 0.0615913 -0.0391179 94 43 40
0.0329263 0.0431611 -0.0640232 185 109 104
0.0383192 0.068183 -0.038736 86 45 42
0.0338544 0.0662044 -0.0271937 87 48 47
0.033113 0.0434279 -0.063366 174 107 102
0.0323079 0.0393021 -0.0664584 177 83 76
0.0319212 0.0387241 -0.0665864 181 87 80
0.0322753 0.0395389 -0.0655704 188 93 87
0.0354163 0.0646674 -0.0254557 83 42 40
0.0320276 0.0377645 -0.0665 190 100 94
0.0370095 0.0662555 -0.0265404 92 49 46
0.0402118 0.0695583 -0.0310341 86 44 42
0.038138 0.0666174 -0.0275483 78 39 36
0.032753 0.0394075 -0.065712 193 100 96
0.0322817 0.0600579 -0.0224716 78 36 32
0.0410657 0.0711727 -0.0266714 62 26 24
0.0408644 0.0711031 -0.0269061 64 29 28
0.0384512 0.0676418 -0.0276926 78 41 39
0.032419 0.0497275 -0.0409373 84 40 37
0.0334555 0.0394171 -0.0646987 182 107 102
0.0337604 0.0593818 -0.0219006 73 32 29
0.0411394 0.0707434 -0.023302 80 40 38
0.0387545 0.0656558 -0.0255837 88 44 41
0.0321185 0.0359432 -0.0683207 173 89 83
0.0339711 0.0588366 -0.0219506 76 37 35
0.0326217 0.0363653 -0.067763 181 84 77
0.0390861 0.0650832 -0.0236398 77 38 35
0.0395602 0.0645236 -0.0266581 85 42 39
0.0378548 0.0635743 -0.0216534 87 43 41
0.036858 0.0612777 -0.0227254 84 47 44
0.0303542 0.0395536 -0.0501989 109 59 55
0.032452 0.0356179 -0.0686393 168 80 73
0.0400405 0.0648999 -0.0234916 71 34 31
0.0424787 0.0694876 -0.0206919 75 37 34
0.0325998 0.0347186 -0.0694045 172 89 84
0.0415062 0.0670676 -0.0209226 72 35 32
0.0414701 0.0659774 -0.0212845 72 35 33
0.0335909 0.0372964 -0.06429 174 96 91
0.0375062 0.059648 -0.0212472 83 41 38
0.039271 0.0623054 -0.0237273 86 44 40
0.0364463 0.0591509 -0.0213026 86 45 42
0.0325307 0.0429765 -0.0426045 110 56 53
0.0325029 0.042666 -0.0422826 109 56 52
0.0337116 0.0361587 -0.0645319 176 94 89
0.03254 0.0352123 -0.0658557 183 87 80
0.0417452 0.0670549 -0.0203293 75 37 34
0.0335853 0.0368018 -0.0638617 164 93 89
0.0432012 0.0679584 -0.0189668 77 40 38
0.0339866 0.0542749 -0.0152804 81 42 39
0.0313115 0.0371879 -0.0448298 120 61 57
0.0307836 0.0384641 -0.0455103 113 58 54
0.0301278 0.0353336 -0.0507268 114 58 54
0.0441318 0.068329 -0.0180062 90 52 48
0.0424526 0.0666187 -0.0141571 68 31 28
0.0455775 0.0707221 -0.0182982 77 36 34
0.0355834 0.0539744 -0.0160485 87 49 45
0.0339065 0.0359313 -0.0644934 169 94 89
0.0330815 0.0412056 -0.0423533 108 63 59
0.0464849 0.0701908 -0.0189145 77 36 33
0.0372663 0.0556512 -0.0143052 117 91 91
0.0370627 0.0557348 -0.0147075 170 159 158
0.0372969 0.0568151 -0.0139078 81 43 40
0.0304522 0.0326895 -0.0532668 91 43 40
0.0295813 0.0409902 -0.0163284 72 33 29
0.0305595 0.03407 -0.0494954 113 54 50
0.0325358 0.0368234 -0.044099 121 62 59
0.0315353 0.03528 -0.0456383 124 65 60
0.0338213 0.0343287 -0.0644807 185 97 92
0.0331696 0.0326924 -0.0664274 181 93 88
0.039877 0.0559045 -0.0155629 92 51 49
0.0312678 0.0339413 -0.0448195 120 61 58
0.0470605 0.067066 -0.0127865 75 36 34
0.031679 0.0346591 -0.0459162 123 64 61
0.0488979 0.0691058 -0.0146435 79 39 36
0.0439682 0.061584 -0.0126955 74 34 32
0.0381996 0.054762 -0.0142079 82 43 40
0.0342363 0.034061 -0.0642966 164 89 85
0.029591 0.0359784 -0.0204465 75 37 34
0.030576 0.0311726 -0.0524856 89 43 40
0.0492151 0.0693703 -0.0148379 73 33 31
0.0321952 0.0346812 -0.0452578 127 65 62
0.0448702 0.062058 -0.0123229 75 37 34
0.032222 0.0344675 -0.0451203 125 65 63
0.0483553 0.0698708 -0.0150547 71 32 29
0.0320255 0.0400389 -0.0141474 84 42 39
0.0311195 0.0327037 -0.0479533 104 52 48
0.0309905 0.0309505 -0.0555337 162 87 82
0.0373178 0.0476869 -0.0119063 80 38 35
0.0298878 0.0364895 -0.0171597 67 30 27
0.0397568 0.0528762 -0.0138871 82 42 40
0.0384778 0.0510331 -0.0132309 79 36 33
0.028853 0.0329913 -0.0219752 86 44 41
0.0492741 0.0680807 -0.013634 74 35 32
0.0333686 0.03579 -0.0426466 111 64 60
0.0326714 0.0398804 -0.0138331 79 40 37
0.0418801 0.0540005 -0.0152744 161 140 134
0.0348243 0.0442616 -0.0111717 82 38 35
0.0308329 0.0346412 -0.0199242 79 39 36
0.0501008 0.0692977 -0.0134722 74 37 35
0.0493723 0.067053 -0.0129355 83 44 42
0.0337067 0.0356719 -0.0431334 106 59 56
0.03467 0.0329562 -0.0644466 160 85 81
0.0447015 0.0591581 -0.0124012 72 35 33
0.0355291 0.0450391 -0.0109704 82 40 37
0.0331777 0.0336534 -0.0448353 129 68 64
0.0510098 0.0688719 -0.0137993 66 27 25
0.0333105 0.0345365 -0.0435082 118 65 61
0.0503834 0.0668117 -0.0119074 73 36 34
0.0345457 0.0405887 -0.0128516 81 40 37
0.0303112 0.0342669 -0.0203043 78 38 35
0.031419 0.0297659 -0.0557419 163 88 83
0.0483141 0.0638906 -0.0107127 72 34 31
0.0491915 0.0636539 -0.0105911 71 33 30
0.038396 0.0479481 -0.0119567 83 41 38
0.0290873 0.031198 -0.0218595 93 45 42
0.0329612 0.0328845 -0.0444227 128 67 64
0.0515553 0.0677788 -0.0131793 75 37 35
0.0520086 0.068047 -0.0133553 83 43 41
0.0370206 0.0439444 -0.0120875 82 40 37
0.0332049 0.0322596 -0.0451794 124 68 65
0.0453805 0.0555963 -0.0120085 76 36 33
0.0329942 0.0320899 -0.0451725 125 67 63
0.0319936 0.0295107 -0.0484573 115 58 54
0.0317811 0.0354188 -0.0151536 73 33 30
0.0467326 0.0573638 -0.00996214 73 33 30
0.0418186 0.0488731 -0.0129061 83 41 39
0.0335515 0.0311896 -0.0450106 130 71 68
0.0354773 0.0388744 -0.0131772 82 43 40
0.0447215 0.0536948 -0.0136049 70 31 28
0.0515442 0.0653169 -0.0118997 73 35 32
0.0393698 0.0449281 -0.0116446 79 36 33
0.0371192 0.0411186 -0.010924 86 48 45
0.0516156 0.0650005 -0.011574 74 36 34
0.0342369 0.0343923 -0.0160159 78 41 37
0.0324062 0.0313655 -0.0210806 82 42 39
0.0520741 0.0652062 -0.013101 69 31 29
0.0342518 0.0320703 -0.0159779 73 35 33
0.0306221 0.0284982 -0.0238492 69 31 28
0.0530929 0.0666008 -0.0115748 75 38 35
0.0323157 0.0280491 -0.0480795 120 65 61
0.0535704 0.0676663 -0.0136465 0 0 0
0.0372162 0.0385878 -0.0125084 87 49 47
0.0337036 0.0311007 -0.0185494 80 40 36
0.0347685 0.0331892 -0.0165655 77 40 37
0.0316497 0.0278374 -0.0232913 69 34 31
0.048614 0.0579655 -0.0111927 72 32 29
0.0457985 0.0518972 -0.0131393 73 34 31
0.0335843 0.0304396 -0.0215363 78 39 36
0.0527721 0.0645127 -0.0104726 71 32 29
0.0321947 0.0272818 -0.0237055 69 33 30
0.0331656 0.0279475 -0.0477952 122 65 61
0.05553 0.0659579 -0.0127405 73 34 31
0.0493005 0.0567172 -0.0101424 69 32 29
0.0450452 0.0506206 -0.0125126 80 41 38
0.0376566 0.03585 -0.012673 76 36 32
0.0328191 0.0267955 -0.0486796 125 72 69
0.0406845 0.0404574 -0.0130418 81 38 35
0.0408765 0.0403756 -0.0128501 78 35 32
0.0334926 0.0283286 -0.0462183 135 72 69
0.0548993 0.0653434 -0.0106911 72 33 31
0.041343 0.0411991 -0.0139573 78 35 32
0.0325989 0.0267512 -0.0232939 72 36 33
0.0422462 0.0426639 -0.0131972 79 36 33
0.0353998 0.0298521 -0.0439836 114 67 63
0.0514788 0.0595448 -0.0102756 71 31 29
0.0519989 0.0608257 -0.00994392 70 32 29
0.0543931 0.0620014 -0.00966274 73 34 32
0.0483642 0.0519772 -0.0102317 76 37 34
0.0442249 0.0443002 -0.0144581 84 41 38
0.0411005 0.0386316 -0.0142847 80 37 34
0.0449111 0.0435722 -0.0142434 85 40 38
0.0407752 0.0361481 -0.0159976 80 39 36
0.0462365 0.0445976 -0.0127894 96 49 47
0.0424446 0.0377535 -0.0159441 78 36 34
0.0344292 0.0250268 -0.0255449 72 36 33
0.0356296 0.0283893 -0.0443523 129 75 71
0.034209 0.0263873 -0.0482991 124 70 67
0.0558735 0.0613902 -0.0111628 73 34 32
0.0365421 0.0289112 -0.0217889 86 45 42
0.0345177 0.0255336 -0.0249188 75 36 34
0.0463713 0.0446634 -0.0165178 97 52 50
0.0410129 0.0333939 -0.0179022 96 59 57
0.0519277 0.0536587 -0.00907697 75 36 33
0.0454209 0.0422811 -0.01869 99 54 52
0.0404901 0.0345609 -0.0168809 83 42 39
0.0343997 0.0255557 -0.0473769 122 67 63
0.0538431 0.0565932 -0.00947088 70 32 30
0.0348464 0.0242706 -0.026553 67 34 30
0.0427646 0.0358193 -0.0173631 100 66 61
0.0368086 0.0273144 -0.0230495 85 41 39
0.058594 0.0634649 -0.0154748 0 0 0
0.0560347 0.0590196 -0.0105743 75 37 35
0.057505 0.060653 -0.0109763 74 32 29
0.0347343 0.0227301 -0.0279224 88 51 48
0.0561773 0.0568166 -0.0105294 72 35 33
0.0449399 0.0396859 -0.0138368 92 48 45
0.0384655 0.0292272 -0.0240637 81 38 35
0.0372749 0.0261741 -0.0233478 84 43 40
0.0367329 0.0252419 -0.0256334 82 40 37
0.0594425 0.062838 -0.0152088 0 0 0
0.0551383 0.0557253 -0.0103676 70 33 30
0.0356628 0.0230904 -0.0300102 70 35 32
0.0597139 0.0624989 -0.0145878 77 39 36
0.0392164 0.0277985 -0.0225003 88 48 45
0.0546987 0.0560916 -0.00951663 70 32 29
0.0499803 0.0465939 -0.0134337 66 26 23
0.037097 0.0246105 -0.0244433 84 43 41
0.0450528 0.0376882 -0.012964 87 47 44
0.0399161 0.027973 -0.0197772 78 39 37
0.0383981 0.0256577 -0.0244536 83 42 39
0.0586768 0.0602224 -0.0132505 70 30 28
0.0579618 0.0583183 -0.011256 77 38 36
0.0566901 0.0572184 -0.0110647 74 38 35
0.0463258 0.0396669 -0.0139134 87 44 40
0.0561078 0.0568828 -0.012673 76 39 37
0.0573118 0.0547782 -0.0109738 73 36 34
0.0466361 0.039281 -0.0161129 85 42 39
0.0425903 0.030281 -0.0155 76 34 31
0.0374634 0.0287224 -0.0655279 162 87 82
0.0510259 0.0459224 -0.0124428 71 30 26
0.0404001 0.0278816 -0.0199818 76 37 34
0.0434254 0.0310704 -0.0165373 80 37 33
0.0588366 0.0591152 -0.014259 69 30 28
0.0383194 0.0241433 -0.0252466 86 46 44
0.0440834 0.0288884 -0.0144304 76 35 32
0.0408937 0.0258553 -0.0233726 88 45 42
0.0459846 0.0330412 -0.0143151 78 36 32
0.0427031 0.0270888 -0.0163534 76 35 33
0.037357 0.0220862 -0.0331205 94 58 55
0.0455283 0.0293559 -0.0148583 77 36 34
0.0598152 0.0575403 -0.0148637 75 34 32
0.0426977 0.0267897 -0.0161306 75 35 32
0.0397859 0.0241337 -0.0245569 85 44 41
0.0471967 0.0337901 -0.013185 80 39 35
0.0484951 0.0381485 -0.0116979 80 39 37
0.0481497 0.036889 -0.0119956 79 38 35
0.0413456 0.0233799 -0.0219902 85 44 41
0.0389564 0.0212648 -0.0313094 65 31 28
0.0586805 0.051655 -0.00933848 77 39 37
0.0378545 0.0212436 -0.0318875 91 54 51
0.0414753 0.0229335 -0.0214435 85 45 42
0.0498454 0.0353497 -0.0117807 80 40 38
0.0601799 0.0557292 -0.0151905 74 36 35
0.0460543 0.0275256 -0.0146854 81 40 38
0.0489691 0.0298522 -0.0128074 79 38 35
0.0430461 0.0238654 -0.0207393 82 41 37
0.0471775 0.0297424 -0.0129292 83 44 41
0.0461107 0.0278562 -0.0142375 81 42 39
0.0613095 0.0557233 -0.017669 72 34 33
0.0625732 0.0575092 -0.0221768 75 37 34
0.0401893 0.0239566 -0.0423312 70 35 31
0.0542834 0.041553 -0.0137808 84 41 38
0.0405685 0.0234847 -0.0420655 63 29 25
0.0471477 0.0276815 -0.0160462 79 39 37
0.0623643 0.0543789 -0.0194614 74 38 36
0.0466831 0.0269112 -0.0156817 81 40 37
0.0477692 0.0289623 -0.0128642 81 42 39
0.0465108 0.02606 -0.0149694 78 38 35
0.0536392 0.0358402 -0.0110253 80 39 36
0.0389867 0.0229194 -0.0480412 109 61 57
0.0398671 0.0230488 -0.0518261 106 62 59
0.0517479 0.0332645 -0.0116817 82 39 36
0.046998 0.0268787 -0.0156201 81 40 38
0.0464393 0.0259656 -0.0153483 76 36 33
0.0447441 0.0226768 -0.0212191 86 45 42
0.0626618 0.0547069 -0.0216117 82 45 44
0.0452072 0.023347 -0.0220264 71 35 33
0.0557725 0.0407801 -0.0139244 78 36 33
0.0571869 0.0430053 -0.0180707 86 45 41
0.0563629 0.0408761 -0.0167069 82 40 38
0.063442 0.0548603 -0.0236617 72 36 34
0.0403724 0.0220276 -0.0490476 100 55 52
0.0631263 0.0535931 -0.0236536 80 42 39
0.0548416 0.0352269 -0.0128938 80 40 37
0.0636784 0.0535118 -0.0238064 69 29 27
0.0468447 0.0236041 -0.0209551 67 30 27
0.0590592 0.0431903 -0.0210048 82 40 37
0.0480265 0.0219301 -0.0209124 84 46 44
0.0470412 0.0216659 -0.0233424 88 51 49
0.0635661 0.0530784 -0.0276795 67 28 26
0.0632971 0.0512262 -0.0280967 66 30 27
0.0483026 0.0210643 -0.0219706 87 48 44
0.0609572 0.0446505 -0.0232222 78 37 35
0.0574114 0.032918 -0.014079 73 35 33
0.0639944 0.0486819 -0.0277214 66 27 25
0.0335727 0.0416062 -0.0854118 255 212 204
0.0303389 0.0487312 -0.0735394 188 92 87
0.0317496 0.0534344 -0.0646418 167 83 78
0.0295066 0.0498318 -0.0690784 175 84 78
0.0336515 0.0427669 -0.0820059 254 146 139
0.0337668 0.0414083 -0.0853707 255 229 220
0.0287879 0.0446225 -0.0744417 204 109 104
0.032937 0.0525559 -0.066281 161 77 72
0.0336411 0.0406557 -0.0816179 232 117 112
0.0337812 0.0383778 -0.0791347 234 154 147
0.0332573 0.0451114 -0.0639628 178 108 103
0.034136 0.0495097 -0.0133623 83 43 40
0.0340637 0.0351365 -0.077251 225 124 117
0.0322292 0.0301867 -0.0357334 124 71 67
0.0307616 0.0318462 -0.0533386 90 42 39
0.0376735 0.039045 -0.0136673 98 59 55
0.0355144 0.0296696 -0.0439518 110 55 51
0.0356299 0.0263311 -0.0710769 193 102 98
0.04637 0.0422265 -0.0157595 98 52 49
0.0386172 0.0210904 -0.0540809 123 70 67
0.0369122 0.0226812 -0.0671149 178 100 96
0.0404424 0.0168277 -0.0321228 91 48 45
0.0470375 0.0167121 -0.0236202 77 42 39
0.0365008 0.0238352 -0.0683963 181 97 92
0.0613809 0.044069 -0.0179953 94 52 49
0.0581831 0.0359608 -0.0178618 105 70 68
0.0579709 0.033756 -0.0144417 76 40 37
0.0470778 0.0187223 -0.0514908 92 51 49
0.0331267 0.0589678 -0.0628107 161 86 82
0.0347595 0.0351023 -0.0649056 102 50 46
0.050452 0.0183788 -0.0373495 112 80 76
0.0475287 0.0137592 -0.0349241 103 60 59
0.0295668 0.0438106 -0.0778402 240 133 128
0.0334496 0.0518637 -0.0671853 166 77 71
0.0338319 0.0406491 -0.0851124 255 219 211
0.0319905 0.0510011 -0.066758 171 80 74
0.0275274 0.0446151 -0.075064 227 125 119
0.0278489 0.0480217 -0.0715768 164 80 74
