ply
format ascii 1.0
comment Created by Open3D
element vertex 1201
property double x
property double y
property double z
property uchar red
property uchar green
property uchar blue
end_header
0.0613271 0.0408815 -0.0167397 49 32 26
0.0720439 0.0437859 -0.0419327 65 47 39
0.0707606 0.0410039 -0.0694231 107 81 68
0.0595793 0.0464625 -0.00891384 46 28 22
0.0685678 0.0400726 -0.063424 95 68 58
0.06936 0.0435231 -0.0689413 97 67 59
0.070021 0.0415187 -0.0690431 95 70 59
0.0486053 0.0362373 -0.00925575 48 32 26
0.0711391 0.0445922 -0.0390732 58 41 35
0.0684268 0.0436859 -0.066689 92 66 57
0.0355492 0.0345574 -0.0474991 58 38 33
0.0502067 0.0377063 0.00114669 47 32 26
0.0639679 0.0401236 -0.0184802 51 33 27
0.0701669 0.0473838 -0.0334601 56 39 32
0.0690901 0.0427405 -0.0493491 60 42 35
0.0696215 0.04259 -0.0626934 92 67 58
0.0699161 0.0414578 -0.0638112 81 58 49
0.0710362 0.0395364 -0.0687361 121 91 79
0.0672462 0.044894 -0.0183729 47 31 26
0.0644717 0.0439815 -0.0417384 39 23 17
0.0705096 0.0505711 -0.0352643 59 42 35
0.0335589 0.0418555 -0.032803 60 43 36
0.0547379 0.0419969 -0.00333053 44 28 22
0.0712548 0.0441231 -0.0524557 94 69 59
0.0337009 0.0365234 -0.0369542 49 32 28
0.0610757 0.0387566 -0.015078 47 30 24
0.0715977 0.0446783 -0.0331685 56 39 32
0.0357999 0.035233 -0.0489811 53 40 34
0.0362692 0.0344101 -0.049122 57 36 31
0.068211 0.0487012 -0.0353252 55 38 31
0.035301 0.0389127 -0.0488435 52 34 29
0.0670523 0.0479982 -0.0167176 48 31 25
0.06879 0.0450071 -0.0614129 90 66 55
0.0577665 0.0418453 -0.00844632 48 33 27
0.0732148 0.0472879 -0.0254744 58 40 34
0.0677352 0.0430737 -0.0603369 94 70 61
0.0366053 0.0375998 -0.0110063 46 31 25
0.0724585 0.0469545 -0.0500698 95 71 61
0.0319521 0.0388329 -0.0371669 55 36 31
0.0593064 0.0485599 -0.00352696 45 28 22
0.0712646 0.0524032 -0.0190113 45 29 23
0.07147 0.0475671 -0.0408861 58 41 35
0.0726782 0.0483756 -0.0503962 93 69 59
0.0691813 0.0418267 -0.0635128 92 69 58
0.0354765 0.039365 -0.0113825 44 29 22
0.0715274 0.0488404 -0.0380719 52 35 29
0.068826 0.0408109 -0.0670592 87 63 52
0.0331767 0.039744 -0.0238179 39 26 22
0.0610047 0.0439003 -0.0185329 50 32 26
0.033417 0.0414641 -0.00875209 45 30 24
0.0694082 0.0424847 -0.0638794 92 67 56
0.0331539 0.0331357 -0.0216616 56 37 31
0.0663638 0.0479816 -0.0192543 49 31 26
0.0577025 0.0539421 -0.00845167 49 32 25
0.071225 0.0517054 -0.0184202 44 29 23
0.0703361 0.0466659 -0.0462915 48 31 26
0.0707836 0.0404782 -0.0663548 97 70 60
0.0327206 0.0408291 -0.0256315 40 27 23
0.060325 0.0472659 -0.00281233 48 30 24
0.0731371 0.0432911 -0.0483333 94 69 59
0.0354783 0.0374571 -0.050219 56 36 30
0.0571763 0.0544073 -0.00689425 48 31 24
0.0688014 0.0496926 -0.0349283 57 39 33
0.0715343 0.0444761 -0.0513144 94 70 60
0.0345483 0.0460573 -0.00408975 47 31 25
0.0688688 0.0496752 -0.032921 42 26 21
0.0701397 0.0464528 -0.0497389 62 43 35
0.0690261 0.0461133 -0.0669196 90 62 53
0.0348006 0.042463 -0.0358398 60 42 36
0.0370997 0.0424019 -0.00717601 46 30 25
0.0716102 0.0487107 -0.0370683 55 37 31
0.0716885 0.0497915 -0.052176 94 69 58
0.0699774 0.0431949 -0.0634074 92 63 52
0.0330718 0.0373153 -0.0501472 0 0 0
0.0336557 0.0388426 -0.0465594 54 34 30
0.0712858 0.0475415 -0.0678877 85 56 47
0.0686985 0.0440709 -0.060647 91 67 57
0.0333906 0.0422174 -0.00962234 45 30 24
0.0342525 0.0416331 -0.0105688 44 29 23
0.0604646 0.0468613 0.00364184 48 30 23
0.0695404 0.0451507 -0.0640319 89 65 54
0.0335082 0.0375833 -0.0432236 46 36 33
0.0344509 0.0387771 -0.0391775 57 37 31
0.0586792 0.0493176 -0.00413075 45 27 21
0.0725772 0.0505703 -0.0391109 54 37 32
0.0338668 0.0412828 -0.00892585 45 29 23
0.0706297 0.0477412 -0.0444697 53 37 31
0.0697286 0.0481299 -0.0509356 55 37 30
0.0703155 0.0488234 -0.0489327 52 33 27
0.069639 0.0436568 -0.0666481 79 51 43
0.0688664 0.0433587 -0.0611232 92 63 53
0.0324213 0.0399072 -0.0269559 58 41 34
0.0593477 0.0448618 -0.0138085 45 27 20
0.035406 0.0393631 -0.0327499 57 40 34
0.0726581 0.0495181 -0.0388313 56 39 33
0.0325691 0.0416416 -0.0266837 39 26 21
0.0688541 0.0501557 -0.03347 45 29 23
0.0304096 0.051578 -0.00473946 48 32 26
0.0352801 0.0463689 -0.00831091 47 32 26
0.0326523 0.0423688 -0.0446624 48 29 22
0.0706141 0.0517893 -0.0362172 60 43 36
0.068336 0.0471871 -0.0594561 92 67 57
0.0676905 0.052685 -0.0106825 42 26 22
0.0702834 0.0544191 -0.0172744 47 31 25
0.0330876 0.0402317 -0.0258287 40 27 23
0.0744095 0.0475377 -0.0212939 57 40 33
0.068663 0.04536 -0.061343 92 67 57
0.0593228 0.050783 -0.0148071 51 33 27
0.0685172 0.0463768 -0.0619514 96 68 58
0.0316466 0.0479689 -0.00764978 48 32 26
0.0701106 0.0439898 -0.062094 98 68 58
0.0409503 0.058218 -0.0102463 49 32 26
0.0349558 0.0413099 -0.0343272 56 39 33
0.071436 0.051111 -0.0462386 52 34 29
0.068589 0.0446819 -0.0623224 90 65 55
0.0705193 0.0455994 -0.0664515 95 67 56
0.03564 0.0422582 -0.0370144 55 39 33
0.0323905 0.0433061 -0.0204106 46 31 25
0.0631791 0.0580074 -0.00676566 46 30 24
0.0322273 0.0430245 -0.0304708 61 43 37
0.0313677 0.047559 -0.00651809 47 32 26
0.0414854 0.0491005 -0.00753268 49 33 27
0.0544181 0.0547002 -0.00704761 49 32 26
0.0719908 0.0485632 -0.037695 52 34 28
0.0700573 0.0453566 -0.0613257 86 62 54
0.0317442 0.0487086 -0.00823055 48 32 26
0.0348601 0.0412748 -0.00950272 44 29 23
0.0426657 0.0535211 -0.00844333 50 33 27
0.0691185 0.0451508 -0.0593248 95 70 60
0.0529882 0.0530437 -0.0058528 49 33 26
0.0599454 0.0549887 -0.00613632 49 32 26
0.0338625 0.0489454 -0.0140643 49 33 27
0.0708878 0.0525627 -0.0473834 49 31 26
0.0698181 0.0494583 -0.0509268 51 33 26
0.0336027 0.0392618 -0.0525449 0 0 0
0.0699081 0.04483 -0.0629853 92 64 55
0.0327897 0.0459157 -0.0336056 62 44 38
0.051672 0.0542201 -0.00726917 49 33 26
0.0693909 0.0574947 -0.0141832 43 28 23
0.033426 0.0383322 -0.0523392 0 0 0
0.0695771 0.0441218 -0.0631011 94 66 56
0.0684709 0.0436863 -0.0598544 96 72 62
0.0589224 0.058238 -0.00775028 49 32 25
0.072844 0.0515081 -0.039171 54 37 31
0.0416991 0.0490759 -0.00738786 49 33 26
0.0573727 0.0558735 -0.00640818 50 32 26
0.0746239 0.0572749 -0.0219573 55 38 32
0.0731617 0.0525946 -0.0388616 53 36 30
0.0701457 0.0511633 -0.0504006 54 34 29
0.0709727 0.0490785 -0.0668221 93 68 60
0.0709308 0.0450648 -0.0610181 90 65 55
0.0721694 0.0474652 -0.0681404 0 0 0
0.04408 0.0534548 -0.00904141 50 33 27
0.0685987 0.0482605 -0.0617401 93 67 56
0.0310874 0.044539 -0.025548 41 26 22
0.0332943 0.0469521 -0.00500488 48 32 26
0.0707263 0.0464432 -0.0628986 92 65 55
0.0424265 0.0538643 -0.00949397 50 33 27
0.0714317 0.0440891 -0.0623671 86 59 49
0.0682941 0.0490988 -0.0602486 94 69 59
0.0709846 0.0456913 -0.0647595 92 65 54
0.0389017 0.0533153 -0.00825782 50 33 28
0.0394067 0.0525305 -0.00913007 50 34 28
0.0711242 0.0527879 -0.0364826 59 41 35
0.070201 0.0512536 -0.0495617 49 31 26
0.0696417 0.0487074 -0.0616949 86 64 54
0.0424303 0.0535229 -0.0081819 50 33 27
0.0735726 0.0576426 -0.0137147 42 27 21
0.0712928 0.0515798 -0.0466831 54 35 29
0.055962 0.058579 -0.0112029 52 34 27
0.072753 0.0603915 -0.0140603 45 29 23
0.0690165 0.0514224 -0.0338606 46 30 24
0.0314951 0.049139 -0.0122154 47 31 25
0.0392462 0.0534594 -0.00959165 50 33 28
0.0462079 0.053515 -0.00756238 49 33 26
0.0485554 0.0576903 -0.00840189 49 32 26
0.0554999 0.0582725 -0.00842804 48 30 24
0.0704234 0.0465412 -0.0646616 88 62 52
0.0467574 0.0583978 -0.00884238 49 32 26
0.0582736 0.0569894 -0.00756627 51 34 27
0.0714721 0.0477687 -0.0398062 55 39 32
0.035946 0.0498722 -0.0125676 48 32 25
0.0695131 0.0506303 -0.0590524 87 62 51
0.0687216 0.0477054 -0.0590876 98 70 60
0.0598488 0.062061 -0.00908062 45 29 24
0.0687915 0.0466897 -0.0618332 96 66 55
0.0709981 0.0457341 -0.0661679 95 66 56
0.0684333 0.0608912 -0.00731467 44 28 22
0.0341035 0.0444016 -0.0482577 39 27 20
0.0308137 0.0472583 -0.0259138 41 26 21
0.0399376 0.06017 -0.00858617 49 32 26
0.0505593 0.0599621 -0.0091565 48 31 25
0.0521021 0.0563012 -0.00819371 49 32 26
0.0688105 0.0463372 -0.0639142 88 61 51
0.0688663 0.0483321 -0.0577037 92 68 57
0.0325882 0.0446848 -0.0331746 61 43 36
0.0490066 0.0591506 -0.00872021 48 32 25
0.0688452 0.0489189 -0.0589206 89 66 55
0.0714821 0.0448513 -0.0651859 101 70 60
0.03104 0.0505769 -0.0263256 39 24 19
0.0392542 0.0528174 -0.00750144 50 34 28
0.0353049 0.053418 -0.011183 49 33 27
0.0512273 0.0597881 -0.00865661 48 31 25
0.0711909 0.0657905 -0.00980336 43 28 22
0.0705992 0.0531099 -0.049641 52 35 29
0.0684375 0.0473499 -0.0622076 90 66 55
0.0701948 0.0462702 -0.057007 96 69 58
0.031286 0.0417141 -0.0376722 50 33 28
0.0585829 0.0565871 -0.007111 50 33 26
0.0718867 0.0612724 -0.010579 41 25 19
0.0473686 0.0581719 -0.00901223 49 32 26
0.0544272 0.0649747 -0.00862984 53 34 28
0.0551354 0.0632231 -0.0113722 53 34 28
0.0705082 0.0566137 -0.0382407 57 39 32
0.0628322 0.0658237 -0.00979778 45 28 23
0.0667313 0.0659295 -0.00938633 43 28 23
0.0718936 0.0603239 -0.0103437 41 25 20
0.071866 0.0562066 -0.0365608 57 40 33
0.0708896 0.0548997 -0.0489024 51 32 26
0.0322927 0.0472922 -0.00760024 47 31 26
0.0513595 0.0643224 -0.01276 51 34 28
0.0682089 0.0636044 -0.00831161 44 28 22
0.0707715 0.0676575 -0.00874073 42 26 21
0.070796 0.0501199 -0.063745 97 70 61
0.0387182 0.064703 -0.0113572 52 33 27
0.0522966 0.0600033 -0.0087547 47 30 24
0.0614945 0.0621182 -0.00721528 45 29 24
0.0347737 0.0461064 -0.0501477 41 24 17
0.0703853 0.0520801 -0.0499629 54 36 30
0.05557 0.0617924 -0.0108149 53 34 28
0.0685789 0.0487267 -0.060876 91 67 56
0.0638966 0.0665862 -0.0103095 44 28 23
0.069431 0.0574589 -0.0347645 38 25 20
0.0353165 0.0533143 -0.0113218 49 33 27
0.0388295 0.0550816 -0.00890592 49 33 27
0.0461744 0.0607309 -0.00777355 49 32 26
0.0509492 0.0632428 -0.0091259 51 32 26
0.0500943 0.0609483 -0.00934973 48 31 25
0.0508138 0.065111 -0.00082715 49 31 24
0.0320876 0.0542817 -0.0174949 51 35 30
0.0480826 0.0616131 -0.00696426 49 32 26
0.0504669 0.0597132 -0.0085667 48 31 25
0.0582421 0.0664471 -0.0109287 47 30 24
0.0720776 0.0603022 -0.0106446 43 27 21
0.0703593 0.0506035 -0.056059 91 66 56
0.033022 0.0476055 -0.0348851 64 46 39
0.0323002 0.0547872 -0.00648327 48 32 26
0.041573 0.0604542 -0.00725006 49 32 26
0.0559146 0.0622632 -0.0127263 52 32 26
0.0726662 0.0635188 -0.019704 43 27 22
0.0676734 0.051421 -0.0601473 85 61 53
0.0323778 0.049047 -0.0303349 57 40 34
0.0312944 0.0508923 -0.0255239 44 28 23
0.0476931 0.0628454 -0.0096654 51 33 26
0.0556076 0.066462 -0.0107644 49 29 23
0.0662507 0.0674513 -0.00994657 43 28 23
0.0688393 0.0462139 -0.0607504 94 71 62
0.0350327 0.0429854 -0.054594 97 71 58
0.0342265 0.0443145 -0.0483284 40 27 21
0.0468443 0.0611463 -0.00911201 49 32 26
0.0516654 0.0662976 -0.0100383 49 31 25
0.0599734 0.0633788 -0.00971679 45 29 24
0.0601517 0.0643092 -0.0103207 45 29 24
0.0707597 0.0655054 -0.00810256 42 28 22
0.0722393 0.0655804 -0.0281885 53 37 31
0.0345893 0.0438682 -0.0498448 36 21 17
0.0483799 0.0623223 -0.00966148 50 32 26
0.0486047 0.060662 -0.0091699 49 32 26
0.0469336 0.0654931 -0.00981941 52 34 27
0.0758952 0.0668114 -0.0239226 55 39 32
0.0687641 0.0503008 -0.057639 86 64 53
0.0602112 0.0619995 -0.00886824 45 29 24
0.0553845 0.0618421 -0.0110323 53 35 28
0.0623104 0.0654736 -0.0100897 45 29 23
0.0323688 0.0573501 -0.0239555 46 31 25
0.037084 0.0588888 -0.00946592 48 32 26
0.0538202 0.0664838 -0.0143375 45 26 22
0.0693358 0.0525232 -0.0627499 85 58 49
0.068759 0.0496736 -0.0591896 91 68 58
0.0324811 0.0545673 -0.0182321 52 35 29
0.0524827 0.0639941 -0.00750158 54 34 27
0.0539087 0.0616241 -0.0120389 55 35 28
0.0632262 0.0656718 -0.00770782 45 29 23
0.0713965 0.0575046 -0.0470813 45 30 24
0.0333003 0.0547092 -0.00942688 49 32 26
0.0526891 0.0637835 -0.00812888 54 34 28
0.0692039 0.0497676 -0.0609992 92 65 54
0.0578455 0.0645355 -0.00988262 47 29 24
0.0720783 0.0600712 -0.0448609 45 28 24
0.0695421 0.0485984 -0.0613793 92 66 55
0.0665835 0.0703238 -0.0110781 43 28 22
0.0682278 0.0518271 -0.0594507 83 60 50
0.0503749 0.062044 -0.00960424 49 31 25
0.0577067 0.066402 -0.0110966 48 30 25
0.0642508 0.0675656 -0.00922964 44 28 23
0.0713335 0.0605852 -0.0377906 55 39 32
0.0711735 0.0616076 -0.0379492 54 38 31
0.0460442 0.0608383 -0.00873798 49 32 26
0.0693477 0.0526489 -0.0608054 75 51 41
0.0432412 0.0614302 -0.00925921 49 32 25
0.0492212 0.066016 -0.0111215 49 31 25
0.0572729 0.0645059 -0.00998215 48 30 24
0.037122 0.0426247 -0.0646854 0 0 0
0.0340839 0.0597883 -0.0146961 52 33 27
0.0519419 0.0637575 -0.01252 53 35 28
0.0718103 0.0677844 -0.0100967 41 25 19
0.0406607 0.0654344 -0.00934237 52 34 27
0.0519331 0.0633422 -0.00974397 53 34 27
0.0549955 0.0621404 -0.0134967 54 35 28
0.0607761 0.0684335 -0.0102647 46 28 23
0.048262 0.0636114 -0.0106443 53 34 27
0.0561029 0.0641144 -0.0114771 50 30 24
0.0641839 0.0675751 -0.0105035 44 28 23
0.0475566 0.0637357 -0.0107365 53 35 28
0.0548409 0.0681184 -0.0129737 46 28 23
0.063346 0.0681369 -0.00864526 45 28 23
0.071881 0.0677311 -0.0184615 43 27 21
0.0720223 0.0609124 -0.0446162 46 31 26
0.0340193 0.0511428 -0.0367464 59 43 36
0.0411085 0.0635582 -0.010804 51 33 26
0.0502116 0.0624612 -0.00967395 50 32 25
0.0580708 0.0651338 -0.0105227 47 29 24
0.0693848 0.0500576 -0.0601333 93 67 56
0.0580406 0.069337 -0.00841722 49 30 25
0.060486 0.0694049 -0.0110394 46 29 23
0.061173 0.0680158 -0.0117871 45 28 23
0.0657494 0.0713678 -0.0125792 43 27 22
0.0578664 0.0665761 -0.0117888 49 31 25
0.0414181 0.064844 -0.0105038 52 34 27
0.0450373 0.0669002 -0.0113227 50 32 26
0.0528629 0.0639758 -0.0112696 53 34 28
0.0326716 0.0554674 -0.0295281 42 27 23
0.0545294 0.0733647 -0.0128875 43 27 22
0.0689156 0.0532807 -0.0602891 72 47 38
0.0683685 0.0527407 -0.0604108 79 55 46
0.0659736 0.0740379 -0.0104623 43 27 22
0.0667821 0.0696729 -0.011065 43 28 22
0.0687763 0.0508963 -0.0612934 90 65 55
0.0337286 0.066033 -0.016199 50 33 27
0.0685107 0.0494603 -0.0589453 88 64 55
0.0514344 0.062806 -0.00988084 51 32 26
0.0724454 0.0689702 -0.0239069 39 25 21
0.0696595 0.0508332 -0.0591587 88 62 52
0.0589778 0.0727103 -0.0118336 49 33 26
0.0723318 0.0690312 -0.0226429 38 25 20
0.0708786 0.0581967 -0.0476579 49 31 26
0.0722978 0.0541826 -0.0571665 90 64 53
0.0545564 0.0650924 -0.00793677 53 34 28
0.0693839 0.0729156 -0.0120876 39 25 20
0.0682927 0.0523981 -0.0626809 79 53 46
0.0687327 0.070172 -0.0111442 43 27 22
0.0358767 0.0630509 -0.0200917 52 34 28
0.0410507 0.0651273 -0.0138213 50 33 27
0.0422734 0.063243 -0.0107048 51 33 26
0.0750426 0.0707374 -0.0243375 56 39 32
0.0376174 0.0436213 -0.0630664 97 69 60
0.0319007 0.0558222 -0.0279418 42 26 22
0.0431242 0.0659826 -0.0119769 53 35 28
0.0701751 0.0555662 -0.0595056 78 51 43
0.0691759 0.0526238 -0.0630843 86 59 49
0.0686669 0.0529629 -0.0606438 77 55 46
0.0716005 0.0549209 -0.0659297 0 0 0
0.0376119 0.0438981 -0.06487 0 0 0
0.0689801 0.0753159 -0.0122112 41 26 20
0.0350142 0.0641023 -0.0139608 54 37 30
0.0392407 0.0653935 -0.011242 52 34 27
0.0595652 0.0726094 -0.0142367 49 32 26
0.065782 0.072237 -0.0125982 43 27 22
0.0693872 0.0557433 -0.0575901 78 55 48
0.0635476 0.0774558 -0.00651089 46 28 22
0.0713007 0.0572372 -0.0479537 47 29 24
0.0376009 0.0447663 -0.0650188 98 71 58
0.0421975 0.0645306 -0.00886353 51 33 26
0.07213 0.0734865 -0.0247973 40 25 20
0.0412084 0.066431 -0.0101307 52 34 27
0.0403447 0.0750087 -0.00900704 46 31 24
0.0434586 0.068973 -0.0103884 49 31 25
0.0343966 0.0495635 -0.0490413 42 23 18
0.0609201 0.0737582 -0.015808 49 31 24
0.0602006 0.0730734 -0.0129058 51 33 26
0.0689968 0.0523873 -0.0605882 74 51 43
0.0355779 0.0609866 -0.0196006 52 34 28
0.0532955 0.0721647 -0.0127278 39 23 19
0.0628533 0.0747549 -0.0138829 49 31 25
0.032641 0.0575938 -0.0341228 47 30 25
0.0706117 0.06109 -0.0403394 54 36 30
0.0686875 0.0534524 -0.0607957 76 51 43
0.0440722 0.0653306 -0.0113827 52 34 28
0.0701234 0.0538326 -0.0614847 86 58 50
0.0346427 0.0521773 -0.0374734 59 42 36
0.0491696 0.0701743 -0.0121241 46 30 24
0.0659606 0.071729 -0.0124197 43 27 22
0.069177 0.0534028 -0.062061 82 54 46
0.0707625 0.0607289 -0.0391712 54 38 31
0.0378624 0.0472207 -0.0658089 101 75 63
0.0535293 0.071026 -0.0111884 40 22 19
0.061691 0.0714877 -0.0111416 46 28 22
0.0494599 0.0686061 -0.0117397 46 30 24
0.0375012 0.0460027 -0.065912 101 75 63
0.0358845 0.0611527 -0.0203168 53 37 29
0.0469946 0.0726928 -0.0108801 47 30 24
0.0447825 0.0739804 -0.0101428 46 30 24
0.0620831 0.0750643 -0.0168395 48 30 23
0.072072 0.0711061 -0.0276234 49 33 27
0.0331953 0.0566848 -0.0448234 58 40 34
0.0378826 0.0687246 -0.00188489 52 33 27
0.0528183 0.0714395 -0.0123574 41 25 21
0.0541103 0.0697199 -0.0114389 43 24 19
0.0700375 0.0639992 -0.0389217 56 40 32
0.0339545 0.0530907 -0.0362472 57 40 34
0.0326243 0.0669491 -0.0130645 51 34 27
0.0439262 0.0679251 -0.0114408 49 32 25
0.0460199 0.0736725 -0.0081118 47 30 24
0.0660679 0.0784076 -0.0209702 46 30 24
0.0616277 0.0756373 -0.0163014 47 29 22
0.0718817 0.0602852 -0.0513499 72 50 43
0.0365849 0.0671609 -0.0183553 47 30 25
0.0390434 0.0672693 -0.00482794 51 33 26
0.0520064 0.071332 -0.0057358 45 27 22
0.0615483 0.071996 -0.0127912 47 28 22
0.0375673 0.0443072 -0.0652858 0 0 0
0.0342356 0.0629928 -0.0139164 52 34 27
0.0570209 0.0773723 -0.0136003 44 28 23
0.0629061 0.0759453 -0.0145257 44 28 21
0.0422794 0.0703109 -0.00725735 49 31 25
0.0438651 0.0758623 -0.00465696 47 30 24
0.0671398 0.0735811 -0.0155032 42 26 19
0.070016 0.0765756 -0.0207358 41 27 22
0.0444376 0.0722733 -0.00953367 48 31 24
0.0445742 0.0722273 -0.00900978 48 31 25
0.062039 0.0773997 -0.0141698 47 30 23
0.0691557 0.0759954 -0.022442 40 25 19
0.0353628 0.0644433 -0.0222244 48 33 27
0.0525914 0.0727814 -0.0109842 41 24 20
0.0601051 0.0727791 -0.011593 51 32 25
0.0611385 0.0743111 -0.0132175 50 32 25
0.0359577 0.0640011 -0.0203108 49 32 26
0.045186 0.0739129 -0.0127651 45 29 23
0.0562787 0.0734419 -0.0130953 44 27 22
0.0582921 0.0728689 -0.00835033 50 32 27
0.0537408 0.075597 -0.0108651 44 28 23
0.0620072 0.0751384 -0.0173162 46 29 23
0.0578982 0.0771893 -0.01354 43 27 22
0.0483828 0.0708408 -0.0100976 46 30 24
0.046866 0.0770712 -0.0131148 43 28 23
0.0532322 0.0774825 -0.0130902 44 29 24
0.0700687 0.0727736 -0.0222374 45 29 23
0.0701013 0.0612005 -0.0441778 51 34 28
0.0366603 0.0447785 -0.0666789 0 0 0
0.0336987 0.0672402 -0.0139623 49 32 26
0.0600843 0.0759086 -0.015954 41 25 20
0.0681631 0.0764589 -0.0196956 44 28 22
0.0728324 0.0731229 -0.0263798 53 37 30
0.0697557 0.056564 -0.06382 74 49 42
0.039516 0.048195 -0.0633814 98 71 58
0.0462169 0.0747752 -0.0101997 46 30 23
0.0703405 0.0746339 -0.0189374 43 28 22
0.0733107 0.0651118 -0.032929 54 38 31
0.0314145 0.063336 -0.00954932 50 32 26
0.0437593 0.0703047 -0.00802764 49 31 25
0.0546762 0.0793829 -0.0136313 44 29 23
0.0702236 0.0554347 -0.0568149 75 51 43
0.0428992 0.0690183 -0.0106275 48 31 25
0.0355403 0.0725066 -0.0117753 44 28 23
0.0586453 0.0778336 -0.0114216 42 26 21
0.0580321 0.0747809 -0.0127778 43 26 20
0.062716 0.073974 -0.0149685 49 31 25
0.0674826 0.0802017 -0.0170008 46 29 23
0.0688684 0.0662378 -0.0393798 54 38 31
0.0722211 0.0649946 -0.0451704 41 27 22
0.0349781 0.0653669 -0.0199725 47 31 25
0.0680818 0.0764352 -0.018788 44 28 22
0.0336311 0.0660844 -0.0154584 50 33 27
0.0524654 0.0763198 -0.0118801 44 29 24
0.0694324 0.0810731 -0.0138521 44 28 23
0.0688608 0.0559384 -0.061117 81 50 44
0.0373701 0.0696927 -0.0159602 44 28 23
0.0479624 0.0780412 -0.0131716 44 29 23
0.0718211 0.075672 -0.0249271 40 25 20
0.0349299 0.05572 -0.0368459 54 36 30
0.0351223 0.0655665 -0.0183993 48 31 26
0.052511 0.0793705 -0.0135824 44 28 23
0.0362326 0.0467464 -0.0669218 0 0 0
0.0649583 0.0787201 -0.0143499 45 29 23
0.068243 0.0663094 -0.0401017 55 39 32
0.0393091 0.0470838 -0.0640172 102 73 61
0.0373534 0.0457025 -0.0658258 0 0 0
0.0503119 0.075849 -0.0114643 45 29 24
0.0457947 0.0743767 -0.0122327 45 29 23
0.0535592 0.0793605 -0.0085306 44 29 24
0.0581737 0.0764411 -0.0168331 46 30 25
0.0399612 0.0755545 -0.0157088 44 29 24
0.0338315 0.065938 -0.0293296 45 29 23
0.0686799 0.065358 -0.0390433 55 39 31
0.038622 0.0746395 -0.0205519 47 32 26
0.0491273 0.0790557 -0.0127918 45 29 23
0.0543994 0.0797508 -0.0127977 44 29 23
0.0375768 0.0462844 -0.067171 0 0 0
0.0382356 0.0471898 -0.0642104 105 77 64
0.0377532 0.0470795 -0.0649371 103 76 62
0.0364937 0.0679427 -0.0172114 46 29 24
0.0409593 0.0812455 -0.00839361 43 29 23
0.0474125 0.0787533 -0.0105289 44 28 23
0.0649947 0.0766679 -0.0213112 47 30 25
0.0680672 0.0741895 -0.0196227 47 30 23
0.0320007 0.0688844 -0.0109641 49 33 27
0.04544 0.0730788 -0.0120318 46 30 24
0.0590189 0.0735533 -0.0129872 47 30 24
0.0710346 0.0754873 -0.0134085 43 29 23
0.0695624 0.0598924 -0.0617392 69 48 41
0.068904 0.0768654 -0.017953 44 28 22
0.0374635 0.0471592 -0.0683782 0 0 0
0.032641 0.0687332 -0.0107969 49 32 26
0.061571 0.0783952 -0.0164397 42 26 21
0.0686467 0.0661818 -0.039321 53 38 31
0.0384877 0.0492927 -0.0654892 102 77 62
0.0534174 0.0783557 -0.00848023 44 29 24
0.0689984 0.0565428 -0.0586566 75 53 45
0.0371903 0.0487394 -0.0679163 0 0 0
0.0503203 0.077613 -0.0121242 44 29 23
0.0654467 0.0780472 -0.0174945 48 30 24
0.0663103 0.0793754 -0.0205757 56 38 32
0.0687445 0.0569989 -0.0581327 73 52 44
0.0380997 0.0743844 -0.0218489 46 31 25
0.0606101 0.0788701 -0.0212577 41 26 21
0.0620948 0.0802182 -0.0162054 43 27 20
0.0375457 0.0720278 -0.0179789 44 28 23
0.036873 0.067601 -0.020717 47 30 26
0.0675072 0.067065 -0.0425777 50 35 30
0.0533721 0.0802293 -0.0112137 44 29 23
0.0689968 0.0578272 -0.0600301 75 53 45
0.0390305 0.0495138 -0.068495 97 69 56
0.0326241 0.0735056 -0.0292286 51 33 27
0.0500043 0.0822793 -0.0164782 45 31 26
0.0686834 0.06567 -0.0408225 52 36 30
0.0625647 0.0792522 -0.0213838 46 30 24
0.0340649 0.0683391 -0.0285852 42 26 21
0.0528611 0.0791005 -0.013301 44 28 23
0.067478 0.0596359 -0.0595848 68 48 41
0.0382449 0.0498667 -0.0659142 101 73 59
0.0386742 0.0507022 -0.0640118 92 68 56
0.0661645 0.0756267 -0.0226294 44 28 22
0.0384125 0.0484934 -0.0655736 108 78 65
0.0397576 0.075995 -0.0141099 45 29 24
0.0459023 0.0811975 -0.00993392 44 29 23
0.0393391 0.0750821 -0.014135 46 30 25
0.0695628 0.0671222 -0.0377539 54 39 31
0.0381063 0.0474731 -0.0651757 104 78 67
0.0426169 0.0798694 -0.0110698 43 29 24
0.0463319 0.0825105 -0.00806541 44 29 23
0.069333 0.0554643 -0.0616211 69 42 35
0.0380683 0.0806362 -0.00775575 44 29 24
0.0684476 0.0610733 -0.0595033 75 52 43
0.0624305 0.0814514 -0.0128891 43 27 21
0.0390688 0.0506947 -0.0641322 85 60 48
0.0391439 0.0492316 -0.0630327 104 72 60
0.0356509 0.0522153 -0.0593267 97 71 59
0.0377427 0.0715031 -0.0175049 44 28 23
0.0459793 0.0815505 -0.00929639 44 29 23
0.0452637 0.0798043 -0.0177213 42 28 22
0.0630044 0.0759086 -0.0234657 48 31 24
0.0392375 0.0467494 -0.0617106 90 62 54
0.0396642 0.048924 -0.06735 102 75 63
0.0533394 0.0807454 -0.0100795 44 29 24
0.0463205 0.0807174 -0.0108676 44 29 23
0.0485515 0.0846223 -0.0281829 41 28 24
0.0392819 0.0471051 -0.0663699 102 73 62
0.0370865 0.0515297 -0.0615936 95 69 56
0.0398833 0.0751456 -0.025262 45 31 25
0.0495348 0.0854179 -0.0286764 42 29 25
0.0384218 0.0479207 -0.064244 100 70 57
0.039434 0.0527616 -0.0661693 83 60 48
0.0504325 0.0860464 -0.0278102 42 30 25
0.0348652 0.070924 -0.025729 42 27 23
0.0415811 0.0760393 -0.0217896 46 30 23
0.0371574 0.047613 -0.0707895 0 0 0
0.0386216 0.0488496 -0.0616064 101 74 60
0.0407726 0.0804037 -0.0105592 43 29 24
0.0594803 0.0807808 -0.0256967 43 28 23
0.0507037 0.0862607 -0.0277876 43 30 25
0.067307 0.0704844 -0.0456502 49 33 28
0.0672027 0.0738561 -0.0455918 51 37 31
0.038118 0.0458111 -0.0706499 0 0 0
0.0386066 0.0505087 -0.0643051 96 72 59
0.0364177 0.067402 -0.0404536 46 31 25
0.0674665 0.0639779 -0.0591112 70 48 40
0.0390511 0.080809 -0.0301858 52 35 29
0.0681113 0.063548 -0.0607599 66 46 39
0.0378199 0.0490368 -0.0711545 0 0 0
0.0653468 0.0731187 -0.0436449 55 36 30
0.0643917 0.0741658 -0.0436596 52 36 31
0.0661683 0.072211 -0.0427207 51 36 30
0.037885 0.0716334 -0.037626 53 32 28
0.0671088 0.0748646 -0.045229 46 31 26
0.0686118 0.0622466 -0.0632895 65 42 37
0.0364135 0.0702809 -0.0384291 53 34 27
0.0571366 0.0852333 -0.0332827 46 32 28
0.069116 0.0610609 -0.0619266 69 46 38
0.0508458 0.0864869 -0.0270953 44 31 26
0.0687212 0.0603891 -0.0609189 74 49 41
0.0346428 0.071678 -0.0422381 56 40 33
0.0652733 0.0718345 -0.0461333 57 37 31
0.0390221 0.0495457 -0.0652789 94 68 56
0.0541571 0.0853907 -0.0312006 43 31 27
0.0337315 0.0660077 -0.042565 56 35 29
0.034157 0.0720571 -0.0411253 53 34 29
0.0641479 0.0791143 -0.0403216 54 36 29
0.0376443 0.0487848 -0.0707605 0 0 0
0.0667816 0.0755501 -0.044447 53 36 29
0.0665188 0.0745324 -0.0490686 50 36 30
0.0672599 0.0600726 -0.0608913 69 49 41
0.038798 0.0489194 -0.0653293 97 71 58
0.0390047 0.0544656 -0.0672103 89 63 53
0.0378388 0.058259 -0.063879 0 0 0
0.0593302 0.0832811 -0.0339198 42 30 25
0.0685017 0.06219 -0.0638542 61 36 30
0.0386211 0.0548788 -0.0674537 75 45 38
0.0344558 0.0767128 -0.0368186 0 0 0
0.0393724 0.0579321 -0.0666563 0 0 0
0.0423719 0.0827944 -0.0293393 42 28 24
0.0446189 0.0829251 -0.029198 41 30 26
0.053591 0.0258078 -0.0584781 81 59 49
0.0489066 0.025474 -0.0632668 86 57 51
0.0483123 0.0256882 -0.062483 95 65 58
0.0526866 0.023844 -0.0624371 0 0 0
0.0562604 0.0258722 -0.0599194 96 67 56
0.0464101 0.0270047 -0.0631625 91 63 54
0.0581719 0.0266686 -0.0610217 96 70 60
0.0633938 0.0294331 -0.06505 93 63 54
0.0536782 0.0257503 -0.0574455 76 53 43
0.0530094 0.0242821 -0.0504999 53 35 29
0.0483447 0.0253217 -0.0600907 97 69 60
0.0606867 0.0288085 -0.0641638 85 60 51
0.0492223 0.0252948 -0.0625466 93 63 55
0.0510688 0.0238412 -0.0489864 51 32 28
0.0592452 0.0240735 -0.0524769 95 68 58
0.0600062 0.0272246 -0.0603691 90 58 47
0.0515554 0.0246975 -0.0610084 93 65 55
0.0499204 0.0261929 -0.0595438 80 52 45
0.0501437 0.0249865 -0.0582913 89 65 56
0.0519893 0.0241295 -0.0504119 53 37 32
0.0516536 0.0241752 -0.0506362 51 34 28
0.0514056 0.024181 -0.050602 56 38 33
0.0592099 0.0281408 -0.0606538 92 68 55
0.0585907 0.0268347 -0.061944 89 63 53
0.0615199 0.0268808 -0.0634717 0 0 0
0.0547248 0.0248193 -0.0490978 49 34 28
0.0589868 0.0235582 -0.0536857 89 65 54
0.0664836 0.0318419 -0.0722025 111 81 70
0.0480667 0.0252189 -0.06185 89 62 54
0.0559335 0.0252816 -0.0504969 46 30 25
0.0591029 0.0277076 -0.0595744 96 69 58
0.0639521 0.0312529 -0.0703876 99 72 60
0.0501852 0.0243775 -0.0614823 89 60 52
0.0473047 0.0250127 -0.0609229 90 64 56
0.0464725 0.0243492 -0.0635045 88 61 53
0.0471609 0.0252331 -0.0635037 91 63 53
0.0481073 0.0255739 -0.064099 90 61 51
0.056947 0.0245159 -0.0459637 52 34 28
0.0589344 0.0260611 -0.0535597 92 65 56
0.0619589 0.0309325 -0.0607861 102 75 64
0.0628371 0.0295822 -0.060507 89 59 50
0.0491036 0.02553 -0.0614395 91 62 53
0.0476016 0.0241086 -0.0490495 51 33 30
0.0595153 0.0283547 -0.0600807 93 69 59
0.046144 0.0254735 -0.0614975 86 60 52
0.0537015 0.0242252 -0.0492095 52 34 29
0.0537262 0.0228107 -0.0437332 54 37 32
0.0600111 0.0276754 -0.0600404 92 67 56
0.0456375 0.0275854 -0.0603063 79 53 46
0.0572476 0.0253976 -0.0489501 56 38 31
0.0602473 0.0283121 -0.0591058 92 70 58
0.0513666 0.0251395 -0.0608604 92 60 50
0.0499094 0.0242212 -0.0479442 59 40 35
0.0502945 0.0236818 -0.0483974 51 33 28
0.0541299 0.0232269 -0.0441507 57 36 31
0.0638419 0.0325036 -0.0711173 110 81 72
0.0547043 0.0242507 -0.0422618 58 39 34
0.0566143 0.0234616 -0.0443572 63 44 36
0.0572051 0.0235873 -0.0465952 92 67 56
0.066313 0.0359865 -0.0714051 108 79 69
0.0535329 0.0218328 -0.0475295 94 67 58
0.0609127 0.0295367 -0.0601226 95 66 56
0.0587731 0.0266078 -0.045291 51 34 29
0.0638005 0.032571 -0.0682461 92 68 57
0.0642943 0.0301952 -0.0691995 110 81 66
0.0538831 0.0228689 -0.0449584 51 35 30
0.0585046 0.0250205 -0.0438072 52 33 28
0.0487757 0.0242594 -0.0490429 56 36 30
0.0586559 0.0260398 -0.041402 57 40 34
0.0599915 0.024257 -0.0458962 91 66 56
0.0649835 0.032077 -0.0688343 111 83 74
0.0513427 0.0234394 -0.0400095 58 39 35
0.0544056 0.0229973 -0.0436822 56 37 31
0.0575107 0.0242293 -0.0446809 60 41 34
0.0584447 0.0259508 -0.0437283 56 38 33
0.0638851 0.0316602 -0.0662226 98 71 61
0.05319 0.0240302 -0.0400645 55 37 32
0.0543327 0.0242107 -0.0411033 54 37 31
0.0614732 0.0276352 -0.0475334 94 71 60
0.0619619 0.0298278 -0.0658527 96 69 60
0.0655756 0.0351258 -0.0720189 110 82 69
0.0654537 0.0331151 -0.0689099 116 86 76
0.0529679 0.0218171 -0.0408839 56 36 30
0.0592131 0.0263017 -0.0461756 54 35 28
0.0625705 0.0285063 -0.0481316 96 70 60
0.0616072 0.0283952 -0.0437923 64 45 39
0.0540205 0.0239716 -0.035034 51 34 29
0.0519576 0.0231589 -0.0380146 57 39 34
0.056634 0.0244223 -0.0439157 58 38 32
0.0653351 0.0328471 -0.0684324 113 82 72
0.0541509 0.02395 -0.0389315 57 39 33
0.0588031 0.0269466 -0.0420716 53 36 31
0.0613048 0.0317704 -0.0610999 98 72 59
0.0437759 0.0253402 -0.048656 49 33 29
0.0493689 0.0214379 -0.0402176 59 38 34
0.0517239 0.0238195 -0.0390183 56 38 33
0.0576605 0.0249186 -0.0406904 57 37 32
0.0660889 0.0325578 -0.0677901 116 86 76
0.0529461 0.0237822 -0.0378178 54 37 32
0.0600953 0.0284083 -0.0409053 52 33 28
0.0596158 0.0270291 -0.0410955 52 35 30
0.0617752 0.0290072 -0.0397554 51 33 27
0.0612702 0.0305339 -0.0655763 79 52 42
0.0627843 0.0301495 -0.0400932 50 33 27
0.0620062 0.0275167 -0.0528388 96 70 59
0.0660888 0.0320705 -0.0708015 120 88 76
0.0560756 0.0234029 -0.0369924 57 40 34
0.062688 0.0264809 -0.0472884 96 71 61
0.0419195 0.0254731 -0.057298 82 55 47
0.0458617 0.0250993 -0.0396647 55 39 33
0.0656029 0.0361676 -0.0727684 114 86 74
0.0565433 0.0262175 -0.0377491 52 35 30
0.0597489 0.0272404 -0.0416688 51 34 29
0.0643686 0.0306175 -0.0481104 99 76 66
0.0528595 0.0233741 -0.0362884 53 37 32
0.0612954 0.0305309 -0.0536986 91 68 58
0.0637676 0.0315521 -0.0642019 104 78 67
0.0675258 0.0350611 -0.0738942 115 81 71
0.0619529 0.0317486 -0.060863 101 76 65
0.0626679 0.0312743 -0.0609488 103 74 63
0.0463985 0.0235022 -0.0363201 56 38 33
0.0456325 0.0247328 -0.0386005 55 39 33
0.0669405 0.0338562 -0.0666257 117 89 78
0.0516974 0.0242236 -0.0384027 55 37 32
0.0539019 0.0250413 -0.0367255 54 34 29
0.0673699 0.0371859 -0.0684326 94 59 51
0.044626 0.02462 -0.0366094 57 40 35
0.0604097 0.0284028 -0.039389 52 35 30
0.0650401 0.0335283 -0.0709862 120 93 81
0.0621352 0.0308349 -0.0380744 52 35 30
0.063914 0.0305942 -0.0483002 96 74 64
0.0611982 0.0323603 -0.0617919 102 76 65
0.0619058 0.0298666 -0.0372495 54 35 30
0.0635008 0.0308732 -0.0560739 105 79 68
0.06144 0.0322114 -0.0603067 108 82 71
0.0500296 0.0224809 -0.0349796 56 39 34
0.0421389 0.0270657 -0.0499441 52 35 30
0.0480665 0.0234388 -0.0377211 57 38 33
0.0666763 0.0372282 -0.0678621 95 67 58
0.0580157 0.0263747 -0.0319335 51 35 30
0.0582903 0.0269143 -0.0338631 51 35 30
0.0418784 0.0273395 -0.0498899 53 35 30
0.0484312 0.0219146 -0.0325534 58 38 33
0.0571575 0.0248352 -0.0262513 53 36 31
0.0582361 0.0263826 -0.0256008 56 38 32
0.0426782 0.0268582 -0.0505295 52 33 29
0.0567594 0.0247795 -0.0282523 55 37 32
0.0620746 0.0299546 -0.0271867 50 33 28
0.0674179 0.0353909 -0.0689392 113 84 72
0.0521203 0.0244274 -0.026987 56 39 33
0.0535676 0.0253792 -0.0325664 54 37 32
0.0614284 0.0312811 -0.0532671 76 55 46
0.0672249 0.0354124 -0.0700556 112 82 70
0.0667971 0.0360036 -0.0696096 109 78 64
0.0567413 0.0258863 -0.0274989 57 38 32
0.0620681 0.0318808 -0.0399332 52 35 29
0.0676177 0.0345791 -0.0666032 117 87 76
0.0636788 0.0320889 -0.0350442 54 35 30
0.06856 0.0341144 -0.0727785 117 83 73
0.0438505 0.0220255 -0.0302975 58 39 34
0.0463777 0.0246047 -0.0274016 60 41 36
0.0495069 0.0252829 -0.0200657 57 38 33
0.0600244 0.0280773 -0.0266086 53 36 31
0.0668763 0.0353449 -0.0693018 114 84 72
0.0523748 0.0259308 -0.0314457 59 42 37
0.0667085 0.0362855 -0.0668477 97 69 59
0.0521612 0.0309936 -0.0264834 60 41 35
0.0668986 0.0345618 -0.0709217 117 89 76
0.0658657 0.0350036 -0.0672095 100 68 59
0.0615111 0.0301704 -0.03067 51 34 28
0.0618203 0.0318622 -0.0325018 50 33 28
0.0675607 0.0325728 -0.0438025 86 64 55
0.0678891 0.037004 -0.0685379 101 67 57
0.0556336 0.0319832 -0.0248227 59 40 33
0.0392508 0.0286011 -0.046751 52 34 29
0.0605245 0.0305335 -0.031882 49 32 27
0.0609732 0.0307042 -0.0291182 49 31 26
0.0375744 0.0253164 -0.0309056 52 35 30
0.0445388 0.0273335 -0.0302443 56 38 32
0.0622509 0.0301625 -0.0263746 50 33 29
0.062121 0.0323438 -0.0298284 50 32 27
0.0463827 0.0271621 -0.0309328 57 38 32
0.063773 0.0337797 -0.0311815 52 35 29
0.0389986 0.0276716 -0.0386717 52 35 31
0.061697 0.0307622 -0.0369998 54 36 31
0.0622242 0.0300352 -0.0319623 53 35 30
0.0653776 0.0351147 -0.0429114 56 36 31
0.0385792 0.0290093 -0.0463991 50 33 28
0.0685107 0.035903 -0.0657872 108 76 67
0.0604992 0.0389538 -0.0337297 44 27 21
0.0604253 0.0316619 -0.0320839 51 34 29
0.0677595 0.0387078 -0.0450836 64 47 38
0.0622543 0.032488 -0.029039 50 32 27
0.0689655 0.0385934 -0.0492851 85 64 55
0.0452379 0.0301494 -0.0247546 55 38 32
0.0677115 0.0340447 -0.0643801 110 81 70
0.0612766 0.0392644 -0.0319007 50 31 26
0.0653403 0.0386779 -0.0616668 102 78 67
0.0637799 0.0337968 -0.0312094 52 35 29
0.071257 0.0341478 -0.0450758 106 79 69
0.0459761 0.0296258 -0.0208669 59 40 34
0.0522369 0.0328272 -0.0182466 44 28 22
0.0689363 0.0378487 -0.0548986 100 73 63
0.0673003 0.0350896 -0.0633186 102 75 65
0.0417419 0.0311851 -0.0231461 55 38 32
0.0356779 0.0316528 -0.0386156 53 35 30
0.0598284 0.0379018 -0.0296953 45 28 23
0.0411585 0.0333197 -0.0153159 46 30 24
0.0706916 0.0366373 -0.0489505 103 77 67
0.07287 0.036313 -0.0441214 104 78 68
0.0701859 0.0407642 -0.0429532 63 46 39
0.0366857 0.0323283 -0.0317223 56 37 32
0.0367825 0.0360193 -0.0123868 47 32 26
0.0595931 0.0364525 -0.018622 48 30 25
0.071233 0.0361891 -0.0500021 101 75 65
0.0410071 0.035234 -0.0217169 47 31 25
0.0519313 0.0363506 -0.00062337 48 32 27
0.0700936 0.0397178 -0.0590166 90 67 56
0.0660059 0.0367252 -0.0591091 103 77 67
0.0703023 0.0401767 -0.0342694 54 36 30
0.0692743 0.0396052 -0.0436893 66 49 41
0.0470963 0.03148 -0.00903207 43 29 24
0.0489319 0.0346423 -0.00313418 48 32 26
0.0556788 0.0417462 -0.00352013 44 28 21
0.0368945 0.0331 -0.0403221 48 31 26
0.060607 0.0389663 -0.0131376 45 29 23
0.0672594 0.0415425 -0.0632089 94 70 59
0.0358346 0.0326596 -0.0402307 52 33 28
0.0373807 0.0333776 -0.0285577 59 40 35
0.0504116 0.0394799 -0.00354646 45 29 23
0.0507921 0.0335085 -0.0136145 44 29 24
0.0362676 0.0326969 -0.0302882 57 39 33
0.0354724 0.0349196 -0.0254474 55 38 32
0.037033 0.0312936 -0.0260642 53 37 31
0.0599489 0.0366075 -0.0167198 47 29 24
0.0522358 0.0394131 0.00048391 45 28 23
0.0607388 0.0412361 -0.0146548 45 28 23
0.0719496 0.0452168 -0.0433788 64 46 39
0.039144 0.0355077 -0.0132218 48 32 27
0.0601662 0.0421148 -0.00895166 46 30 24
0.0652455 0.0388367 -0.0243193 61 43 36
0.0504643 0.0382058 -0.000318888 47 31 25
0.071823 0.0439489 -0.0358729 57 40 34
0.0374549 0.0336881 -0.0289874 57 39 34
0.0706934 0.0410229 -0.0417651 63 46 38
0.0569811 0.0441669 0.00510836 45 29 23
0.0726662 0.0412331 -0.0487103 93 70 59
0.0502191 0.0371761 0.00426 48 32 26
0.0689304 0.0401443 -0.064819 94 64 53
0.0642508 0.0429782 -0.0186047 47 30 24
0.0399972 0.035142 -0.00260922 48 32 26
0.0366685 0.0367911 -0.0323837 54 38 33
0.0702419 0.0426314 -0.0432103 52 35 29
0.0370584 0.0367164 -0.00951536 48 32 26
0.0714889 0.0390948 -0.0479857 97 74 63
0.0699106 0.0408005 -0.0648619 90 66 55
0.0546677 0.0414725 0.00137854 44 28 22
0.0531803 0.0412038 -0.00605328 47 30 24
0.0598287 0.0461908 -0.00683566 47 29 22
0.0678393 0.0418417 -0.0598685 96 71 60
0.0702315 0.0384763 -0.0661242 101 69 59
0.0359483 0.0383572 -0.0110193 44 29 24
0.0355462 0.0381689 -0.00947545 45 30 24
0.0336668 0.0372148 -0.0359482 53 36 31
0.0336041 0.0412373 -0.0119432 44 29 24
0.0728452 0.0444742 -0.0250647 56 39 32
0.070955 0.0426343 -0.0381594 56 39 33
0.0695779 0.0412192 -0.0664097 80 59 47
0.0705761 0.045548 -0.0404984 57 41 34
0.0703887 0.0404982 -0.0639428 87 61 50
0.0731711 0.0487288 -0.024923 58 40 33
0.0678463 0.0491212 -0.0172307 48 31 25
0.0445496 0.0475846 -0.0063955 49 32 26
0.0618003 0.0477882 -0.0172894 50 32 26
0.0699798 0.0476976 -0.0190422 48 31 25
0.0333616 0.0396263 -0.0256789 39 26 22
0.0709883 0.0487521 -0.0402295 51 34 28
0.0701159 0.0446607 -0.0493848 65 46 39
0.0341908 0.0429718 -0.0357093 62 44 37
0.0599592 0.046293 -0.014981 49 31 24
0.0669994 0.0458901 -0.0177879 45 30 24
0.0670258 0.0496097 -0.0193566 49 32 27
0.0701948 0.0471271 -0.0495453 59 39 33
0.071159 0.0436043 -0.0372092 56 40 33
0.0442721 0.0451624 -0.00502349 48 32 25
0.0702699 0.0501228 -0.0173624 45 29 23
0.0715001 0.0474876 -0.0417029 56 39 33
0.0685908 0.0485332 -0.0187423 47 31 26
0.0684246 0.0434256 -0.0612674 94 67 58
0.0323991 0.0419564 -0.0266316 40 26 21
0.0401671 0.04904 -0.00758457 49 33 27
0.0677349 0.0525742 -0.0205943 40 25 20
0.071147 0.0498618 -0.0464542 51 35 29
0.0684585 0.0436951 -0.0610967 94 67 59
0.0680477 0.0448743 -0.0633293 92 64 53
0.0701222 0.0467181 -0.0341802 58 40 33
0.0336457 0.045103 -0.00958328 47 31 25
0.0642604 0.0488011 -0.0185315 49 32 25
0.0713976 0.0496857 -0.0522979 93 68 58
0.0731493 0.0545462 -0.0218029 52 35 29
0.0343475 0.0393397 -0.0487017 47 30 25
0.031371 0.0440883 -0.0260363 41 27 23
0.0577541 0.0563087 -0.00666082 51 34 27
0.0693603 0.0438433 -0.0605196 80 56 46
0.0410078 0.0494889 -0.00687939 49 33 27
0.0714134 0.0474037 -0.039676 55 38 31
0.0697974 0.0513424 -0.0178801 46 30 24
0.0493828 0.0487234 -0.00545047 50 33 26
0.0421035 0.0493469 -0.0064426 50 33 27
0.0622451 0.0590467 -0.00723984 46 30 24
0.0720742 0.0508376 -0.033158 60 42 36
0.0733012 0.0499296 -0.0376963 55 38 32
0.0718644 0.0522526 -0.0357804 58 40 34
0.0702312 0.0478771 -0.0494297 58 39 32
0.0319017 0.0430013 -0.0262975 41 28 24
0.0322002 0.0441989 -0.00779572 47 31 25
0.0588485 0.0510847 -0.00273452 47 29 23
0.0708339 0.0476665 -0.0436343 56 38 33
0.0681711 0.0442047 -0.0614752 93 71 61
0.0334741 0.0391855 -0.044567 48 31 25
0.0356091 0.0400332 -0.0357548 60 42 36
0.0697864 0.0553146 -0.0181714 43 27 22
0.0469477 0.0539297 -0.00809387 49 33 26
0.031695 0.0456159 -0.00667453 48 32 26
0.0735163 0.0551825 -0.0142821 43 27 22
0.0687956 0.0474904 -0.0623344 95 66 54
0.0703792 0.0439056 -0.0621271 91 66 58
0.0681696 0.0461504 -0.0634033 94 65 54
0.0718065 0.0507204 -0.0366407 57 39 33
0.0341496 0.03847 -0.0458796 54 36 31
0.0358868 0.0408272 -0.0364011 56 39 33
0.0313634 0.0437912 -0.00672672 47 31 26
0.0686879 0.0459629 -0.0623107 92 65 53
0.056975 0.0585088 -0.00818143 51 33 26
0.0730883 0.0573099 -0.0134669 43 27 21
0.071823 0.061006 -0.0141003 45 29 22
0.0684677 0.0441212 -0.061403 93 68 57
0.0524686 0.0567941 -0.00812043 49 33 26
0.0485754 0.054969 -0.00859729 65 52 47
0.035167 0.039044 -0.0503562 51 33 27
0.0322837 0.0502392 -0.0161509 50 33 27
0.0468152 0.0532525 -0.0085597 49 33 26
0.0712876 0.0484777 -0.0634034 91 63 55
0.0498755 0.0589958 -0.00876517 48 32 25
0.0337645 0.0499351 -0.0124125 48 32 26
0.0564819 0.0590676 -0.00151585 49 31 25
0.0338915 0.0431297 -0.0471538 44 26 21
0.0590425 0.0578725 -0.00765908 48 31 25
0.0684182 0.0485915 -0.0586796 92 68 57
0.0309483 0.0457592 -0.02567 42 28 24
0.0731065 0.0609526 -0.00703726 45 29 22
0.0320483 0.0445311 -0.0394553 47 30 24
0.0416122 0.0561779 -0.00895295 49 33 26
0.0558371 0.0591997 -0.0124249 52 33 26
0.0677485 0.0470967 -0.0591981 93 69 58
0.030508 0.0437398 -0.0450464 99 74 61
0.0559116 0.058977 -0.00949939 52 33 27
0.072549 0.0607233 -0.0251701 41 26 20
0.0683747 0.0477774 -0.0617886 96 70 60
0.0416844 0.053814 -0.00785973 50 33 27
0.0527975 0.0576279 -0.00751249 48 32 26
0.0304735 0.0501962 -0.0189381 47 31 26
0.0312309 0.0494201 -0.025048 43 29 24
0.0618761 0.0581422 -0.00683387 46 30 24
0.0309175 0.0526373 -0.0169189 49 33 27
0.0401424 0.0567465 -0.00694208 49 33 26
0.0729576 0.0614053 -0.0145261 45 29 23
0.0684805 0.0479033 -0.0600432 87 66 55
0.0298348 0.0493597 -0.0229288 45 29 24
0.0329781 0.0545569 -0.00894112 48 32 26
0.0349942 0.0466094 -0.0372432 61 44 37
0.0389336 0.0582251 -0.00780699 48 32 26
0.0689662 0.0512073 -0.0351708 55 38 31
0.0680509 0.0471111 -0.0590349 94 70 59
0.0313849 0.0545117 -0.0266468 44 26 21
0.0318748 0.0509961 -0.00862154 48 32 26
0.05682 0.0597855 -0.00800801 51 33 27
0.0627943 0.0629368 -0.00840878 45 29 24
0.0308124 0.0484717 -0.0258655 40 26 21
0.0629221 0.0648451 -0.00978628 45 29 23
0.0344725 0.0537812 -0.0117472 47 31 26
0.0710069 0.0658275 -0.00868504 42 27 22
0.0708846 0.05424 -0.0491261 50 33 27
0.068785 0.0491408 -0.059712 94 70 60
0.0311585 0.0523358 -0.0266039 40 25 20
0.0405374 0.0569701 -0.00570584 49 33 26
0.0421435 0.0580545 -0.0101082 49 32 26
0.0477426 0.0588259 -0.00859024 48 32 25
0.0708627 0.0541356 -0.0489108 46 31 25
0.0590632 0.0638967 -0.0100337 45 29 24
0.0681567 0.0475185 -0.0594618 95 70 59
0.0716025 0.0581461 -0.0377693 56 39 33
0.0342158 0.0425404 -0.0470113 45 27 22
0.0620503 0.0627209 -0.00843508 45 29 24
0.0679863 0.0486266 -0.060481 92 68 56
0.069621 0.0473368 -0.059884 97 68 57
0.071173 0.0562895 -0.0483287 48 31 26
0.0337508 0.0579197 -0.00712798 48 32 26
0.0451773 0.0616513 -0.00703335 49 32 26
0.0550964 0.0592799 -0.00953332 50 31 24
0.0559155 0.0628567 -0.0110099 52 32 26
0.069611 0.0463927 -0.0609081 87 62 52
0.0706383 0.0622213 -0.0127595 43 28 23
0.0362195 0.059282 -0.00931149 48 31 26
0.0529112 0.0634151 -0.0118327 54 35 28
0.0524147 0.064086 -0.0113459 53 34 27
0.076007 0.0715152 -0.0132253 40 26 22
0.0711627 0.0565084 -0.0484147 48 31 26
0.036795 0.0553103 -0.00971408 48 32 27
0.0549473 0.062263 -0.0117478 54 35 29
0.0646027 0.0664553 -0.0101063 44 28 23
0.0317543 0.0548113 -0.0275689 42 25 20
0.0305485 0.0512427 -0.0230485 43 27 23
0.053499 0.0649596 -0.0126417 51 32 26
0.0552828 0.062065 -0.0119499 54 35 28
0.0620534 0.0626421 -0.00786196 45 29 24
0.0553567 0.0644129 -0.0120378 51 32 26
0.073623 0.0689284 -0.0173197 40 26 21
0.0722012 0.063886 -0.0203086 42 27 22
0.0693769 0.0487407 -0.0606554 92 66 55
0.0516019 0.0630908 -0.0118162 52 33 27
0.0704897 0.0671354 -0.00915242 42 27 21
0.053797 0.0663408 -0.0129812 47 28 23
0.0611921 0.068414 -0.0108723 45 28 23
0.0689371 0.070453 -0.0113232 43 27 22
0.0693449 0.0510551 -0.0590761 88 64 53
0.0688316 0.0492282 -0.0610001 95 71 60
0.0695288 0.0496253 -0.0623628 84 62 52
0.0453157 0.0658822 -0.0112104 58 42 36
0.0533329 0.0640681 -0.0124097 53 34 28
0.0550784 0.06407 -0.0151353 50 30 25
0.0665338 0.0673369 -0.00999903 43 28 23
0.0736612 0.0709564 -0.0181468 40 26 21
0.068554 0.0496614 -0.0589567 86 62 52
0.0355655 0.0617913 -0.019878 54 37 30
0.0721291 0.0657546 -0.0211941 41 26 21
0.0707995 0.0614441 -0.0365488 55 38 31
0.0345407 0.0595671 -0.0173958 51 33 27
0.0533186 0.065639 -0.0128319 49 30 25
0.0682895 0.0513546 -0.0592289 83 59 50
0.0368292 0.0585355 -0.00918755 48 32 27
0.0491938 0.0660297 -0.00914477 50 32 26
0.0544825 0.0619075 -0.011361 55 36 29
0.0691666 0.061199 -0.0366131 53 37 30
0.0724276 0.0636228 -0.0347096 54 38 32
0.0717631 0.0589623 -0.0452961 47 29 24
0.0312987 0.0678148 -0.010793 52 34 28
0.0481874 0.0632436 -0.00970481 51 33 27
0.0637669 0.0716255 -0.0126097 44 27 21
0.068967 0.0516074 -0.0587605 85 59 51
0.0713669 0.0659943 -0.0277468 38 24 19
0.068482 0.0498501 -0.0596268 88 64 54
0.0519155 0.0645038 -0.0125477 52 34 29
0.0430563 0.0663119 -0.0109253 53 35 28
0.0463501 0.0664258 -0.0099117 51 33 26
0.0388564 0.0684716 -0.0038924 51 33 26
0.0533093 0.0650062 -0.0112946 52 33 27
0.0640765 0.0712682 -0.0121484 43 27 21
0.0707614 0.0605275 -0.0399391 56 39 32
0.0717093 0.0595827 -0.0365302 56 40 33
0.053266 0.068528 -0.011946 45 26 21
0.0681913 0.0720187 -0.0134276 43 33 28
0.056902 0.0655727 -0.0112821 48 30 25
0.0633257 0.0722514 -0.0126829 44 27 21
0.0432032 0.0686743 -0.0120488 48 31 25
0.055271 0.0653318 -0.00937351 51 32 26
0.0695551 0.073319 -0.0210452 43 27 21
0.0467648 0.0647656 -0.0113445 52 34 27
0.0512806 0.0678155 -0.012284 46 29 23
0.0722702 0.0670491 -0.0125155 43 27 20
0.0715268 0.0607996 -0.0461502 45 29 24
0.0694067 0.0529101 -0.060609 71 50 41
0.0692002 0.0586825 -0.0395729 54 38 31
0.0314747 0.0558473 -0.0264542 42 26 21
0.0508798 0.0632922 -0.0100318 51 32 26
0.0603999 0.0722871 -0.0123482 50 32 25
0.0735113 0.0731846 -0.026865 55 38 31
0.0481005 0.0660787 -0.00978823 51 33 27
0.0672345 0.0743462 -0.0165029 41 25 19
0.0529622 0.0719982 -0.0125667 40 23 20
0.0544027 0.0639325 -0.0151025 49 30 25
0.0704849 0.0553919 -0.0586402 78 51 43
0.0546275 0.0699825 -0.0114875 43 24 20
0.0722688 0.0750774 -0.0189762 41 27 22
0.0690125 0.063579 -0.0385167 55 39 31
0.0611937 0.0731921 -0.0161362 50 32 25
0.0704269 0.0729504 -0.0224457 46 31 25
0.0697657 0.0534858 -0.061188 84 58 48
0.0585253 0.0725501 -0.0105986 49 32 26
0.0340113 0.0613174 -0.0155452 50 32 26
0.0541792 0.0713177 -0.00827907 43 24 20
0.0568284 0.0693866 -0.0127182 47 29 24
0.0457389 0.0665761 -0.0100515 51 33 27
0.0538705 0.0734524 -0.0125268 42 26 21
0.069702 0.0755652 -0.0178633 45 28 21
0.0710156 0.0714578 -0.0222588 42 27 22
0.0620216 0.0748858 -0.0132482 49 30 24
0.0559898 0.0716648 -0.0113318 44 27 22
0.0370156 0.0719864 -0.0188907 44 28 24
0.0488846 0.0701483 -0.0120646 46 30 24
0.0716442 0.0595839 -0.0464983 45 29 24
0.0471516 0.0754049 -0.00733742 46 30 24
0.0690458 0.0523825 -0.0603761 80 58 50
0.0451093 0.0720948 -0.0121168 47 30 24
0.0436008 0.0685096 -0.00858636 50 32 26
0.0504262 0.0677449 -0.00964025 47 30 25
0.0503872 0.0728845 -0.0127804 45 29 24
0.0538902 0.070458 -0.0104509 42 23 19
0.0697077 0.0529736 -0.0601282 79 56 45
0.0633691 0.0777507 -0.0203872 48 30 24
0.0725589 0.074513 -0.0235636 40 25 20
0.0691334 0.0662246 -0.0383747 55 39 31
0.071065 0.0527133 -0.0608789 85 60 50
0.0355028 0.0637337 -0.0203503 49 32 26
0.0688347 0.0767209 -0.0178081 45 29 23
0.0358737 0.0659015 -0.0188324 48 31 25
0.0475254 0.0745656 -0.00913825 46 30 24
0.0690399 0.0556979 -0.0571186 77 55 46
0.0516456 0.0763877 -0.0125357 45 29 24
0.06749 0.0761158 -0.0206731 45 28 23
0.0444926 0.0723228 -0.00882076 48 31 25
0.0618188 0.0786694 -0.0126368 46 29 22
0.0688047 0.0655542 -0.0391992 55 39 31
0.0700331 0.0593661 -0.0621402 74 50 42
0.052286 0.0818933 -0.00276814 44 29 24
0.0415168 0.0746872 -0.00821716 46 30 24
0.0421665 0.0631755 -0.0106376 50 33 26
0.0689304 0.0550651 -0.0595774 76 52 45
0.0466989 0.0739609 -0.0123567 45 29 23
0.0433939 0.0780758 -0.0163494 41 27 23
0.0534769 0.0779181 -0.0129671 44 29 24
0.034516 0.064501 -0.0306221 43 27 22
0.0596544 0.0798773 -0.011012 43 27 21
0.0703631 0.0589736 -0.0447506 47 31 26
0.0560593 0.0784587 -0.0132531 44 28 23
0.0355449 0.0646327 -0.0200245 48 32 26
0.0685263 0.0573408 -0.0601789 73 50 43
0.0387769 0.0742853 -0.0216271 46 31 25
0.0460892 0.0813167 -0.00964148 44 29 23
0.0634914 0.0769567 -0.0222642 47 30 24
0.0693012 0.0582717 -0.0613105 71 50 41
0.03666 0.0677384 -0.0219609 48 31 26
0.0656181 0.0781047 -0.0224304 56 39 33
0.0692931 0.0596272 -0.056124 78 56 46
0.0398607 0.0752064 -0.0164342 44 28 23
0.0598581 0.0793538 -0.016745 44 30 24
0.0544865 0.0797601 -0.0132967 44 29 23
0.0394507 0.0822319 -0.00713971 44 29 24
0.0414703 0.0801378 -0.0113338 43 29 23
0.0667366 0.0760896 -0.0188368 46 29 24
0.0685292 0.0785883 -0.0173586 44 28 23
0.068368 0.0619814 -0.0605655 74 52 43
0.0590639 0.079088 -0.0122461 43 27 22
0.0385682 0.0750431 -0.0199903 46 31 25
0.0532131 0.0790042 -0.0134129 44 28 23
0.0674676 0.0826769 -0.0269749 39 26 21
0.0391423 0.0534352 -0.0624625 78 53 44
0.0468809 0.0796882 -0.0133078 44 29 23
0.0535128 0.0779689 -0.0120335 44 29 24
0.067619 0.0587576 -0.059894 71 52 44
0.0667754 0.0594883 -0.0613963 62 43 36
0.0341556 0.0746623 -0.0254561 42 27 22
0.0407884 0.0536671 -0.0626242 55 36 29
0.0389342 0.0744753 -0.0207278 46 31 25
0.061483 0.080532 -0.0222017 44 29 24
0.04223 0.079672 -0.0125412 43 29 24
0.0471789 0.079552 -0.0134043 45 29 23
0.0517568 0.0848626 -0.0283666 48 32 27
0.0354377 0.0743201 -0.034012 53 34 29
0.0434862 0.0840996 -0.0286884 40 28 24
0.0425602 0.0827096 -0.0290345 40 27 23
0.0499305 0.0847736 -0.0292923 45 33 29
0.0638556 0.0330284 -0.0845275 0 0 0
0.0519081 0.0247223 -0.0605184 103 74 65
0.0514944 0.0258959 -0.0586259 94 66 59
0.0489054 0.0245397 -0.0560514 92 65 56
0.0504847 0.0265731 -0.063015 103 73 64
0.0513785 0.0230671 -0.0620752 0 0 0
0.0509455 0.0251105 -0.0586907 103 85 77
0.0525083 0.0236702 -0.0541138 93 69 60
