ply
format ascii 1.0
comment Created by Open3D
element vertex 1187
property double x
property double y
property double z
property uchar red
property uchar green
property uchar blue
end_header
0.0606902 0.126091 -0.022268 0 0 0
0.0631448 0.124248 -0.0595458 37 32 29
0.0670261 0.112682 -0.0345064 255 255 245
0.0785181 0.160238 -0.0339712 48 3 0
0.0694448 0.193937 -0.0245141 255 255 255
0.0848651 0.186527 -0.025493 209 101 84
0.0857332 0.184794 -0.0275559 129 0 0
0.075081 0.162037 -0.0360491 140 89 83
0.0663403 0.197975 -0.0296969 255 131 127
0.0892884 0.194296 -0.0390292 255 237 218
0.0584339 0.151335 -0.0552783 0 0 0
0.0756873 0.193451 -0.0451913 148 0 0
0.0759612 0.0948525 -0.0431998 255 255 255
0.0912372 0.19983 -0.0334078 255 253 237
0.0902583 0.188431 -0.0285612 188 119 101
0.0773305 0.1662 -0.0328464 217 137 123
0.063238 0.163361 -0.0503464 69 42 39
0.0737828 0.165088 -0.0506367 136 82 76
0.0643604 0.137002 -0.0648656 12 6 7
0.0582723 0.158403 -0.0479192 198 128 110
0.0629357 0.197405 -0.0383403 193 62 60
0.0743529 0.183739 -0.0493985 121 61 54
0.0835619 0.194605 -0.0475586 255 227 221
0.0797665 0.114918 -0.0321219 0 0 0
0.0670039 0.149302 -0.0548075 86 54 56
0.0861849 0.177885 -0.0496215 255 11 8
0.0469483 0.120857 -0.0429413 0 0 0
0.068649 0.186893 -0.0484881 255 255 252
0.059621 0.14081 -0.0488609 102 89 93
0.0564881 0.118838 -0.06075 54 39 35
0.0812393 0.171416 -0.0281531 184 112 104
0.0780827 0.204646 -0.0226396 255 134 112
0.0694603 0.194065 -0.0295109 255 162 139
0.0649472 0.184657 -0.0336478 223 13 0
0.0689175 0.181626 -0.0491914 190 129 117
0.0637558 0.171022 -0.027317 213 102 97
0.0890262 0.194537 -0.0346568 255 222 200
0.0742636 0.182963 -0.0267012 255 196 178
0.0858894 0.184705 -0.0321605 166 68 57
0.0823638 0.186671 -0.044923 81 36 26
0.078509 0.154255 -0.0426059 75 56 54
0.0492183 0.118753 -0.0485433 132 100 90
0.0591916 0.143972 -0.0219514 0 0 0
0.0639128 0.129371 -0.0528106 32 21 20
0.0900172 0.194794 -0.0345391 255 255 241
0.0841555 0.178901 -0.0318984 152 92 84
0.0774209 0.194766 -0.0253246 255 234 213
0.0742575 0.194499 -0.0190843 255 239 216
0.0853421 0.182871 -0.034277 187 114 105
0.0638732 0.164178 -0.0523424 111 82 76
0.0864676 0.196081 -0.0417755 255 255 240
0.0792741 0.15358 -0.0404906 60 36 33
0.0771216 0.199861 -0.020909 255 255 255
0.0700262 0.162487 -0.0537415 175 113 104
0.0764188 0.194755 -0.0448993 255 255 255
0.0861597 0.184978 -0.0288467 248 147 131
0.0649317 0.1935 -0.0355055 48 0 0
0.0710131 0.186345 -0.0446287 151 89 82
0.064594 0.190243 -0.0291616 183 101 76
0.0663957 0.187895 -0.0345937 192 110 101
0.0846661 0.184066 -0.0367443 163 96 88
0.0844228 0.178568 -0.0353621 151 94 85
0.0648771 0.18569 -0.0371127 131 85 77
0.0829767 0.184038 -0.0282581 241 151 140
0.0770086 0.192838 -0.0257291 133 0 0
0.0763508 0.17659 -0.0189158 255 255 255
0.0827541 0.185567 -0.0273985 255 182 167
0.0868225 0.187364 -0.0240819 255 136 111
0.0802609 0.177138 -0.0363992 162 103 97
0.0746705 0.191895 -0.0277555 236 91 81
0.085793 0.190322 -0.0431696 255 255 255
0.0784729 0.175343 -0.0342998 255 169 156
0.0793302 0.193738 -0.0465826 255 203 189
0.0647739 0.179335 -0.0399232 118 59 53
0.0807471 0.189398 -0.0464574 255 196 178
0.0864558 0.196432 -0.0349993 205 100 90
0.0774687 0.171271 -0.0494315 89 39 33
0.0752915 0.200797 -0.0458066 255 163 149
0.0739208 0.170094 -0.0337455 160 93 81
0.0655781 0.192718 -0.0314261 255 193 184
0.0683966 0.16775 -0.0328407 230 167 154
0.065478 0.19236 -0.0307851 255 207 175
0.0663936 0.195218 -0.0278888 231 77 69
0.0781824 0.194044 -0.0466921 255 255 255
0.0853528 0.172983 -0.0457795 255 255 255
0.0787747 0.191106 -0.0461845 255 255 255
0.0802277 0.174634 -0.045387 133 77 67
0.0818273 0.19464 -0.0466429 208 255 255
0.0769784 0.184237 -0.0268256 223 142 131
0.0755095 0.179442 -0.0265696 133 54 44
0.0834323 0.193458 -0.0462766 255 133 124
0.0889493 0.189791 -0.023019 255 255 255
0.0678649 0.189737 -0.0337869 199 111 102
0.0791923 0.136917 -0.0369508 188 123 116
0.0689517 0.17416 -0.0317414 129 71 61
0.0689041 0.197828 -0.0407003 255 139 108
0.070339 0.147308 -0.0549248 48 33 30
0.06718 0.182893 -0.0466824 92 43 37
0.0774687 0.192383 -0.0269671 221 118 104
0.0627639 0.191008 -0.042337 225 130 116
0.0807438 0.183198 -0.0467722 255 183 171
0.0666087 0.184731 -0.0449892 145 83 75
0.0831182 0.20025 -0.0229525 255 145 126
0.0879835 0.187182 -0.024813 255 255 255
0.0790858 0.167822 -0.0474478 159 101 86
0.0671498 0.195082 -0.0310686 247 149 137
0.079825 0.170144 -0.0336495 146 92 77
0.0666479 0.187321 -0.0344522 188 107 97
0.0759474 0.174978 -0.0496201 158 99 87
0.0718576 0.191543 -0.025314 255 184 168
0.0731039 0.192027 -0.0267555 255 178 156
0.0674132 0.197063 -0.0420968 255 157 142
0.0689564 0.199191 -0.0390452 255 159 143
0.0781821 0.198344 -0.0487127 255 182 173
0.0774772 0.190129 -0.0283927 79 7 0
0.0699132 0.16393 -0.0316429 138 88 80
0.0756187 0.176281 -0.0313382 123 72 65
0.0827477 0.157704 -0.0420884 188 145 134
0.080889 0.181746 -0.045136 165 107 101
0.0725772 0.195173 -0.0258402 242 193 173
0.0770053 0.185503 -0.0294917 58 5 0
0.0754275 0.193103 -0.0444348 255 166 151
0.0834452 0.174402 -0.0461302 98 47 37
0.0750698 0.195704 -0.0222752 255 165 148
0.0873849 0.185959 -0.0282959 255 255 255
0.0671697 0.186592 -0.0328778 160 61 56
0.0785172 0.175381 -0.0344677 255 238 238
0.071418 0.143445 -0.0599929 255 200 185
0.077088 0.202291 -0.024109 255 239 217
0.0744239 0.180026 -0.0281026 159 98 76
0.0785696 0.177642 -0.030187 183 130 124
0.0625784 0.192752 -0.0409394 255 163 149
0.0778087 0.167997 -0.0465259 181 121 104
0.0789551 0.191385 -0.0465006 242 147 133
0.0686842 0.188129 -0.0357883 132 72 64
0.0784924 0.169562 -0.0464839 47 0 0
0.0802312 0.183055 -0.0455826 55 0 0
0.0847797 0.185144 -0.027194 255 255 255
0.0834617 0.178409 -0.0338644 52 16 9
0.0698657 0.193471 -0.0287751 255 173 150
0.0644034 0.17347 -0.0372873 154 91 86
0.0638689 0.178903 -0.0445892 151 84 77
0.063168 0.140332 -0.0413693 35 25 24
0.0867192 0.178815 -0.0306082 201 104 90
0.0791749 0.193626 -0.050058 41 12 0
0.0669107 0.176503 -0.0363623 150 83 74
0.0872415 0.185575 -0.0273637 104 35 13
0.0750546 0.155962 -0.0386015 112 70 63
0.071196 0.111537 -0.0542599 0 0 0
0.0674182 0.168486 -0.0393531 107 63 62
0.0770708 0.17213 -0.0314622 188 69 52
0.0798588 0.167985 -0.0441411 117 72 66
0.0739884 0.178333 -0.0489076 192 122 111
0.0869979 0.186621 -0.0269362 197 116 101
0.0787896 0.194716 -0.0463236 255 150 142
0.0812676 0.165862 -0.0427126 122 73 63
0.0760388 0.188736 -0.029289 137 68 58
0.063966 0.119838 -0.0384606 255 255 255
0.0582166 0.160048 -0.0571763 0 0 0
0.0874817 0.19281 -0.035314 255 255 255
0.0787588 0.165928 -0.0330261 235 180 174
0.0639373 0.172767 -0.0385398 133 85 81
0.077881 0.174337 -0.0452279 153 100 94
0.0837784 0.195908 -0.0451248 255 189 181
0.0681959 0.195031 -0.0419942 124 55 46
0.0733797 0.198161 -0.0436471 255 165 143
0.0737628 0.192691 -0.0273578 255 255 255
0.0875748 0.184586 -0.0304339 255 255 255
0.080771 0.151341 -0.0388706 201 140 123
0.0710304 0.178311 -0.0289706 141 82 76
0.0679752 0.195661 -0.0415397 244 151 132
0.0866372 0.176823 -0.0355587 167 97 85
0.0551815 0.13756 -0.0433613 0 0 0
0.0749616 0.180593 -0.0339274 81 31 25
0.0696001 0.18646 -0.0471236 127 64 58
0.076519 0.161298 -0.0388658 118 71 65
0.0637458 0.19795 -0.0332387 255 177 157
0.0536501 0.123224 -0.0554839 208 119 119
0.0724301 0.193428 -0.0233592 255 255 255
0.0834989 0.189302 -0.0476 255 255 255
0.0669315 0.13253 -0.0618411 89 48 44
0.0736655 0.0994021 -0.0532646 0 0 0
0.062159 0.101318 -0.0666134 0 0 0
0.0776934 0.18771 -0.0507111 255 65 81
0.085841 0.189709 -0.0305277 255 198 181
0.0539387 0.14068 -0.051297 37 28 25
0.0705823 0.204127 -0.0279308 255 177 155
0.0658633 0.123919 -0.0578934 39 34 30
0.0645157 0.12377 -0.0502472 48 35 35
0.0721049 0.17855 -0.0251639 255 221 202
0.0719517 0.092729 -0.0485132 208 136 125
0.0656059 0.185814 -0.0272712 182 0 0
0.0686304 0.175691 -0.0517799 207 144 135
0.0694476 0.128096 -0.0249643 255 232 209
0.0613411 0.106152 -0.0676893 0 0 0
0.0837597 0.108198 -0.039223 255 205 188
0.06163 0.148438 -0.0544722 71 46 43
0.0876646 0.188636 -0.0377794 255 255 255
0.0574597 0.157527 -0.0479628 223 159 139
0.081695 0.180714 -0.028279 236 151 139
0.0819029 0.110108 -0.0435636 211 154 149
0.0595714 0.115983 -0.040657 165 56 41
0.0721429 0.184678 -0.0300452 94 43 34
0.0786864 0.161166 -0.0183738 255 255 255
0.0856931 0.203319 -0.0415635 255 183 164
0.0893056 0.20153 -0.0351527 255 242 218
0.0897897 0.186636 -0.0352657 204 202 191
0.060937 0.124592 -0.0401142 201 133 120
0.0693223 0.195308 -0.0245259 255 230 207
0.0732512 0.150786 -0.0401953 119 69 64
0.0614445 0.114656 -0.0550047 39 28 27
0.088458 0.190525 -0.0362446 255 255 255
0.0714008 0.168199 -0.0526063 58 30 27
0.0512125 0.132081 -0.0624441 0 0 0
0.0909891 0.199546 -0.0309224 255 83 58
0.0834177 0.184349 -0.0256061 255 255 255
0.0617741 0.128109 -0.0476495 21 17 14
0.0563731 0.13507 -0.0518633 64 43 37
0.0700498 0.189952 -0.0273213 190 53 34
0.0744047 0.196708 -0.0231784 255 255 255
0.0766907 0.166942 -0.0478759 34 4 0
0.0841033 0.188387 -0.0442066 255 255 255
0.0684125 0.147575 -0.0571656 116 81 86
0.0742354 0.104384 -0.0590188 0 0 0
0.0745124 0.154183 -0.0379442 255 213 211
0.0692743 0.205282 -0.0309749 255 199 177
0.057284 0.122566 -0.0587341 37 25 23
0.0674988 0.127234 -0.0424233 24 32 34
0.0593007 0.118231 -0.0577283 0 0 0
0.0657508 0.133851 -0.0330392 0 0 0
0.0763139 0.12012 -0.0558774 54 67 76
0.0874669 0.146957 -0.0316756 0 0 0
0.0801471 0.170452 -0.0492808 57 14 6
0.063092 0.133196 -0.0271308 246 176 175
0.0708212 0.10542 -0.0549337 0 0 0
0.0689124 0.102438 -0.0672571 0 0 0
0.0792835 0.121304 -0.0362722 0 0 17
0.0739381 0.164399 -0.0219907 255 255 255
0.0586875 0.13388 -0.0596148 132 77 73
0.0820103 0.129083 -0.0434647 158 118 101
0.0660534 0.0757001 -0.0434606 255 242 226
0.0810377 0.118728 -0.0358127 255 216 240
0.0698986 0.164699 -0.0175002 255 255 255
0.0653208 0.178872 -0.041997 255 157 140
0.07349 0.184028 -0.0317577 122 62 52
0.0726407 0.171893 -0.0542473 144 72 63
0.0732746 0.162426 -0.0529569 136 112 102
0.0676146 0.181914 -0.034719 98 44 38
0.0877109 0.202622 -0.0355749 255 232 205
0.0666651 0.143464 -0.0564136 40 37 35
0.0718745 0.155475 -0.0383119 102 55 49
0.0776739 0.13349 -0.0433908 72 38 31
0.062191 0.127307 -0.051709 0 4 3
0.0853985 0.187293 -0.0409758 224 255 255
0.0741466 0.159336 -0.0526243 34 0 0
0.0540948 0.121499 -0.0628517 0 0 0
0.0787524 0.180817 -0.0209035 255 195 165
0.086183 0.190564 -0.0392457 255 255 255
0.0826664 0.203552 -0.0211572 255 192 169
0.085945 0.1899 -0.0397358 255 255 255
0.0760997 0.195421 -0.0465001 253 141 128
0.0652399 0.186973 -0.0347333 202 158 146
0.0745319 0.157829 -0.0543871 186 127 118
0.0555159 0.134481 -0.0509574 117 87 82
0.0805628 0.17736 -0.04827 49 6 0
0.078507 0.172787 -0.0469801 79 42 38
0.0659687 0.187494 -0.0344822 158 86 81
0.0797477 0.172599 -0.0456932 48 0 0
0.0730836 0.191016 -0.0297726 119 55 48
0.0822195 0.178918 -0.0288558 255 182 177
0.0825638 0.184583 -0.0284405 204 123 112
0.0831075 0.181119 -0.0328659 26 0 0
0.0806347 0.18143 -0.0267808 144 85 76
0.0839806 0.179985 -0.0369248 135 76 67
0.0799592 0.18282 -0.0283736 255 161 150
0.0773924 0.187884 -0.0531042 219 126 119
0.0634043 0.158891 -0.0425198 76 54 51
0.0805977 0.18149 -0.0426789 133 74 65
0.0724946 0.122636 -0.0429312 126 78 71
0.07991 0.188346 -0.0234107 140 65 51
0.0774068 0.193475 -0.0240054 229 39 16
0.0681619 0.179659 -0.0466037 125 74 73
0.0690874 0.191828 -0.0292744 255 176 154
0.0837432 0.178413 -0.0362248 96 45 37
0.0719636 0.194217 -0.0297034 253 147 129
0.0882996 0.185934 -0.0338697 148 0 10
0.0715854 0.191261 -0.0232595 255 236 209
0.0773192 0.185676 -0.0286177 134 71 62
0.0853235 0.189271 -0.0422141 255 255 255
0.081342 0.194498 -0.0266981 255 191 174
0.064504 0.197927 -0.0367383 255 158 142
0.0800427 0.195826 -0.0466204 255 147 137
0.0852875 0.187497 -0.0430871 255 255 255
0.0773846 0.167716 -0.050857 226 138 116
0.0619701 0.162206 -0.0480429 140 89 83
0.0763829 0.17618 -0.0339953 168 99 89
0.0787954 0.187884 -0.0485309 160 90 83
0.0790642 0.174934 -0.0349562 255 219 202
0.0859606 0.186266 -0.0269987 225 137 122
0.0767933 0.192765 -0.0473868 255 157 144
0.0700335 0.1931 -0.0284336 255 246 214
0.0646059 0.196058 -0.038911 247 175 163
0.0646195 0.196718 -0.0386598 255 162 148
0.0805323 0.191145 -0.0226654 255 255 255
0.0788831 0.17715 -0.0524258 154 127 108
0.0796546 0.183971 -0.0475142 162 88 82
0.080772 0.184706 -0.0462153 148 78 71
0.081995 0.174273 -0.0320965 170 124 106
0.0824239 0.194717 -0.0418379 255 225 209
0.0762192 0.174854 -0.0552562 144 87 74
0.0640636 0.181638 -0.0339451 181 121 109
0.0793706 0.190751 -0.024047 247 175 164
0.0737712 0.198538 -0.0453981 255 165 144
0.0919575 0.194855 -0.0345275 255 255 255
0.0727704 0.194066 -0.0454228 255 246 228
0.0784776 0.17487 -0.0426434 101 48 38
0.078405 0.195626 -0.0456458 211 127 124
0.0748411 0.197903 -0.0459138 255 161 145
0.0763899 0.182562 -0.0291818 94 42 37
0.0767829 0.176001 -0.0307402 184 130 123
0.0839993 0.185337 -0.0257805 255 255 255
0.0802653 0.195262 -0.0445012 255 175 166
0.0819912 0.195179 -0.0420388 255 217 207
0.0821114 0.145521 -0.0430217 255 255 255
0.0773906 0.174766 -0.0507605 112 56 49
0.0796262 0.187074 -0.0290359 128 72 62
0.0676467 0.186085 -0.0304848 73 8 3
0.0735401 0.163974 -0.0335287 176 101 91
0.0688597 0.197512 -0.0405781 255 145 129
0.0845471 0.186114 -0.0267676 255 255 240
0.0769361 0.193309 -0.0459938 154 41 19
0.0677594 0.18524 -0.0407756 162 94 84
0.0838368 0.17895 -0.0350217 78 34 25
0.0825402 0.188301 -0.0399563 120 35 25
0.0778578 0.178166 -0.0491882 125 70 62
0.0778401 0.173887 -0.0340642 255 191 182
0.0800992 0.196653 -0.0215609 198 238 209
0.0915342 0.20179 -0.0329701 255 245 223
0.0624079 0.184671 -0.0484212 255 161 147
0.0745729 0.189178 -0.0287392 109 58 43
0.0667868 0.194862 -0.0328773 246 149 137
0.0647802 0.178423 -0.0354602 155 97 86
0.0737764 0.159836 -0.0476391 129 80 74
0.0830789 0.176584 -0.0297692 108 54 45
0.0775979 0.16344 -0.0523613 250 197 194
0.0709717 0.198891 -0.0345471 248 143 128
0.0805722 0.187436 -0.0220779 255 229 236
0.0816468 0.186975 -0.0257848 237 150 130
0.0830151 0.188056 -0.0255906 170 77 61
0.0659299 0.196547 -0.0384932 241 120 111
0.0657626 0.18499 -0.0323222 133 79 69
0.0712985 0.190061 -0.0274347 255 255 255
0.0772751 0.174791 -0.0433791 31 2 0
0.0681196 0.196628 -0.0422163 255 128 106
0.0869368 0.185852 -0.0271707 255 255 255
0.0696562 0.199159 -0.0396198 255 168 146
0.0794978 0.196072 -0.045153 255 188 175
0.0728369 0.194457 -0.0468224 226 103 91
0.0779007 0.20475 -0.0216506 255 243 217
0.0624912 0.0504219 -0.0567519 0 0 0
0.0640696 0.167127 -0.0398245 38 0 0
0.0672388 0.190553 -0.0400758 163 86 78
0.064975 0.0640498 -0.0554925 0 0 0
0.0776538 0.184572 -0.0246133 111 5 0
0.0778514 0.192479 -0.0469819 208 102 89
0.0669682 0.194058 -0.0266444 255 255 255
0.0933488 0.18843 -0.0330009 255 255 255
0.0740038 0.195064 -0.0224261 180 73 80
0.0672386 0.192757 -0.0310322 255 184 162
0.0825016 0.182114 -0.03046 158 97 91
0.0624165 0.140567 -0.04127 140 93 84
0.0804822 0.174626 -0.0342285 255 255 255
0.0583146 0.148668 -0.0382877 27 0 0
0.0662244 0.149702 -0.037043 102 62 57
0.0770887 0.182078 -0.0298057 49 3 0
0.0841808 0.181985 -0.0355664 82 26 19
0.071223 0.184751 -0.0489661 255 255 255
0.0764324 0.180887 -0.0267806 133 65 58
0.0688129 0.18018 -0.0356914 197 124 115
0.0854078 0.176515 -0.0380839 255 255 255
0.0722613 0.147633 -0.0379219 141 93 86
0.0779997 0.17193 -0.044734 187 107 96
0.0711152 0.194712 -0.0451156 255 177 159
0.0754436 0.193275 -0.0458767 255 199 184
0.0684481 0.195382 -0.042849 255 139 122
0.0821813 0.173261 -0.0241815 109 16 0
0.0626148 0.170369 -0.0355588 121 66 59
0.0771252 0.193894 -0.0456092 255 255 255
0.0700842 0.1831 -0.0362019 149 87 78
0.0737006 0.185129 -0.029761 248 168 157
0.0692734 0.193107 -0.02861 255 172 147
0.0634463 0.17484 -0.0362988 165 109 102
0.0618554 0.180829 -0.0399935 255 93 107
0.0702158 0.189677 -0.0296429 76 27 19
0.0586663 0.158879 -0.0438641 111 105 94
0.0697069 0.180307 -0.0485678 255 255 255
0.0704671 0.182095 -0.0269495 255 193 171
0.0799892 0.183291 -0.0255993 255 255 255
0.0697304 0.199762 -0.0394414 255 161 142
0.0823648 0.185752 -0.023203 0 34 20
0.0703312 0.136376 -0.0522047 27 22 20
0.073097 0.195377 -0.0457874 247 120 108
0.0713406 0.197979 -0.0372952 176 103 93
0.0796654 0.183189 -0.0476551 212 142 132
0.0761046 0.19624 -0.0434471 255 165 148
0.0738288 0.164127 -0.0501616 189 124 113
0.0849985 0.18199 -0.024754 255 255 255
0.0637934 0.185349 -0.039099 177 106 100
0.087215 0.185788 -0.027113 255 255 255
0.0619766 0.120367 -0.0400667 255 221 203
0.0853003 0.185029 -0.0334422 31 2 0
0.0804961 0.182152 -0.0225576 102 0 0
0.0743144 0.18364 -0.0496566 157 95 86
0.0629829 0.129526 -0.0534642 29 22 19
0.0904616 0.166261 -0.0357446 255 255 255
0.0870784 0.186721 -0.0311043 246 121 107
0.0762108 0.180971 -0.0507866 157 91 85
0.0857473 0.181648 -0.0483454 206 0 0
0.0817822 0.196577 -0.0453256 255 154 141
0.0851689 0.191201 -0.042658 255 217 210
0.0628903 0.164394 -0.0496734 87 56 51
0.0855413 0.173337 -0.039721 63 0 0
0.0611487 0.185502 -0.0388989 255 179 170
0.0727667 0.194417 -0.0292649 255 171 149
0.079816 0.181383 -0.0402894 77 27 19
0.068537 0.195828 -0.04269 255 158 149
0.06464 0.176308 -0.0431348 153 86 77
0.0852006 0.18259 -0.0337419 182 117 110
0.0641495 0.188845 -0.0359418 177 81 75
0.0854588 0.183519 -0.0340229 174 106 100
0.0760689 0.172093 -0.0523561 170 96 87
0.079477 0.174298 -0.0348212 229 151 137
0.0711588 0.159373 -0.0353426 92 51 47
0.0886206 0.200605 -0.0371332 255 227 202
0.0748577 0.148572 -0.0411979 74 21 20
0.0674387 0.182675 -0.046193 70 0 0
0.0716378 0.14061 -0.0400187 145 88 81
0.0849124 0.196097 -0.0351524 197 78 61
0.0747957 0.195513 -0.0223909 255 255 239
0.078221 0.204452 -0.0224406 255 236 212
0.0764861 0.194743 -0.0447469 255 242 226
0.0634596 0.16458 -0.0511055 89 57 51
0.0708956 0.159547 -0.0552343 180 113 102
0.0619423 0.196211 -0.0364448 82 0 0
0.065518 0.183129 -0.0318303 255 219 206
0.0676522 0.179977 -0.04419 150 91 80
0.0589973 0.162567 -0.0387056 0 0 0
0.0758213 0.166065 -0.0447939 75 42 37
0.0823782 0.181129 -0.0485666 96 17 4
0.0646691 0.175562 -0.0398565 255 210 190
0.062866 0.191486 -0.0390363 118 0 0
0.0702133 0.189686 -0.0251537 255 255 255
0.074348 0.165208 -0.0341137 223 145 132
0.0822079 0.195234 -0.045996 255 178 161
0.0788262 0.173906 -0.0456905 100 48 44
0.0657908 0.177421 -0.0445598 157 103 89
0.076933 0.164111 -0.0162559 255 255 255
0.0702894 0.18041 -0.0356794 172 105 94
0.0750109 0.185489 -0.0515513 255 255 255
0.0555432 0.133521 -0.0492006 145 20 13
0.064047 0.193896 -0.036654 236 141 122
0.0912091 0.186915 -0.0347918 255 152 106
0.0781237 0.192814 -0.0447227 234 149 140
0.0568419 0.113994 -0.0509703 112 72 70
0.0526537 0.0505155 -0.0523186 0 0 0
0.0653 0.173325 -0.0366966 146 81 71
0.0512469 0.121847 -0.0370834 0 0 0
0.0729317 0.147963 -0.0337003 0 0 0
0.0870481 0.194338 -0.0392248 228 162 152
0.0531081 0.0652412 -0.0506874 0 0 0
0.0695707 0.0924493 -0.0619095 0 0 0
0.0919117 0.196942 -0.0342006 255 153 125
0.0691914 0.168769 -0.033309 153 98 90
0.0848876 0.145036 -0.0506666 255 206 187
0.0676838 0.0875904 -0.058173 0 0 0
0.0778138 0.189711 -0.0498444 255 255 255
0.0915498 0.191629 -0.0264161 255 170 157
0.0906928 0.164556 -0.0266709 255 255 255
0.0718644 0.179099 -0.0306224 159 135 130
0.0755133 0.179449 -0.0317322 79 32 24
0.0794189 0.175311 -0.0400472 149 94 84
0.077823 0.144672 -0.0440498 28 8 0
0.0560036 0.148684 -0.0586158 62 36 32
0.0668835 0.180206 -0.0310078 110 54 47
0.0784065 0.0947227 -0.0442922 251 174 171
0.0592727 0.128906 -0.0627022 176 30 19
0.0785706 0.0981853 -0.0546392 137 95 87
0.0642704 0.1112 -0.0735729 0 0 0
0.0525661 0.0424633 -0.0530602 0 0 0
0.0681508 0.173799 -0.0337692 93 44 34
0.0713734 0.135105 -0.0475173 38 32 30
0.0490389 0.124184 -0.0590248 0 0 0
0.0811163 0.201545 -0.0244145 255 203 190
0.0718143 0.189187 -0.0241862 242 190 165
0.0604776 0.137964 -0.0578501 0 0 0
0.0679185 0.194224 -0.0296523 253 157 145
0.0656259 0.177608 -0.0447207 122 72 63
0.0659496 0.183192 -0.0322817 200 108 98
0.0742671 0.186698 -0.0262882 242 123 103
0.0771412 0.190533 -0.0212621 255 255 255
0.0915196 0.197303 -0.0357493 255 255 255
0.0835128 0.187869 -0.0261147 214 120 102
0.0877717 0.192528 -0.0365472 64 255 255
0.0747053 0.183099 -0.050024 149 86 78
0.0513467 0.121597 -0.0518548 0 0 0
0.0596497 0.141094 -0.0560643 112 68 62
0.0610719 0.124761 -0.0537555 83 51 53
0.0551199 0.0522395 -0.0521408 0 0 0
0.0677289 0.107984 -0.0606304 0 0 0
0.0738157 0.135128 -0.035581 31 0 0
0.058038 0.0823854 -0.0376504 0 0 0
0.075122 0.158045 -0.0451141 68 44 41
0.0898367 0.191032 -0.038383 255 108 99
0.0762062 0.180927 -0.0298334 170 111 102
0.069724 0.176118 -0.0345684 137 81 72
0.0914637 0.199205 -0.0272924 255 189 167
0.0708602 0.179885 -0.0361014 70 0 0
0.0649413 0.113012 -0.0385666 0 0 0
0.0607971 0.161724 -0.0448465 55 28 25
0.0694084 0.086147 -0.0595449 0 0 0
0.0825155 0.172671 -0.0285388 138 87 79
0.0686248 0.172115 -0.0524384 148 94 84
0.0788453 0.177307 -0.0405491 223 148 138
0.0757623 0.14409 -0.0396566 29 0 0
0.0640708 0.178618 -0.034484 183 121 113
0.0781515 0.096731 -0.0458088 255 255 234
0.07344 0.128944 -0.0488707 134 89 78
0.069163 0.134775 -0.0559074 62 60 61
0.0505244 0.0459036 -0.0524212 0 0 0
0.065957 0.169742 -0.033909 121 72 64
0.077816 0.136237 -0.0473218 229 212 198
0.0673934 0.19303 -0.0288775 227 103 98
0.0724124 0.190567 -0.0215673 255 255 255
0.0510757 0.12204 -0.0604829 0 0 0
0.0548471 0.139895 -0.0528154 25 17 15
0.0710862 0.162185 -0.0572199 87 53 49
0.0583895 0.134257 -0.060516 146 91 79
0.0682947 0.104387 -0.0676061 0 0 0
0.0602121 0.108914 -0.0687128 0 0 0
0.0529742 0.116393 -0.0473576 85 32 23
0.057206 0.123604 -0.0655062 0 0 0
0.0941993 0.184406 -0.0366009 255 255 255
0.087021 0.203834 -0.0360977 255 165 148
0.0882938 0.183813 -0.0396206 0 255 255
0.0762474 0.2039 -0.022305 255 255 255
0.066898 0.183373 -0.0357413 220 138 132
0.0660687 0.189542 -0.0296804 255 255 255
0.0645099 0.188963 -0.0301585 217 131 120
0.0547536 0.132879 -0.0521928 129 85 80
0.0789779 0.175629 -0.0459624 158 94 90
0.0660888 0.183445 -0.034195 146 83 75
0.0844426 0.177517 -0.041567 157 83 66
0.0700204 0.187179 -0.0291435 197 150 141
0.0719472 0.189674 -0.0274622 222 133 115
0.0752253 0.152869 -0.0369192 51 28 26
0.0797882 0.179039 -0.0294299 160 102 92
0.0747931 0.188606 -0.0227321 157 0 0
0.0651944 0.191296 -0.0443678 133 68 58
0.0696506 0.188813 -0.0506556 255 255 255
0.074917 0.19371 -0.0469524 142 60 53
0.0753468 0.18474 -0.0499215 187 113 101
0.06636 0.187579 -0.0361842 129 53 48
0.0603212 0.149522 -0.0429773 31 1 0
0.0724241 0.130834 -0.041176 166 111 104
0.0818675 0.185746 -0.0400981 93 30 22
0.0643563 0.190253 -0.0407871 255 55 60
0.0652076 0.19064 -0.0339931 255 164 146
0.0656271 0.180655 -0.0408238 255 190 196
0.082876 0.19546 -0.038482 230 0 0
0.0766243 0.198116 -0.0214649 255 162 119
0.0746157 0.190105 -0.0236062 127 118 111
0.0639366 0.178624 -0.0288911 255 181 170
0.0874577 0.190649 -0.0445891 232 255 255
0.0873922 0.188291 -0.0410189 237 174 126
0.0850781 0.189744 -0.0217024 231 184 179
0.0758215 0.170766 -0.0336038 152 81 70
0.0712808 0.178303 -0.0515617 163 99 91
0.0784976 0.17838 -0.0339734 147 68 55
0.0798623 0.169693 -0.0464153 255 189 171
0.0710524 0.177276 -0.0523664 167 91 83
0.0747556 0.146145 -0.0533054 46 31 28
0.0661401 0.190575 -0.0295737 195 54 48
0.0770468 0.162434 -0.0335303 166 101 90
0.0805077 0.191884 -0.0468823 255 200 182
0.0640513 0.170592 -0.0362664 166 104 98
0.0881989 0.188645 -0.0411825 197 62 0
0.0830817 0.186484 -0.0376368 207 120 107
0.0838057 0.189424 -0.0371836 192 104 93
0.086303 0.182944 -0.0454043 255 255 255
0.0871521 0.187273 -0.0392599 80 0 0
0.082069 0.179359 -0.0379794 92 41 33
0.089491 0.194655 -0.0249926 255 177 156
0.0692307 0.19354 -0.0275993 255 183 168
0.0853937 0.171204 -0.0386587 255 255 250
0.0653775 0.191515 -0.0336992 255 225 198
0.0643607 0.197162 -0.0434911 149 84 74
0.0764968 0.194686 -0.046091 239 127 112
0.0647079 0.19683 -0.0287011 255 168 146
0.0765073 0.176121 -0.0483496 102 49 43
0.0847454 0.175458 -0.0359473 47 0 0
0.0868336 0.193901 -0.0239786 255 151 129
0.0737159 0.197532 -0.0450163 255 169 151
0.066629 0.191655 -0.0427128 255 182 157
0.0829008 0.204052 -0.0261409 148 56 41
0.0833232 0.197326 -0.0447274 255 170 163
0.074398 0.160379 -0.0358094 49 22 19
0.0635056 0.182904 -0.0346248 181 132 119
0.0888612 0.18971 -0.0329039 174 54 48
0.0645479 0.194579 -0.0406602 255 213 189
0.0717802 0.19514 -0.0453131 213 111 99
0.0801397 0.202133 -0.0458322 255 255 252
0.0542588 0.0759392 -0.0492225 0 0 0
0.0844544 0.19687 -0.0226915 253 127 112
0.0816615 0.177317 -0.0393712 152 100 90
0.0670358 0.18492 -0.0402735 153 89 80
0.0746359 0.196076 -0.0469083 255 139 124
0.0706203 0.194136 -0.046424 255 246 217
0.0770764 0.186903 -0.0277399 123 35 25
0.0704387 0.191686 -0.0234837 255 255 255
0.0710145 0.164037 -0.0250036 255 227 213
0.0900287 0.184974 -0.0349153 255 255 255
0.0687752 0.196214 -0.04161 255 158 137
0.0819414 0.14594 -0.0363825 131 98 88
0.0747756 0.197506 -0.0469288 255 168 153
0.0704702 0.183503 -0.0324852 144 85 76
0.0659628 0.186756 -0.0408845 72 3 0
0.0683306 0.158537 -0.0338327 8 0 0
0.0713818 0.195345 -0.0452032 255 140 123
0.0746633 0.198315 -0.0446421 255 125 108
0.0782815 0.206362 -0.0234942 255 255 255
0.0886417 0.195031 -0.0352763 209 42 0
0.0788691 0.206905 -0.0236903 255 255 255
0.0772485 0.172657 -0.0495004 205 143 134
0.0640085 0.181153 -0.0450039 219 128 117
0.0650074 0.196354 -0.0277917 255 149 132
0.0868926 0.185935 -0.0334889 255 255 252
0.0854777 0.186079 -0.0275801 119 11 0
0.064278 0.190584 -0.0359044 135 60 53
0.0790265 0.194651 -0.0465579 255 178 169
0.0816474 0.184175 -0.0262387 255 255 255
0.0655863 0.18783 -0.0363184 175 95 88
0.0794754 0.173726 -0.0350558 243 163 149
0.0661187 0.19818 -0.0392171 255 165 147
0.0819522 0.193491 -0.0414536 255 143 130
0.0661211 0.185325 -0.0428547 104 43 36
0.0748507 0.183587 -0.0302351 160 95 86
0.0744729 0.184443 -0.0272269 255 255 255
0.06378 0.188898 -0.0372532 134 0 0
0.0658013 0.188939 -0.0307412 201 109 99
0.0729969 0.192409 -0.0263239 255 251 238
0.0606039 0.198947 -0.0350867 255 169 148
0.0822251 0.180507 -0.0453149 146 80 74
0.0687258 0.196552 -0.0399585 255 169 152
0.0676495 0.194192 -0.0300803 147 2 0
0.0730764 0.197558 -0.0446208 255 166 151
0.0751264 0.197242 -0.0476876 255 152 140
0.0845339 0.187631 -0.0326469 121 70 62
0.0784301 0.194 -0.0445045 255 157 142
0.0758418 0.201504 -0.0435404 255 148 131
0.0678871 0.180486 -0.0462473 255 217 211
0.0821116 0.182412 -0.0290376 233 140 131
0.0594412 0.0449288 -0.0550727 0 0 0
0.0638922 0.189357 -0.0380708 218 147 138
0.0596945 0.159597 -0.0445591 83 57 54
0.0785003 0.18173 -0.0507311 146 82 76
0.0817419 0.184486 -0.0401182 175 104 95
0.0778742 0.158095 -0.0500576 0 0 0
0.0782349 0.16909 -0.0308124 86 13 6
0.0633156 0.191722 -0.0424428 209 114 101
0.0746507 0.193118 -0.0270812 255 249 225
0.0705092 0.193426 -0.0466968 255 245 217
0.0786994 0.174107 -0.044582 134 76 69
0.0750171 0.186206 -0.0260932 213 0 0
0.0924505 0.189168 -0.0267992 255 255 255
0.0665858 0.187477 -0.0449756 187 108 103
0.0648271 0.188882 -0.029943 255 255 215
0.0728107 0.189124 -0.0257944 255 239 219
0.0864127 0.185881 -0.0253302 255 255 255
0.0630761 0.116878 -0.0570009 255 255 255
0.0664835 0.1857 -0.0322946 203 39 38
0.0627205 0.137032 -0.0398078 126 72 65
0.0901947 0.201996 -0.0309973 255 255 233
0.0789537 0.193293 -0.0197384 223 255 255
0.078227 0.182374 -0.026578 58 0 0
0.0638302 0.18792 -0.0365415 255 148 135
0.0677459 0.184308 -0.0325011 108 54 47
0.0672931 0.184024 -0.0347997 200 132 121
0.0890271 0.193808 -0.0378278 255 187 162
0.0772946 0.175099 -0.0460035 118 69 62
0.0807899 0.192363 -0.0464312 255 185 179
0.070691 0.19148 -0.0413402 145 84 75
0.0748887 0.163109 -0.0488137 121 90 88
0.0668087 0.18522 -0.0327211 149 73 65
0.0718196 0.19598 -0.0453284 255 146 128
0.0881481 0.179492 -0.0378092 255 231 217
0.0559442 0.0359537 -0.0552395 0 0 0
0.0859223 0.185559 -0.0257912 255 255 255
0.0673645 0.19145 -0.0294738 255 255 255
0.0633458 0.174404 -0.0438837 255 183 185
0.0800216 0.192523 -0.044006 51 5 0
0.0579949 0.167106 -0.0463182 168 133 124
0.07061 0.1578 -0.0315351 55 6 0
0.0869826 0.201563 -0.0397375 255 203 181
0.0749101 0.159235 -0.0373364 208 179 170
0.0752309 0.168954 -0.0277304 191 127 120
0.0666233 0.171808 -0.0387638 64 32 28
0.0660258 0.182413 -0.0446433 91 33 29
0.083007 0.178095 -0.028688 122 67 62
0.0853599 0.181872 -0.0411562 229 130 114
0.0839719 0.18548 -0.0263022 255 167 152
0.0820855 0.194158 -0.0465171 235 164 149
0.08538 0.191803 -0.0361849 255 20 7
0.0727986 0.195339 -0.0459165 255 138 125
0.0858759 0.186101 -0.0315946 210 102 93
0.078815 0.183137 -0.0480806 61 19 13
0.0722033 0.197954 -0.0462136 255 149 133
0.0710309 0.168816 -0.0327442 99 58 48
0.0871231 0.183443 -0.0272795 255 255 255
0.0760976 0.178247 -0.0502453 160 96 87
0.0672896 0.197616 -0.0436205 255 149 129
0.0767351 0.155156 -0.0479109 94 83 70
0.0671045 0.203276 -0.0354861 255 232 200
0.0830004 0.177996 -0.0362196 74 25 19
0.0665019 0.189531 -0.0314365 163 90 78
0.0904349 0.201445 -0.0292085 255 247 215
0.0878732 0.201857 -0.0362939 255 227 206
0.085968 0.192008 -0.0366345 255 237 210
0.0746916 0.204181 -0.0236929 255 240 213
0.0882617 0.196855 -0.0361885 255 185 173
0.077276 0.184538 -0.030653 110 60 54
0.0787971 0.177724 -0.0446893 148 93 86
0.0776323 0.17025 -0.0499225 190 116 108
0.0762865 0.171231 -0.0340159 198 116 103
0.0837094 0.198042 -0.0399805 234 111 110
0.0657354 0.192998 -0.0422572 255 161 149
0.0801044 0.176078 -0.025614 255 255 255
0.0733382 0.181801 -0.0328481 105 54 46
0.0797955 0.196032 -0.0448267 255 153 144
0.0613744 0.191662 -0.0354643 57 49 63
0.0813994 0.189002 -0.0452062 144 79 70
0.0667057 0.178755 -0.0386214 145 86 77
0.0695817 0.176026 -0.0515326 255 170 159
0.0645498 0.189156 -0.0271701 255 169 160
0.0723783 0.194435 -0.0283491 255 254 229
0.0677126 0.196769 -0.0441209 237 103 93
0.0608333 0.16207 -0.0356023 175 131 113
0.0542371 0.134716 -0.0411843 255 255 255
0.0785252 0.172207 -0.03434 255 214 218
0.0739729 0.195206 -0.0451254 201 93 76
0.0648869 0.175739 -0.0392555 186 118 112
0.0853063 0.172616 -0.0297777 158 114 113
0.0709638 0.168694 -0.0379087 102 67 65
0.080242 0.156568 -0.0158354 255 255 255
0.0727431 0.195906 -0.0455561 255 150 134
0.0782563 0.196763 -0.0208301 255 200 172
0.075507 0.196181 -0.0466706 216 152 141
0.0812165 0.193452 -0.047321 255 135 127
0.0845448 0.142713 -0.0383465 173 101 91
0.0658041 0.181129 -0.0441962 186 105 100
0.0688147 0.174426 -0.0367401 71 47 43
0.0799408 0.185589 -0.0467522 175 99 91
0.0763687 0.176211 -0.0488058 119 70 63
0.0697247 0.184475 -0.0516938 242 132 120
0.0741116 0.184572 -0.0313211 49 2 0
0.0768367 0.132649 -0.0384157 18 0 0
0.0671033 0.190945 -0.0257035 255 255 255
0.0676773 0.166334 -0.0384757 77 42 39
0.0649793 0.178657 -0.0369118 196 116 106
0.0792162 0.18201 -0.0324774 255 242 233
0.0672565 0.194915 -0.0418186 148 74 64
0.0874846 0.196452 -0.0386484 255 150 147
0.0692138 0.206391 -0.0345579 255 209 183
0.0841654 0.180336 -0.0295881 229 146 135
0.0654692 0.182151 -0.0349918 139 73 66
0.082027 0.183082 -0.0276142 255 180 171
0.0708767 0.179528 -0.0497594 158 96 86
0.070226 0.191563 -0.0258225 255 255 255
0.0770511 0.187595 -0.0491485 214 139 131
0.0821052 0.194098 -0.0411057 255 151 136
0.0770088 0.162949 -0.0331994 248 147 126
0.0724667 0.193749 -0.0232412 149 124 108
0.0656026 0.198015 -0.0391146 255 158 141
0.083832 0.195748 -0.0398602 243 137 125
0.0681538 0.200481 -0.0401097 255 169 149
0.0770234 0.177769 -0.033947 160 94 84
0.0837233 0.186037 -0.0350158 134 78 70
0.0679573 0.194583 -0.042403 241 125 108
0.0680513 0.179203 -0.0362272 139 78 68
0.0741542 0.186224 -0.0297386 178 104 94
0.0796143 0.188109 -0.0239079 255 169 155
0.0750131 0.194874 -0.0289555 220 115 100
0.0611637 0.172022 -0.0472472 255 234 211
0.0848634 0.183271 -0.0325271 182 110 100
0.0709655 0.173698 -0.0318746 129 80 73
0.0739888 0.17517 -0.0512425 187 104 94
0.0740276 0.194302 -0.021274 255 236 212
0.0800448 0.172545 -0.0392934 170 107 97
0.0623089 0.162305 -0.0429417 149 98 92
0.0752325 0.132973 -0.0517703 42 31 30
0.0789079 0.174974 -0.0417907 255 121 135
0.07064 0.182132 -0.030738 181 118 108
0.0808156 0.143079 -0.043414 0 0 0
0.0838059 0.167987 -0.0401501 108 61 51
0.070292 0.182781 -0.0272371 210 121 106
0.0768822 0.146513 -0.0384151 104 60 60
0.0845385 0.198798 -0.023061 255 194 167
0.056877 0.148256 -0.0427886 0 0 0
0.0620594 0.193397 -0.0401251 255 255 255
0.0678395 0.150643 -0.032878 167 120 107
0.0549983 0.0866853 -0.0391442 0 0 0
0.0839954 0.175944 -0.0295093 147 82 75
0.0533946 0.0988621 -0.0522895 0 0 0
0.048486 0.143373 -0.0459158 0 0 0
0.080956 0.111268 -0.0492447 31 0 0
0.0703555 0.176405 -0.0215082 140 0 0
0.0856342 0.178153 -0.0313319 200 129 120
0.0715424 0.175332 -0.0525218 155 84 77
0.0916791 0.202274 -0.0307218 240 161 153
0.0610216 0.143333 -0.0641584 25 20 19
0.0746743 0.148513 -0.0484619 48 31 29
0.0695475 0.135896 -0.0545909 40 34 33
0.0678853 0.205257 -0.0323636 255 234 202
0.0735572 0.193885 -0.0239903 255 255 255
0.0683971 0.106 -0.045685 179 122 115
0.0827882 0.157904 -0.0396577 162 83 76
0.0774095 0.204596 -0.0242298 255 199 166
0.0661912 0.134571 -0.0525525 40 14 13
0.081626 0.176509 -0.0343913 130 75 67
0.0866332 0.191378 -0.0318084 161 106 99
0.0675637 0.104387 -0.055853 27 21 19
0.0646297 0.183294 -0.0461482 255 201 189
0.0795467 0.144795 -0.0398067 97 60 53
0.0551061 0.173014 -0.043716 255 208 191
0.0605067 0.177374 -0.0390297 224 163 145
0.0639702 0.172999 -0.0371493 98 49 44
0.0773997 0.0736381 -0.0444884 244 225 219
0.0657988 0.101755 -0.0474864 27 23 21
0.0719279 0.185978 -0.0279584 112 74 69
0.0775957 0.175749 -0.0523344 253 185 171
0.0730438 0.188102 -0.0308599 200 114 103
0.0727627 0.112852 -0.054503 0 0 0
0.0671872 0.184133 -0.042615 160 87 78
0.0891932 0.18808 -0.0353751 255 255 255
0.0753055 0.167 -0.0529074 0 0 0
0.0831398 0.180622 -0.0310472 174 115 106
0.087233 0.183433 -0.0412444 134 255 255
0.0858034 0.196277 -0.0368309 255 221 199
0.0578501 0.141453 -0.0558925 0 0 0
0.0798025 0.193043 -0.0271925 124 90 94
0.0734787 0.183499 -0.0305431 169 97 87
0.05972 0.159414 -0.041028 19 0 0
0.0739839 0.183393 -0.0513499 222 152 147
0.0795438 0.177807 -0.0322603 182 119 111
0.0736853 0.169041 -0.0319412 170 105 93
0.0838578 0.170457 -0.0364427 238 172 161
0.0646841 0.180282 -0.043637 165 96 88
0.0758762 0.199321 -0.0218829 255 255 255
0.0710165 0.204601 -0.036869 255 147 131
0.0620006 0.173861 -0.0380511 222 112 95
0.0895645 0.202734 -0.0341855 255 203 179
0.0874127 0.201154 -0.0369834 255 149 122
0.0790826 0.192504 -0.0217534 255 255 255
0.0902617 0.201978 -0.0363592 255 255 255
0.091258 0.195295 -0.0379786 230 255 254
0.0795794 0.154306 -0.0429972 0 0 0
0.0817018 0.179622 -0.0391791 57 8 0
0.0680267 0.097471 -0.0538731 40 36 36
0.0735824 0.187368 -0.0217906 255 255 255
0.0643593 0.19053 -0.025196 255 227 197
0.0694568 0.205854 -0.0301372 255 187 161
0.0560652 0.140181 -0.0305779 0 0 0
0.0924433 0.184837 -0.0303741 255 255 255
0.0612801 0.173473 -0.0366848 244 174 161
0.0762928 0.172085 -0.0519662 151 88 77
0.0844077 0.19583 -0.0413835 255 183 166
0.0760872 0.160524 -0.0396336 120 76 70
0.070209 0.187718 -0.0288923 207 121 110
0.0664714 0.196984 -0.0280571 255 161 145
0.0585238 0.142847 -0.0544428 69 46 43
0.0491949 0.0959863 -0.0407905 0 0 0
0.0790855 0.184193 -0.0300536 48 8 0
0.0808171 0.180951 -0.0287976 148 93 82
0.0539181 0.109521 -0.0509987 0 0 0
0.0785254 0.104191 -0.0465866 40 0 0
0.0654307 0.103474 -0.0496413 0 0 0
0.0500497 0.0997214 -0.0335775 0 0 0
0.0747404 0.183296 -0.0313625 58 10 0
0.0851497 0.179139 -0.0284771 220 114 100
0.0793625 0.193641 -0.0264457 148 28 16
0.0731201 0.141516 -0.0624217 17 11 0
0.0574388 0.140866 -0.0419531 0 0 0
0.0644555 0.138988 -0.0444511 71 48 45
0.0627064 0.116098 -0.0489731 55 46 45
0.0673402 0.111779 -0.051262 33 30 28
0.0540769 0.138126 -0.0503362 40 27 25
0.0678927 0.205606 -0.0309417 255 238 207
0.0745114 0.197128 -0.0226243 255 192 171
0.0810189 0.165673 -0.0373284 228 169 163
0.076974 0.201882 -0.0246925 255 184 165
0.0667914 0.174127 -0.0512385 42 0 0
0.0694489 0.0781953 -0.0570892 208 142 135
0.0896415 0.201516 -0.0346759 255 168 144
0.0787918 0.154562 -0.0411069 31 17 15
0.0558357 0.177557 -0.0443557 223 114 102
0.0859337 0.137507 -0.0355377 149 4 0
0.0715208 0.104668 -0.070883 0 0 0
0.0774717 0.164145 -0.0261742 151 84 72
0.0678602 0.173428 -0.0327665 121 71 62
0.0595149 0.129992 -0.0484877 0 0 0
0.0599951 0.12846 -0.039375 167 114 100
0.0663718 0.172241 -0.0587795 110 0 0
0.0565473 0.127833 -0.0436802 23 0 0
0.0808008 0.174311 -0.0371795 144 87 78
0.0679814 0.100544 -0.0528064 0 0 0
0.0649761 0.183691 -0.0493658 255 163 142
0.0620943 0.181078 -0.0403287 162 99 96
0.0882791 0.186762 -0.03611 66 255 255
0.0604454 0.182877 -0.0370551 0 0 0
0.0823749 0.176299 -0.03169 130 74 65
0.0585328 0.17151 -0.027483 255 210 195
0.064678 0.181327 -0.0432702 140 81 73
0.075632 0.157418 -0.0612898 255 255 255
0.0678118 0.161105 -0.0608995 159 0 0
0.0707269 0.186226 -0.0300239 163 103 95
0.0796716 0.192124 -0.0262426 224 144 132
0.0711168 0.18147 -0.0295403 246 182 178
0.0562953 0.155539 -0.0409883 255 239 235
0.074453 0.181001 -0.0510168 103 33 26
0.0718211 0.203231 -0.0267044 255 171 151
0.085812 0.190891 -0.0387167 255 255 250
0.0859904 0.1739 -0.037693 153 81 74
0.0812745 0.186276 -0.0249792 255 255 255
0.0893462 0.205064 -0.0316114 255 199 176
0.0839412 0.191194 -0.0388744 255 173 156
0.0738923 0.19951 -0.0215318 255 255 255
0.0891934 0.194787 -0.0363149 255 174 175
0.0956696 0.193799 -0.0331706 255 188 164
0.0828492 0.159771 -0.0326178 109 63 56
0.0877068 0.200854 -0.0367106 255 148 115
0.0881841 0.181106 -0.0410045 224 255 255
0.0913903 0.197739 -0.039175 251 255 251
0.0732296 0.179155 -0.0504262 115 47 48
0.0761464 0.193032 -0.0459553 255 255 255
0.0629476 0.187915 -0.0423139 255 211 200
0.0784076 0.163988 -0.0471967 156 108 98
0.072204 0.189997 -0.0241231 174 117 95
0.0873314 0.179053 -0.0375859 129 0 0
0.0765882 0.187632 -0.028899 184 106 96
0.0861501 0.182926 -0.0361777 188 90 79
0.0620112 0.147064 -0.0443322 114 71 66
0.076709 0.151413 -0.0447979 9 0 0
0.0771256 0.186438 -0.0279153 196 130 122
0.0776387 0.183781 -0.0281314 255 185 156
0.0835517 0.180679 -0.0277314 154 76 68
0.0784814 0.194668 -0.0208481 255 178 158
0.0688322 0.186003 -0.0302202 130 64 51
0.0820999 0.185561 -0.0269856 255 255 255
0.0711956 0.196557 -0.0270764 255 204 186
0.0782352 0.177016 -0.0480033 237 154 131
0.0723672 0.202485 -0.0237138 255 197 176
0.0816801 0.196808 -0.0221702 255 0 0
0.0781468 0.170272 -0.0327479 189 120 108
0.0632554 0.194142 -0.0305523 255 223 201
0.0793512 0.192559 -0.0466597 135 5 0
0.0831474 0.178124 -0.0540202 247 165 127
0.0830143 0.188107 -0.0366188 255 178 149
0.0849918 0.190127 -0.046343 255 255 248
0.0683203 0.192377 -0.0303645 255 195 168
0.0858643 0.188797 -0.0397892 203 74 0
0.0791071 0.188472 -0.0473831 202 117 106
0.0842348 0.176323 -0.0397994 44 0 0
0.0881907 0.178276 -0.0426578 255 255 255
0.0834842 0.199841 -0.0438386 255 165 154
0.0654996 0.194039 -0.0344018 255 179 160
0.0719607 0.195121 -0.0405692 166 100 93
0.0789797 0.167774 -0.0424668 45 23 21
0.0756975 0.194963 -0.0442028 243 139 123
0.0790434 0.196171 -0.0488512 226 165 154
0.0658996 0.191908 -0.0310227 255 255 255
0.0725947 0.194044 -0.0268386 255 82 45
0.0818443 0.203427 -0.0437719 255 146 137
0.0841371 0.195125 -0.0449825 255 152 134
0.0772715 0.196643 -0.0490899 235 120 112
0.0654155 0.184897 -0.0343896 191 108 97
0.0669706 0.194411 -0.0333663 255 229 221
0.0747483 0.190986 -0.0250911 121 48 23
0.0773859 0.196241 -0.0494804 231 127 116
0.0724729 0.199314 -0.0417551 255 144 126
0.0841653 0.188851 -0.0214232 255 255 255
0.0673612 0.194816 -0.0328847 255 239 196
0.0713447 0.193135 -0.0444092 255 174 153
0.0657742 0.185473 -0.033786 209 126 117
0.0739767 0.197559 -0.0448494 255 134 117
0.0692538 0.142432 -0.057273 107 88 82
0.0745252 0.186286 -0.0267077 193 71 67
0.0779402 0.147616 -0.0581467 255 230 229
0.0680477 0.198894 -0.0399937 255 164 138
0.0821316 0.193611 -0.0434906 255 157 145
0.077551 0.184339 -0.0260723 255 0 0
0.0823935 0.144874 -0.0479857 255 179 171
0.0777261 0.17704 -0.0435443 96 54 48
0.080706 0.175088 -0.046912 45 0 0
0.0759135 0.182487 -0.0259224 255 186 169
0.0775093 0.176616 -0.0338683 167 94 82
0.0775622 0.206758 -0.0230679 255 255 255
0.070004 0.197549 -0.0227671 255 255 255
0.0740518 0.194509 -0.0225134 232 114 71
0.0742774 0.197635 -0.0455486 255 174 156
0.0762953 0.194049 -0.0458492 255 185 169
0.0852339 0.189201 -0.0330404 210 126 111
0.072657 0.194112 -0.0465081 255 206 197
0.074464 0.163828 -0.0466553 21 0 0
0.0868504 0.20295 -0.0374196 255 219 198
0.0621344 0.176385 -0.0435185 147 86 77
0.0757093 0.191995 -0.0456956 255 255 255
0.0749078 0.189865 -0.0238615 186 35 17
0.0775031 0.174988 -0.0440964 118 69 64
0.0662765 0.194577 -0.0317639 244 150 138
0.0847764 0.189154 -0.0220642 255 255 255
0.0684866 0.199547 -0.0414381 255 198 181
0.0756704 0.188796 -0.0230351 255 226 219
0.0787537 0.169918 -0.0345792 255 245 228
0.0734141 0.192735 -0.0271442 255 211 188
0.0667314 0.187122 -0.0335884 205 116 106
0.0751081 0.161348 -0.0517156 87 47 44
0.0775181 0.195721 -0.0224895 255 116 88
0.0741082 0.128339 -0.0500064 58 40 36
0.0649562 0.18438 -0.0407964 112 47 41
0.0766917 0.196549 -0.0454306 246 133 124
0.0826523 0.178475 -0.0409092 76 8 0
0.0680942 0.196489 -0.041195 255 149 133
0.083752 0.185207 -0.0229537 255 255 255
0.073987 0.196418 -0.0456064 255 122 98
0.0639237 0.178499 -0.0310404 109 138 124
0.0712003 0.199641 -0.0364924 255 183 162
0.0754838 0.194305 -0.0450004 232 122 106
0.0651466 0.177243 -0.0480491 241 194 186
0.0624865 0.178151 -0.0384711 226 135 117
0.0627321 0.180331 -0.0383044 154 98 91
0.0673726 0.19585 -0.0348883 255 171 154
0.0658235 0.18102 -0.0463122 247 177 169
0.0751949 0.183728 -0.0243921 158 46 32
0.077039 0.203084 -0.0237794 255 255 255
0.0659578 0.19463 -0.0379273 196 17 0
0.079452 0.171574 -0.0288062 51 4 0
0.0690289 0.187682 -0.0428795 151 83 74
0.0640817 0.190192 -0.0335737 195 113 104
0.0791491 0.163688 -0.0469538 41 0 0
0.0812351 0.175596 -0.0287421 156 92 84
0.0627303 0.191851 -0.0423982 230 137 123
0.0684131 0.192865 -0.0300898 255 170 149
0.0861565 0.187531 -0.0252767 255 255 255
0.0839437 0.178362 -0.040759 155 89 79
0.0584297 0.158595 -0.0372812 166 129 114
0.0712186 0.200297 -0.0238229 255 175 158
0.0661341 0.196182 -0.0328295 255 169 145
0.0690986 0.194113 -0.0306078 255 162 137
0.0889817 0.202017 -0.0347467 255 248 220
0.083397 0.1743 -0.0440891 232 155 146
0.0688758 0.193935 -0.0422265 186 84 80
0.0742308 0.197337 -0.0451461 232 118 101
0.068006 0.1853 -0.0323293 86 4 0
0.0863473 0.188473 -0.0235928 255 255 255
0.0642414 0.19051 -0.0386896 255 203 182
0.075272 0.195056 -0.0209487 255 255 255
0.0604161 0.13872 -0.0431442 137 60 55
0.0864099 0.186701 -0.0333098 255 231 209
0.075074 0.196218 -0.0467992 252 148 135
0.0760356 0.204616 -0.0235426 255 152 125
0.0873643 0.185641 -0.026218 255 255 255
0.0710204 0.192739 -0.0281843 255 255 255
0.076268 0.176586 -0.0506763 183 115 104
0.0845997 0.168965 -0.0319627 158 65 64
0.0753399 0.201257 -0.0271035 255 194 168
0.0631332 0.162819 -0.041925 67 38 35
0.0872518 0.200369 -0.0402328 255 193 175
0.071352 0.19064 -0.0272314 181 13 0
0.0898179 0.200508 -0.0349593 255 240 220
0.0735104 0.176213 -0.0263856 246 160 148
0.0627801 0.158532 -0.0393507 84 56 48
0.0884582 0.200504 -0.037494 255 231 211
0.0628029 0.193873 -0.0427655 249 127 111
0.0856587 0.183085 -0.0327546 160 86 77
0.0834958 0.185062 -0.0441385 153 75 60
0.085446 0.179332 -0.0263068 255 255 255
0.0794664 0.193961 -0.0472385 241 119 110
0.0806276 0.193859 -0.047796 255 139 131
0.0846125 0.186781 -0.0440253 255 110 116
0.0749276 0.195196 -0.0443412 209 96 84
0.0743882 0.199532 -0.043122 252 134 121
0.0733993 0.197626 -0.0464384 255 148 130
0.0779197 0.193773 -0.0477216 255 163 151
0.0646481 0.184103 -0.0386028 165 108 104
0.0759048 0.19385 -0.0458065 255 227 215
0.0661054 0.178265 -0.0404769 210 147 133
0.0629046 0.15547 -0.0376625 67 35 31
0.0695838 0.195882 -0.0423841 255 139 122
0.0632427 0.194813 -0.037021 227 140 127
0.087981 0.202087 -0.03636 255 233 214
0.0897359 0.201151 -0.02986 255 254 224
0.0879346 0.201306 -0.0366182 255 255 244
0.0773225 0.190044 -0.0470267 255 32 20
0.0639286 0.124977 -0.0561679 49 45 42
0.0833006 0.184865 -0.0375005 151 88 79
0.0731799 0.197707 -0.0459239 232 127 109
0.0795729 0.174179 -0.0350796 255 192 180
0.0813994 0.194159 -0.0432965 255 192 174
0.0770882 0.174525 -0.0438755 92 63 60
0.0764777 0.175437 -0.0333818 195 118 106
0.0684763 0.195944 -0.0411763 255 148 131
0.0645267 0.172416 -0.035785 96 55 47
0.0721312 0.193809 -0.0260121 243 197 167
0.0825004 0.200804 -0.0225813 255 143 122
0.0748092 0.192961 -0.0235183 238 242 220
0.0782007 0.192964 -0.0471394 181 63 49
0.084154 0.19126 -0.0433697 255 0 0
0.075445 0.178799 -0.0342388 172 114 105
0.0817453 0.187772 -0.0493102 226 124 117
0.0697507 0.177954 -0.0513336 255 209 205
0.0820846 0.185336 -0.0232428 255 255 255
0.0598572 0.142383 -0.041023 15 0 0
0.0854904 0.184088 -0.0384885 231 122 102
0.0655839 0.189983 -0.0359078 213 127 116
0.073727 0.196723 -0.0274729 252 179 164
0.0839468 0.191315 -0.0411143 230 158 145
0.0743994 0.178548 -0.0344792 168 106 96
0.0786334 0.168834 -0.0345941 255 255 255
0.0753947 0.193718 -0.0444049 253 147 132
0.0898716 0.200138 -0.0314779 224 127 90
0.0615963 0.178856 -0.0452703 114 55 49
0.0863274 0.201056 -0.039206 255 195 180
0.0784154 0.187696 -0.0221205 255 220 176
0.0766315 0.18254 -0.020508 255 255 255
0.0730208 0.169156 -0.0369115 87 55 50
0.0762828 0.204497 -0.0224244 255 157 129
0.0715355 0.190312 -0.0257012 238 175 162
0.0835461 0.18034 -0.028674 237 146 137
0.0732968 0.195445 -0.0232522 255 255 253
0.0749064 0.19569 -0.0456891 255 129 106
0.0652886 0.187547 -0.0372132 171 92 86
0.0859984 0.184583 -0.026186 255 208 189
0.0791334 0.150026 -0.0334584 169 106 93
0.0766824 0.194141 -0.0453259 136 21 0
0.0659332 0.181474 -0.0446738 171 105 97
0.0721957 0.194146 -0.0284513 255 255 255
0.0748428 0.195429 -0.0290506 255 255 244
0.0684547 0.179854 -0.0488525 217 169 162
0.0866267 0.185431 -0.0274386 255 255 255
0.0666364 0.185418 -0.0265001 245 0 0
0.0672888 0.16812 -0.0384467 82 53 48
0.061935 0.166966 -0.040017 146 85 76
0.0673259 0.19519 -0.0415254 143 72 62
0.0746628 0.193598 -0.0245838 255 231 206
0.0897761 0.193849 -0.0306977 220 125 115
0.0778596 0.150149 -0.0365924 48 0 0
0.070079 0.188139 -0.0306201 168 97 88
0.0701267 0.177099 -0.0350829 153 91 82
0.0685905 0.205727 -0.0306517 255 194 170
0.081171 0.176608 -0.0510192 255 255 255
0.0703852 0.171314 -0.0549793 202 136 125
0.0884758 0.172387 -0.0282605 255 255 255
0.059825 0.162464 -0.0487761 111 67 59
0.0673974 0.196285 -0.0264276 255 255 255
0.0860566 0.198559 -0.0437268 255 176 160
0.0732406 0.195129 -0.0420787 238 133 118
0.0787055 0.19721 -0.0439333 160 108 104
0.0748303 0.179279 -0.0286684 248 255 255
0.0785053 0.196323 -0.0437192 253 152 143
0.0736112 0.19659 -0.0470073 255 132 118
0.0666394 0.187874 -0.0431385 42 0 0
0.0727676 0.183918 -0.0513823 248 179 168
0.0829039 0.164099 -0.0504926 122 69 63
0.0711152 0.194712 -0.0451156 255 177 159
0.0779832 0.183269 -0.0230427 144 82 71
0.0650751 0.19471 -0.040121 191 90 79
0.0741455 0.156085 -0.0522489 157 104 94
0.0619832 0.189635 -0.0374819 255 255 219
0.064152 0.180843 -0.0428204 145 86 78
0.0741886 0.171676 -0.028514 255 255 255
0.0737439 0.161804 -0.036465 71 34 28
0.0857197 0.178896 -0.0345352 167 99 90
0.0614891 0.163507 -0.0343542 213 0 0
0.0675336 0.181834 -0.043942 165 91 80
0.0755134 0.193563 -0.0442293 241 144 130
0.0597082 0.12233 -0.0490291 67 43 41
0.0789435 0.195663 -0.0239695 255 201 179
0.0721653 0.173604 -0.0337026 142 80 70
