ply
format ascii 1.0
comment Created by Open3D
element vertex 1152
property double x
property double y
property double z
property uchar red
property uchar green
property uchar blue
end_header
0.0790064 0.0206484 -0.099604 165 87 83
0.0801551 0.0241529 -0.10059 161 86 77
0.0817355 0.0202484 -0.0972952 107 29 22
0.0803981 0.0226452 -0.0991619 135 115 105
0.0796218 0.0234222 -0.0987816 185 124 116
0.0778195 0.0350739 -0.104475 255 255 255
0.075869 0.0226468 -0.10349 255 165 153
0.0762125 0.0210535 -0.10196 227 112 108
0.0769585 0.0201662 -0.101281 203 130 122
0.0784876 0.0197229 -0.0999902 160 92 86
0.0814435 0.0287397 -0.100141 163 108 96
0.079582 0.0290709 -0.102407 255 235 204
0.0793924 0.0337636 -0.106224 227 124 105
0.0748501 0.0210033 -0.102471 223 119 111
0.0761904 0.0198399 -0.100589 231 147 138
0.0788558 0.0202402 -0.100017 191 100 97
0.0759218 0.0192897 -0.0992836 152 53 45
0.0768521 0.0198388 -0.0998444 202 103 91
0.0775559 0.0191716 -0.0988137 180 74 68
0.0775192 0.0195039 -0.0989641 176 88 78
0.0795037 0.0208919 -0.0978489 143 47 42
0.0786432 0.0350179 -0.106393 231 126 100
0.0762057 0.0203248 -0.100828 162 75 64
0.0767803 0.0204874 -0.100533 214 137 125
0.080929 0.0217548 -0.0982763 122 118 109
0.0806561 0.0323573 -0.0994484 159 77 62
0.0757767 0.020513 -0.101424 235 135 125
0.0796971 0.0200969 -0.0978502 239 119 121
0.078051 0.0204294 -0.100754 202 122 118
0.0790415 0.0218198 -0.0986758 197 82 74
0.078955 0.0197993 -0.0998122 135 63 60
0.0810298 0.0245353 -0.0954835 171 78 62
0.0816042 0.0309886 -0.100247 199 165 152
0.0777988 0.0330863 -0.106562 255 176 164
0.0775213 0.0187975 -0.0992729 219 132 110
0.076577 0.0204271 -0.100819 210 119 107
0.0788539 0.0194206 -0.099471 194 126 122
0.0776028 0.0187622 -0.0988757 236 132 128
0.0770319 0.0188322 -0.0980951 189 124 115
0.0803647 0.0217065 -0.097876 188 104 95
0.0819562 0.0296982 -0.0961948 203 172 166
0.080916 0.0292316 -0.0987309 216 158 161
0.0818357 0.0310029 -0.0978412 193 191 158
0.0749419 0.0216839 -0.102549 219 114 103
0.0780527 0.019316 -0.098158 191 124 108
0.0808671 0.0245552 -0.0970488 180 81 77
0.0752195 0.0214997 -0.103009 255 160 152
0.076953 0.018699 -0.0992544 222 122 107
0.0787679 0.0208542 -0.0992728 208 105 99
0.0796337 0.0208891 -0.098074 163 35 28
0.0824958 0.0339693 -0.0994205 195 128 120
0.0760891 0.0351768 -0.107221 255 241 101
0.0754834 0.0201314 -0.101237 220 122 117
0.0792768 0.018431 -0.0964523 202 136 131
0.0817993 0.0237177 -0.0965883 156 120 109
0.0753474 0.0205618 -0.101727 255 149 141
0.0815374 0.030168 -0.0964633 177 179 163
0.0797118 0.0313804 -0.101589 238 133 108
0.0775402 0.0351303 -0.104372 226 235 196
0.0753047 0.0208027 -0.102274 228 113 104
0.0764191 0.0203103 -0.101255 240 149 139
0.0756895 0.0209078 -0.101913 212 116 105
0.0783268 0.0194431 -0.0996453 187 117 108
0.0814973 0.0265341 -0.0980591 148 57 57
0.0820088 0.0265451 -0.100406 188 76 67
0.0818315 0.0280935 -0.0955283 159 119 102
0.0827992 0.0284257 -0.0969163 178 171 160
0.0754748 0.0216288 -0.10306 240 118 108
0.0748841 0.0210725 -0.102615 224 115 107
0.0753665 0.0200697 -0.101265 212 115 105
0.0773594 0.0185762 -0.0989163 226 120 102
0.0807322 0.0207827 -0.0980188 200 82 80
0.0800872 0.0226618 -0.0978886 173 92 73
0.0748249 0.0199485 -0.101475 234 144 135
0.0753846 0.0206019 -0.102425 255 170 160
0.076725 0.0193879 -0.0995349 195 94 85
0.0787475 0.0334947 -0.106609 241 100 91
0.0747977 0.0210527 -0.102946 219 109 99
0.0746886 0.021431 -0.102483 202 98 92
0.0765522 0.0187499 -0.0995596 196 95 83
0.0807909 0.0303987 -0.100735 167 125 103
0.0782792 0.0354045 -0.107625 251 246 255
0.0764857 0.0202264 -0.101045 226 130 123
0.0802353 0.0197571 -0.0983655 203 140 139
0.0789059 0.0238471 -0.099831 171 87 84
0.0823898 0.0268748 -0.0962567 163 89 75
0.0812651 0.028204 -0.0948555 163 131 119
0.0778042 0.0349399 -0.104673 226 228 159
0.074827 0.020364 -0.101946 214 112 108
0.0767108 0.0195843 -0.0998222 207 112 101
0.0808588 0.0213654 -0.0978832 181 112 110
0.0813013 0.0244435 -0.0965201 162 99 91
0.0831787 0.0279424 -0.0985869 238 119 106
0.0746942 0.0203804 -0.101969 222 115 105
0.0765493 0.0198711 -0.100343 200 111 100
0.075552 0.0190963 -0.100142 235 131 126
0.0765086 0.0198676 -0.100465 197 107 98
0.0766358 0.0191366 -0.0999381 201 93 83
0.0790233 0.018558 -0.0963502 185 90 93
0.0807696 0.0235745 -0.0956723 171 98 93
0.0798087 0.0210616 -0.0983293 194 89 88
0.0808951 0.0211659 -0.0970023 162 142 126
0.0794786 0.0291215 -0.102456 219 129 112
0.0826325 0.0326163 -0.0985798 255 187 154
0.0776631 0.03551 -0.104114 254 127 107
0.0745411 0.0215119 -0.102706 177 81 78
0.0753392 0.0217039 -0.103136 238 123 116
0.0781698 0.0207339 -0.0996642 239 128 119
0.076984 0.0175336 -0.0978092 193 109 102
0.0798842 0.0182867 -0.0970766 252 113 114
0.0780304 0.0190664 -0.0957388 176 97 87
0.0749819 0.0196194 -0.102102 237 125 112
0.0757205 0.0194564 -0.100379 254 138 120
0.0772787 0.0189553 -0.0994534 221 147 140
0.0788002 0.0189072 -0.0962631 199 130 115
0.0803912 0.0212907 -0.0981999 190 123 121
0.0827046 0.0257301 -0.0961396 181 77 68
0.0820023 0.0320984 -0.0992477 219 154 129
0.0810823 0.0352916 -0.0975239 217 200 166
0.0752317 0.020606 -0.102144 228 119 113
0.0749334 0.0201077 -0.101881 255 168 149
0.0765312 0.0203006 -0.100959 221 129 113
0.0767355 0.0211898 -0.1018 206 105 98
0.0779579 0.0154741 -0.0960833 215 165 161
0.0782215 0.0185903 -0.0958706 200 136 128
0.0805002 0.0217008 -0.0977722 212 77 75
0.0812383 0.0251691 -0.0983423 178 83 69
0.0763922 0.0367797 -0.105389 255 157 115
0.0756783 0.0195851 -0.100973 241 135 124
0.0765143 0.0181508 -0.0985671 228 138 132
0.0758664 0.0192758 -0.10009 219 116 108
0.0822728 0.0243894 -0.100746 190 127 118
0.0820803 0.0310497 -0.0999424 201 161 109
0.0749314 0.0207838 -0.102186 232 124 113
0.0778686 0.0192206 -0.0990927 213 114 102
0.0776183 0.018427 -0.0962606 203 132 119
0.0817236 0.0262505 -0.0953911 171 140 123
0.082922 0.0299983 -0.0990484 255 171 159
0.0818139 0.026894 -0.0974967 164 171 177
0.0833589 0.0306645 -0.102286 224 129 116
0.0780851 0.034725 -0.106713 231 153 138
0.0758773 0.0184398 -0.0993073 241 129 124
0.0768602 0.0179196 -0.0985689 228 117 99
0.0782325 0.0170762 -0.0957806 229 131 109
0.0784942 0.0184314 -0.0959045 204 126 113
0.0777573 0.0180704 -0.097009 210 129 110
0.0778405 0.0203034 -0.100495 219 118 111
0.0788818 0.0185461 -0.0951345 219 129 113
0.0790002 0.0183127 -0.094473 169 136 122
0.0813735 0.019974 -0.0943191 201 147 121
0.0787354 0.0223557 -0.0993001 165 93 88
0.082256 0.0294399 -0.0998831 184 108 97
0.0812438 0.0299005 -0.0946857 190 87 73
0.0809746 0.0289923 -0.0970956 167 118 100
0.0743965 0.0216883 -0.102759 217 94 81
0.0747293 0.0197723 -0.101149 233 143 132
0.075897 0.0190343 -0.0998486 214 108 101
0.0777685 0.0198647 -0.100361 215 127 117
0.0769713 0.0188227 -0.0984551 211 134 123
0.0777709 0.0158333 -0.0949031 207 167 157
0.0783957 0.0181247 -0.0953412 192 110 101
0.0796057 0.0181906 -0.0946187 171 116 99
0.0810348 0.0259374 -0.0999659 174 88 76
0.0813466 0.0321214 -0.0986647 255 175 118
0.07467 0.0197907 -0.100998 199 113 102
0.0831417 0.0244779 -0.0940007 165 197 172
0.0816092 0.02847 -0.10009 190 83 72
0.0811492 0.0311183 -0.0988086 171 165 154
0.0751222 0.0184301 -0.0998587 247 152 145
0.0748856 0.0190661 -0.099968 230 133 124
0.0774683 0.0181007 -0.0968985 224 143 133
0.0798187 0.018876 -0.0974082 254 141 136
0.0806732 0.0254613 -0.10055 192 85 72
0.082328 0.0303042 -0.0961378 169 113 98
0.0813371 0.0312411 -0.0950116 156 103 89
0.0750092 0.0221084 -0.103041 205 93 81
0.0742667 0.0190058 -0.100145 202 112 105
0.0746566 0.0190911 -0.100175 178 98 88
0.0785793 0.018999 -0.0987751 229 148 130
0.0822087 0.0246033 -0.0967178 150 136 130
0.0805875 0.0343239 -0.0981077 170 168 151
0.0775739 0.0206607 -0.0988553 179 105 98
0.0770328 0.0177552 -0.0968016 215 127 121
0.0772074 0.0183048 -0.0972957 211 120 107
0.0800781 0.01847 -0.0963702 192 147 130
0.0792598 0.0191728 -0.0952499 217 133 117
0.0814878 0.023958 -0.0945753 172 138 135
0.0811718 0.0282163 -0.0963096 159 108 96
0.0827263 0.0336903 -0.102132 232 137 123
0.0807379 0.0197771 -0.0973054 255 89 90
0.078837 0.0183503 -0.0943988 170 125 114
0.0793467 0.0206013 -0.098399 178 69 63
0.0787007 0.0189265 -0.0956443 198 123 108
0.0743633 0.0195927 -0.101748 236 136 127
0.0760686 0.0190225 -0.0995901 218 118 107
0.0799594 0.0241081 -0.0967644 200 119 109
0.081428 0.0293538 -0.0945551 161 136 125
0.0748707 0.0197868 -0.101136 227 140 126
0.0742226 0.018657 -0.0997369 219 130 118
0.0785728 0.0180665 -0.0969196 210 89 87
0.0798927 0.0159032 -0.0921223 159 151 148
0.0819025 0.0242459 -0.0968324 200 115 116
0.0821058 0.0307763 -0.095943 138 105 111
0.0742479 0.0197628 -0.101394 192 99 89
0.0762424 0.0183408 -0.0977022 236 150 141
0.0761583 0.01695 -0.0982256 229 163 160
0.0775708 0.0184209 -0.0958868 193 112 103
0.077772 0.0183706 -0.0960462 206 129 123
0.0785593 0.0167882 -0.0937302 169 137 118
0.0787144 0.0173236 -0.0944642 154 160 150
0.0817029 0.0227754 -0.095466 158 96 86
0.0832642 0.0232139 -0.0955198 199 71 58
0.0816578 0.0286908 -0.0961979 161 136 117
0.0824681 0.0339623 -0.09872 207 127 118
0.0743847 0.0195317 -0.100863 235 134 125
0.0778126 0.0190116 -0.0987159 191 91 80
0.0777012 0.0192695 -0.0970324 203 122 103
0.0789317 0.0168056 -0.0974566 255 190 163
0.0794206 0.0178025 -0.0943444 181 125 103
0.0814809 0.0235183 -0.0937706 125 44 28
0.0815191 0.0276755 -0.0949777 177 120 112
0.0803575 0.0237746 -0.0938774 206 154 143
0.0750522 0.0196769 -0.100457 218 118 111
0.0753596 0.0181455 -0.09833 241 134 121
0.0781882 0.0172569 -0.0967952 187 126 108
0.0757531 0.0160883 -0.0966497 219 152 146
0.0790638 0.0181119 -0.0959847 177 141 137
0.0769942 0.0165569 -0.0958755 170 91 83
0.0793271 0.0169656 -0.0949929 170 116 105
0.0776774 0.0193791 -0.098439 165 98 93
0.0772104 0.0154802 -0.0944892 200 133 134
0.0774769 0.0180325 -0.095898 172 95 88
0.0806128 0.0186791 -0.0926307 172 125 117
0.0807172 0.0337078 -0.0966333 211 148 128
0.0807144 0.0326455 -0.0956194 137 98 96
0.0756722 0.0188474 -0.0998128 225 120 116
0.0774411 0.0186617 -0.0976404 208 122 111
0.0769505 0.0179533 -0.0973203 176 100 92
0.0763021 0.0173142 -0.0954201 176 101 93
0.0812862 0.0272068 -0.0964012 184 111 95
0.0742282 0.0199615 -0.100271 151 77 64
0.0782768 0.0173516 -0.0956124 177 159 147
0.0814563 0.0232175 -0.0939618 147 108 115
0.0817046 0.0269736 -0.0950875 152 120 107
0.0801093 0.0347 -0.101997 222 111 130
0.0747693 0.0209434 -0.102443 218 118 111
0.0756141 0.0177228 -0.0987563 187 110 98
0.0752623 0.0179138 -0.0983489 196 106 96
0.0768419 0.0165241 -0.0958206 195 90 97
0.0778873 0.0176526 -0.0959559 193 125 116
0.0784495 0.0189265 -0.0959998 197 98 89
0.080646 0.0215039 -0.0926911 160 79 78
0.0815708 0.0195038 -0.0934836 140 100 88
0.0829042 0.0279915 -0.0908793 136 167 154
0.081911 0.0255634 -0.0941727 128 176 171
0.0809812 0.0320588 -0.0941647 162 96 83
0.0816161 0.030972 -0.0947975 156 159 138
0.0770775 0.0357595 -0.103639 255 115 93
0.0753587 0.0196197 -0.10074 216 131 120
0.0760687 0.0183098 -0.0990189 212 103 98
0.0763976 0.0183607 -0.0983725 207 111 96
0.0759838 0.0176398 -0.0973629 178 108 98
0.0809911 0.0183976 -0.0971226 169 104 112
0.0813049 0.0191879 -0.093192 122 13 0
0.0817744 0.0270903 -0.0951711 169 108 93
0.0810912 0.0310568 -0.0943417 151 101 84
0.0745873 0.0194173 -0.10051 225 134 125
0.0749967 0.0168612 -0.0987483 255 155 143
0.0783755 0.017732 -0.095565 182 124 106
0.0787954 0.0187785 -0.0959315 161 89 81
0.0821043 0.0247609 -0.094301 132 127 110
0.0815882 0.027795 -0.0948813 162 104 96
0.0754023 0.019364 -0.100203 228 139 124
0.0759048 0.0174083 -0.0961769 210 122 116
0.0757277 0.0171885 -0.0964334 230 122 117
0.0780678 0.0179777 -0.095768 183 113 97
0.0779699 0.0183404 -0.0954054 180 88 80
0.0783245 0.0176731 -0.0941891 171 113 111
0.0799518 0.0201444 -0.0943025 123 53 44
0.0803875 0.0222302 -0.0911327 214 90 87
0.0809078 0.0208272 -0.0955142 221 114 89
0.0798129 0.0252245 -0.0935349 234 182 177
0.0771847 0.0192936 -0.100004 246 170 154
0.074662 0.0193932 -0.0998587 187 96 86
0.0768588 0.0169911 -0.0965798 210 124 122
0.0768394 0.0178288 -0.0966213 203 118 112
0.0767946 0.0170986 -0.0958828 191 106 94
0.0777127 0.016695 -0.0921613 171 117 110
0.0789447 0.0185548 -0.0944 179 129 122
0.08175 0.0277441 -0.095143 186 155 144
0.0818616 0.0269461 -0.0953406 180 117 103
0.0808543 0.0300124 -0.0955535 162 64 50
0.0814625 0.0302567 -0.0963964 179 180 157
0.0745714 0.0187628 -0.0998645 221 125 113
0.0739895 0.017416 -0.0984511 212 131 114
0.0756028 0.0191793 -0.100185 201 107 101
0.0804029 0.0337754 -0.0957798 135 184 186
0.0813476 0.0317231 -0.0945778 150 95 85
0.0811595 0.0343193 -0.100308 193 107 103
0.0762665 0.018581 -0.100256 255 209 204
0.0761654 0.0146927 -0.093544 213 135 145
0.079085 0.0180345 -0.0944984 168 130 113
0.0798583 0.0261407 -0.0942449 170 244 226
0.0813902 0.0279032 -0.0963536 167 95 87
0.0746355 0.0188402 -0.0997022 219 129 119
0.0761434 0.0173397 -0.0967755 200 115 105
0.0762729 0.0175466 -0.0966653 179 89 82
0.0774829 0.0181361 -0.0964102 188 123 113
0.0780409 0.0171055 -0.0936987 174 94 83
0.0803894 0.0345782 -0.0980821 182 63 47
0.0748056 0.0161932 -0.0960267 208 118 103
0.0819416 0.0227732 -0.0940276 116 45 35
0.0796368 0.024709 -0.0941376 204 224 214
0.0804736 0.0273346 -0.095528 255 141 119
0.0818188 0.0327558 -0.0947847 147 130 127
0.0822758 0.0343837 -0.0933498 136 167 163
0.0780465 0.0190423 -0.0952285 175 85 79
0.0782062 0.0175555 -0.0947093 172 117 104
0.0794887 0.0162654 -0.0939649 165 102 92
0.0780179 0.0161017 -0.0955257 172 105 93
0.0843326 0.0347469 -0.0959233 127 116 109
0.079886 0.0349576 -0.0981012 197 119 104
0.0795708 0.0345422 -0.098812 164 65 58
0.0741289 0.018561 -0.0994343 193 102 93
0.0759098 0.0150048 -0.0951541 197 101 108
0.0790226 0.0188918 -0.0936334 158 96 82
0.0805751 0.0182386 -0.0926839 162 132 122
0.0819246 0.0293612 -0.0995936 226 187 170
0.0742496 0.019503 -0.100981 220 129 121
0.074736 0.0192423 -0.0997751 200 97 80
0.0793916 0.0163 -0.0948256 228 168 155
0.0770885 0.0171174 -0.0953208 170 88 79
0.0800149 0.0215944 -0.0924929 128 22 15
0.0813722 0.0284581 -0.0949145 159 103 92
0.0818562 0.0345988 -0.0975098 211 172 135
0.0743671 0.0205358 -0.101867 207 101 95
0.0777127 0.0176234 -0.0945109 161 78 69
0.0769902 0.0163133 -0.0934815 169 101 93
0.0790398 0.0213395 -0.0979594 167 74 64
0.0810707 0.0242426 -0.0958802 157 60 51
0.0810734 0.0227557 -0.0934175 168 46 22
0.0798255 0.0257912 -0.0936512 191 217 211
0.0804539 0.0349445 -0.0981681 243 133 109
0.0811253 0.0300018 -0.0947855 156 100 88
0.0739162 0.018954 -0.100353 219 127 116
0.0752613 0.0172949 -0.0996029 237 113 94
0.0751687 0.0170563 -0.0965645 206 111 99
0.0768645 0.0154904 -0.0972413 255 205 196
0.0766507 0.0147167 -0.0962356 255 188 198
0.0783996 0.0150926 -0.0922724 218 124 93
0.0788089 0.0172793 -0.0918671 144 73 63
0.0783658 0.0171424 -0.0925223 163 107 104
0.0802645 0.0202042 -0.0931662 139 77 73
0.0820715 0.0223861 -0.0946666 175 80 68
0.077298 0.0170199 -0.0947971 171 108 95
0.0781331 0.0168814 -0.0941317 169 93 79
0.0773453 0.0168385 -0.0952899 191 96 92
0.0795958 0.0212699 -0.0949042 179 72 65
0.0805235 0.0238099 -0.0925324 174 171 156
0.0817369 0.0273646 -0.0961812 158 141 131
0.0805154 0.0321056 -0.0994165 190 150 134
0.0750828 0.016446 -0.0956944 191 103 94
0.0779279 0.0172044 -0.0942869 141 67 58
0.0805774 0.0262363 -0.0937388 168 255 250
0.0803001 0.0281928 -0.0959738 194 153 136
0.0804306 0.0338431 -0.0937227 134 71 64
0.0805852 0.034521 -0.0982397 228 117 109
0.0751433 0.0184848 -0.0984054 199 101 91
0.0761071 0.016292 -0.0949213 177 90 78
0.0758933 0.0168765 -0.096827 164 76 72
0.0772904 0.0163128 -0.0958234 191 105 101
0.0801765 0.0204207 -0.0935514 144 75 80
0.0811648 0.0215225 -0.0927935 145 147 124
0.0808558 0.0237718 -0.0940342 169 131 122
0.0814839 0.0294587 -0.0942362 172 81 70
0.080744 0.0300831 -0.0965771 162 116 104
0.0749364 0.0202268 -0.101744 197 104 93
0.0738544 0.0179641 -0.0989422 215 117 110
0.0784509 0.0177204 -0.0922363 159 132 124
0.0804041 0.0276344 -0.0918779 243 144 130
0.07876 0.0352149 -0.103485 231 88 69
0.073622 0.0183625 -0.09986 207 116 108
0.0752712 0.0166037 -0.0953084 220 131 124
0.0783144 0.0155975 -0.0914451 171 97 88
0.0819781 0.0274794 -0.095552 176 51 23
0.0804232 0.0334107 -0.0942024 137 102 88
0.0805318 0.0345987 -0.0968499 189 120 112
0.0823451 0.0339852 -0.0998657 207 108 116
0.0753523 0.0161007 -0.0947708 132 43 37
0.0762835 0.0192823 -0.09993 201 106 99
0.0770673 0.0180396 -0.0977535 185 105 94
0.0797815 0.0138657 -0.0919994 181 112 97
0.0806095 0.0205832 -0.0928215 127 9 5
0.0813697 0.0245448 -0.0923367 118 188 185
0.08146 0.0270384 -0.0917007 140 118 92
0.0808212 0.0319384 -0.0940614 146 83 73
0.0740051 0.0188093 -0.100026 203 112 103
0.0737002 0.0190373 -0.100293 208 115 105
0.0746936 0.0160044 -0.095848 219 133 124
0.0763653 0.0167761 -0.0933032 174 112 101
0.0750871 0.0125705 -0.0898072 156 74 74
0.0788251 0.0156901 -0.0880197 180 95 99
0.0796497 0.017638 -0.0910105 165 99 89
0.08036 0.0261158 -0.09336 185 198 183
0.0801459 0.0321546 -0.095971 136 65 57
0.0789626 0.0333101 -0.0950028 155 50 43
0.0757134 0.0160136 -0.098831 255 166 161
0.0753868 0.0159298 -0.0943674 210 109 99
0.0760337 0.0173818 -0.0964971 177 88 83
0.0785819 0.0140945 -0.0910738 185 95 98
0.0793519 0.0184419 -0.0897354 163 111 97
0.0786684 0.0161819 -0.0926308 175 96 96
0.0797779 0.0190794 -0.0914615 164 110 107
0.0820908 0.032118 -0.0947925 155 106 106
0.078064 0.0353293 -0.102958 255 98 71
0.0733547 0.0174953 -0.0983693 207 132 125
0.075963 0.01696 -0.0948675 172 91 84
0.0740762 0.0176308 -0.0970465 226 124 109
0.0780069 0.0166531 -0.0920123 161 101 90
0.0781986 0.0162289 -0.0907921 163 109 91
0.0804464 0.0174856 -0.0906309 169 92 93
0.0803576 0.021019 -0.0925571 159 55 49
0.0817359 0.0271841 -0.0950246 187 102 88
0.0764052 0.0153619 -0.0945639 245 134 127
0.0760827 0.016313 -0.0940502 182 95 85
0.0761081 0.0153132 -0.0937131 207 118 116
0.0776177 0.0146749 -0.0913871 173 86 76
0.0787282 0.0159371 -0.0912229 144 105 104
0.0798635 0.0152818 -0.0904372 128 5 5
0.0814384 0.0244989 -0.0950526 176 48 49
0.0803455 0.0264911 -0.0931869 180 189 180
0.0732779 0.019989 -0.0989585 238 141 137
0.074427 0.0175665 -0.0981831 226 129 120
0.0790743 0.018211 -0.0924269 168 100 94
0.080589 0.0350542 -0.0968226 193 125 116
0.0743789 0.0158525 -0.0969464 255 174 179
0.0747204 0.0180657 -0.0982431 239 157 143
0.075065 0.0169382 -0.0969881 228 127 123
0.07581 0.014967 -0.0924257 199 105 93
0.0782992 0.0172236 -0.0921257 164 102 95
0.0809781 0.0205385 -0.0909869 171 90 84
0.0809357 0.0194324 -0.0890649 144 44 37
0.0810738 0.025926 -0.0960031 168 54 45
0.0808833 0.034753 -0.0978595 222 112 108
0.0744515 0.019416 -0.100641 206 108 96
0.0740242 0.0182941 -0.0990265 241 123 117
0.0771671 0.0164342 -0.0946697 206 124 111
0.077535 0.0148451 -0.0902782 173 105 101
0.0798503 0.0259859 -0.0912397 202 72 63
0.0812281 0.0302712 -0.0945984 176 125 105
0.0762586 0.0144491 -0.0959238 255 218 219
0.0751534 0.0159218 -0.0939222 201 95 86
0.0767423 0.0161985 -0.0919803 199 120 112
0.0762105 0.0114858 -0.0909957 255 166 159
0.0795785 0.0175597 -0.0913816 174 115 109
0.0785899 0.0172264 -0.0915924 144 94 83
0.0817571 0.0271254 -0.0931751 199 137 118
0.0820725 0.0283041 -0.0951788 164 100 83
0.0808803 0.0282861 -0.0906356 201 125 122
0.0737973 0.0192204 -0.0990229 187 95 85
0.0752152 0.0155259 -0.0956169 255 165 137
0.0765209 0.0176855 -0.0968655 193 104 97
0.0776228 0.0152491 -0.0924912 189 103 97
0.0776062 0.0157348 -0.090748 158 70 57
0.0813175 0.0300637 -0.094329 255 83 53
0.0743534 0.0157043 -0.0959014 231 138 126
0.0750236 0.0170602 -0.0965637 191 100 89
0.0761259 0.0173395 -0.0962629 189 96 88
0.0761466 0.0170433 -0.0965282 190 97 91
0.0766169 0.0134379 -0.0910695 211 93 84
0.0767828 0.0156422 -0.0926516 200 101 96
0.0766846 0.0167557 -0.0949335 168 77 70
0.0783472 0.015105 -0.0899614 195 127 114
0.0805427 0.0347052 -0.0990966 244 132 127
0.0736768 0.0186008 -0.0997379 228 128 119
0.0741389 0.0177159 -0.0982 215 120 109
0.0734185 0.0188834 -0.100122 214 121 111
0.0752029 0.0175058 -0.0984943 216 134 126
0.0753602 0.0158635 -0.0951401 193 150 136
0.0748411 0.016884 -0.0966765 202 100 98
0.0755265 0.0134223 -0.0917344 229 120 122
0.0769424 0.0155471 -0.0932362 182 111 108
0.0797979 0.0244401 -0.091518 174 64 57
0.0817238 0.0269291 -0.0991385 174 87 68
0.079566 0.0228637 -0.092926 119 54 43
0.0824984 0.0270369 -0.095459 165 200 179
0.0801545 0.0315973 -0.093111 179 168 159
0.0803475 0.0329536 -0.0952902 135 88 81
0.0734406 0.0180735 -0.0994488 244 137 126
0.0731033 0.0152698 -0.0936101 203 135 122
0.0757826 0.0138595 -0.0882305 111 12 0
0.0777906 0.0135803 -0.0885958 184 94 87
0.0784077 0.0137764 -0.0894205 170 108 81
0.0785509 0.0175952 -0.0884025 153 100 87
0.0808578 0.0260945 -0.092882 196 131 114
0.0808369 0.0287954 -0.0911058 182 91 81
0.0810492 0.0298337 -0.0910548 187 107 96
0.0767621 0.0150767 -0.0925731 163 68 58
0.0803213 0.0269945 -0.0925559 240 169 146
0.0819799 0.0284263 -0.0919167 140 168 161
0.0806257 0.0298823 -0.0919985 165 62 49
0.0810358 0.0324863 -0.0952271 137 189 188
0.0739941 0.0174874 -0.0978536 221 123 116
0.0737732 0.0176391 -0.0977224 203 109 101
0.074458 0.0170132 -0.0966904 187 95 84
0.0764675 0.0139172 -0.0895042 150 74 71
0.0804828 0.0197875 -0.0920873 207 94 71
0.0732086 0.0173613 -0.0985351 252 153 146
0.0749579 0.0191908 -0.100038 190 110 98
0.0730208 0.0159392 -0.0967401 227 148 146
0.0739184 0.0169424 -0.0963719 205 119 109
0.0744735 0.0190423 -0.101197 180 87 78
0.0756216 0.0165616 -0.0965818 166 84 78
0.0790314 0.0139687 -0.089103 208 100 98
0.0809387 0.0234221 -0.0939272 172 139 134
0.079998 0.0286715 -0.0906988 209 97 89
0.0810463 0.0344505 -0.0968516 155 61 52
0.0806994 0.0345509 -0.0973373 193 94 82
0.0773494 0.0151066 -0.0906897 159 96 87
0.0812038 0.0301003 -0.0926286 155 145 115
0.07943 0.031908 -0.0942216 162 175 195
0.0800749 0.034359 -0.0934994 130 112 98
0.080546 0.0347745 -0.0987854 203 138 126
0.0737011 0.0176137 -0.0979484 230 131 117
0.0738561 0.0167946 -0.0954898 237 143 122
0.0771107 0.015638 -0.0917555 171 77 75
0.0774606 0.0155503 -0.0914971 151 70 58
0.0808021 0.0324746 -0.0935345 147 103 91
0.0807855 0.034475 -0.0958923 173 122 115
0.0817119 0.0350787 -0.0980946 163 91 80
0.0736827 0.0178715 -0.0988274 218 128 117
0.0766346 0.0149078 -0.0930384 177 85 78
0.0809919 0.0233184 -0.0955666 142 64 54
0.081058 0.0329575 -0.0951807 140 123 115
0.0774093 0.0147842 -0.0888892 166 96 90
0.0796484 0.0194159 -0.0923857 156 101 94
0.0820237 0.0257516 -0.0990234 121 85 72
0.0807651 0.0267497 -0.0921755 217 101 88
0.0812893 0.0327442 -0.0927407 123 159 153
0.0737017 0.017974 -0.0986226 210 124 115
0.0738223 0.0182308 -0.0977768 224 137 122
0.0751291 0.0158966 -0.0948857 245 150 146
0.0766547 0.0145946 -0.0895797 181 86 85
0.0810025 0.0213799 -0.0888759 152 77 70
0.0816356 0.0279143 -0.0917476 153 99 76
0.0811509 0.0313799 -0.0947895 152 113 100
0.0807018 0.0345781 -0.0968407 171 118 95
0.0808919 0.0344719 -0.0972123 237 139 119
0.0730318 0.0171076 -0.0984691 197 102 109
0.0750874 0.0175615 -0.0981477 192 102 94
0.0746931 0.0145132 -0.0903807 203 113 108
0.0781356 0.0138266 -0.0899148 182 121 106
0.0785281 0.0151519 -0.0882358 188 97 90
0.0811372 0.0303533 -0.0946689 157 79 68
0.079863 0.0349377 -0.0964651 182 87 87
0.0735474 0.0188612 -0.0983025 199 113 100
0.0770015 0.0132795 -0.0888798 166 91 78
0.077518 0.0151326 -0.0877599 186 94 92
0.0775467 0.0164483 -0.0898093 211 124 111
0.0797101 0.0230865 -0.0895034 138 107 93
0.0795518 0.0254728 -0.0937346 213 129 120
0.0810591 0.0309577 -0.0917057 168 83 78
0.0809265 0.0346952 -0.0961774 203 103 101
0.0731536 0.0188376 -0.098866 228 139 135
0.0730224 0.0197061 -0.099115 245 149 134
0.073128 0.0186385 -0.0994445 180 84 73
0.0769027 0.014288 -0.0903782 172 93 84
0.077629 0.0157017 -0.0882221 177 98 89
0.0786911 0.0150787 -0.0865788 170 86 84
0.0798597 0.021714 -0.0897369 165 94 87
0.0814832 0.032644 -0.0952121 136 102 104
0.0733635 0.0185073 -0.0982692 221 122 108
0.0735185 0.0181942 -0.0983757 210 119 115
0.0755054 0.0139862 -0.090259 170 84 83
0.077312 0.0142384 -0.0890803 166 93 87
0.0809674 0.0204533 -0.0854701 151 80 72
0.0814829 0.0193818 -0.086568 127 62 50
0.080501 0.0231982 -0.0894651 135 89 80
0.0730949 0.017367 -0.0981016 198 107 109
0.0773373 0.0140866 -0.0865261 170 78 77
0.0787756 0.0139838 -0.0881524 176 48 51
0.0805091 0.0162508 -0.087951 154 65 59
0.0791543 0.0181581 -0.0875604 154 80 80
0.0787197 0.0333177 -0.10596 176 90 81
0.0741088 0.0173021 -0.0981714 203 114 111
0.0741654 0.0174939 -0.097718 193 99 89
0.0751148 0.0146605 -0.0924933 210 100 89
0.0755597 0.0139796 -0.0898098 173 92 85
0.0789821 0.0136088 -0.085862 157 81 70
0.0796214 0.016002 -0.0890064 118 33 20
0.0812408 0.0344882 -0.0956886 164 68 50
0.0727767 0.0170081 -0.097097 216 105 105
0.0727895 0.016699 -0.0982921 206 73 75
0.074231 0.0165001 -0.0960475 220 132 117
0.0767435 0.0132201 -0.0920883 251 152 150
0.0760934 0.0141871 -0.0895885 174 98 94
0.0800847 0.0147998 -0.0864003 143 51 39
0.0797053 0.0157963 -0.0875327 206 99 94
0.0821382 0.0226354 -0.0854346 228 76 78
0.0808742 0.0222513 -0.0871453 148 65 58
0.0794625 0.0238971 -0.0868258 179 103 95
0.0812443 0.0344382 -0.0951442 106 64 47
0.0810399 0.0312356 -0.0951653 155 97 82
0.0775231 0.035759 -0.102197 165 65 58
0.073303 0.0186729 -0.0998646 214 116 110
0.074371 0.0163967 -0.0964957 224 142 139
0.0749872 0.0153969 -0.0939992 218 117 108
0.081354 0.0212333 -0.0898429 159 100 89
0.0803259 0.0197773 -0.0881407 145 82 73
0.0797086 0.0218805 -0.0887713 143 88 81
0.0739845 0.0186306 -0.0996687 222 129 118
0.0741689 0.0162149 -0.0954242 217 129 119
0.0744708 0.0153974 -0.0951827 226 151 139
0.0750823 0.0176377 -0.09582 240 143 138
0.0736961 0.0174588 -0.097729 171 85 71
0.0761469 0.0150019 -0.0893962 176 107 97
0.0768515 0.0145268 -0.0893641 171 103 97
0.0755734 0.0148306 -0.0897939 179 95 90
0.0786762 0.0155505 -0.0888466 194 63 49
0.0810092 0.0168459 -0.0858938 132 40 44
0.0797949 0.0229009 -0.0882928 148 94 76
0.0808112 0.0227126 -0.0883444 146 53 49
0.0801958 0.0336634 -0.0948666 134 94 85
0.0813822 0.0331101 -0.0933051 153 141 128
0.0795029 0.0323127 -0.091297 192 58 46
0.0808055 0.0329125 -0.0909194 169 150 143
0.0781129 0.0150173 -0.0893753 130 49 46
0.0787063 0.0143366 -0.0856316 159 79 91
0.0731786 0.0182161 -0.0994433 190 90 83
0.0735488 0.0166415 -0.0967658 201 109 107
0.0740296 0.0173406 -0.0969778 205 116 105
0.073764 0.0166315 -0.0962383 202 110 105
0.0755478 0.0160258 -0.0940799 199 105 99
0.0817454 0.0238497 -0.0885302 175 63 54
0.0825687 0.0262527 -0.0938746 168 132 127
0.0799282 0.0355729 -0.094436 200 144 146
0.0739964 0.0175949 -0.097586 189 98 91
0.0748664 0.0144522 -0.0938489 165 82 80
0.0744634 0.0148154 -0.0918548 177 94 89
0.0806855 0.0202518 -0.0847871 121 48 42
0.0805057 0.0195784 -0.0852092 125 59 51
0.0806517 0.0217146 -0.0858371 170 81 69
0.0808942 0.0224701 -0.0870743 153 65 59
0.0754604 0.0142811 -0.0882242 155 83 76
0.0757862 0.0147236 -0.0894789 139 63 58
0.0808959 0.0208136 -0.0909389 222 47 47
0.0804578 0.027796 -0.0875256 140 42 33
0.0811102 0.0334943 -0.0901042 141 142 126
0.081011 0.033021 -0.0939259 127 111 103
0.0728666 0.0167147 -0.0979879 230 124 113
0.0743824 0.0133664 -0.0927906 207 174 163
0.0736725 0.0135595 -0.0916568 155 68 61
0.0803896 0.0234877 -0.0874446 150 79 71
0.0816448 0.028658 -0.0904172 162 67 57
0.0817302 0.0328001 -0.0917521 103 182 182
0.0815169 0.0323138 -0.0934698 158 90 79
0.0813395 0.0344599 -0.0966286 221 115 129
0.0810305 0.032434 -0.0935089 135 126 120
0.0722997 0.0146143 -0.0951441 193 118 114
0.073969 0.0169161 -0.0961519 232 131 123
0.074696 0.0150549 -0.0933905 209 97 88
0.0755646 0.0139582 -0.0919169 240 106 101
0.0749138 0.0156187 -0.09346 209 106 97
0.0816052 0.0196511 -0.0908068 194 90 86
0.081434 0.0207088 -0.088547 203 86 76
0.0810965 0.0321996 -0.091788 192 92 80
0.0800158 0.0319364 -0.0937638 164 52 37
0.074638 0.0174134 -0.0975786 223 137 119
0.0733181 0.0157504 -0.0957431 220 144 130
0.0773509 0.0136878 -0.0905913 205 96 88
0.0775898 0.0138002 -0.0865792 173 75 72
0.0759136 0.0130944 -0.0895476 155 77 69
0.0764701 0.0132091 -0.0857986 126 70 62
0.0783817 0.0149334 -0.0872981 123 49 42
0.0807649 0.0185185 -0.0844447 141 65 64
0.080909 0.0244994 -0.0847777 156 85 79
0.0812107 0.031993 -0.0943195 162 101 93
0.0779509 0.0356919 -0.101371 161 68 64
0.0725542 0.015941 -0.0953124 200 126 114
0.074545 0.0153014 -0.0947132 205 109 102
0.0733456 0.0170803 -0.0974613 210 116 107
0.0764164 0.0117192 -0.0882782 156 94 84
0.0749595 0.0134539 -0.0914201 221 87 79
0.0763831 0.0146776 -0.0875047 166 87 74
0.0786413 0.0155521 -0.0856012 112 42 40
0.0800558 0.0237965 -0.0867608 161 97 93
0.0813889 0.0233751 -0.0855168 175 103 95
0.0824037 0.0307216 -0.0850633 255 68 48
0.0791892 0.0324254 -0.0929911 140 110 96
0.0810973 0.0319161 -0.0925558 166 129 118
0.0802552 0.0328053 -0.088809 214 137 125
0.0812043 0.0326426 -0.093257 133 150 146
0.0716473 0.0160097 -0.0936703 188 122 100
0.0746554 0.0159709 -0.094238 193 97 86
0.0778122 0.0132253 -0.0849912 161 71 66
0.0795781 0.0198908 -0.0822867 157 58 51
0.0800825 0.0148799 -0.0868937 111 46 47
0.0798165 0.0218642 -0.089219 147 95 83
0.0806304 0.0215592 -0.0848299 136 57 50
0.0810479 0.0306873 -0.0944545 124 166 153
0.0730371 0.0149234 -0.0929104 193 119 104
0.0731591 0.0144941 -0.0918566 162 84 77
0.0758032 0.0142395 -0.0905563 169 79 79
0.0764353 0.0146573 -0.088256 160 89 83
0.078366 0.0168079 -0.0857377 109 24 21
0.0796225 0.0217543 -0.084287 101 29 31
0.0794633 0.024355 -0.0852067 177 98 87
0.0814506 0.0318091 -0.0909805 147 138 119
0.0807466 0.03198 -0.0945396 143 84 75
0.0757843 0.0141231 -0.092127 213 82 82
0.0735149 0.0152559 -0.0934672 182 113 97
0.0763877 0.0133411 -0.0908619 170 91 86
0.075587 0.0129582 -0.0920364 160 77 71
0.076029 0.0137696 -0.0896019 160 84 72
0.076327 0.0143704 -0.0906117 137 61 52
0.0777086 0.014226 -0.0858293 181 72 59
0.0797292 0.015871 -0.0892459 138 70 62
0.0758762 0.0118428 -0.0813767 140 55 48
0.0783148 0.0178521 -0.0838264 151 79 70
0.0795923 0.017574 -0.0842795 152 33 20
0.0807613 0.0192849 -0.0833907 165 97 91
0.081507 0.0322623 -0.0912665 137 164 160
0.0734175 0.0187794 -0.0996955 205 103 95
0.0723663 0.0159561 -0.0967183 238 130 123
0.0739211 0.0155138 -0.0971475 237 159 141
0.0727152 0.0119732 -0.0883945 201 135 117
0.0734431 0.014542 -0.0929492 181 118 110
0.0734068 0.0149433 -0.0937691 194 134 117
0.0771281 0.0135235 -0.0869302 114 32 30
0.079234 0.019414 -0.0825159 138 72 69
0.0810907 0.0312847 -0.094406 144 84 74
0.0805701 0.0315989 -0.0905937 196 120 104
0.0807018 0.0321384 -0.0910948 226 94 95
0.0801147 0.0350591 -0.0943844 173 123 116
0.0722076 0.0157442 -0.0947747 179 116 101
0.0721477 0.0148992 -0.0947474 228 109 111
0.0741277 0.0145774 -0.0924573 195 101 86
0.0760378 0.0131986 -0.0859684 186 97 91
0.0793164 0.0191172 -0.0883464 158 79 74
0.0795431 0.0179561 -0.0806994 143 98 84
0.081365 0.0231138 -0.0875344 150 59 55
0.0792888 0.0229743 -0.0838433 164 81 81
0.0800763 0.0231437 -0.0838772 151 65 56
0.080403 0.0328902 -0.0933114 150 92 84
0.0794258 0.0338015 -0.0915081 169 131 123
0.0740695 0.0153214 -0.0947111 250 139 121
0.0731265 0.0124437 -0.088216 205 119 111
0.0759086 0.0103112 -0.0812475 149 76 74
0.0770601 0.0151885 -0.0870699 114 72 67
0.0783693 0.0147097 -0.0839153 168 87 84
0.0796116 0.0239012 -0.0831762 144 55 52
0.081832 0.0320943 -0.092271 156 86 73
0.0810765 0.0329232 -0.0904915 154 108 93
0.0805489 0.0339432 -0.0903588 151 104 89
0.0742785 0.0163615 -0.0954394 195 112 105
0.074388 0.0163591 -0.0952732 215 103 105
0.0737966 0.014865 -0.0931563 161 91 83
0.0778492 0.0104218 -0.0811488 176 67 57
0.0765134 0.014831 -0.0822804 119 61 58
0.0805719 0.0267404 -0.085564 156 85 81
0.0782832 0.0327706 -0.0926212 164 149 163
0.0723201 0.0165311 -0.0960637 170 75 66
0.0743363 0.0142421 -0.090118 165 82 77
0.0756171 0.0141217 -0.0871685 178 92 92
0.0794718 0.0183243 -0.0817831 154 75 72
0.0834909 0.0274322 -0.094218 144 81 73
0.0795738 0.0336012 -0.0893331 166 120 108
0.0745305 0.0141479 -0.0897562 207 115 119
0.0751619 0.0126082 -0.0886399 193 118 114
0.0754672 0.013463 -0.0908378 171 25 19
0.0758422 0.0131963 -0.0880772 151 61 54
0.0778825 0.0170982 -0.0888847 164 94 82
0.0782084 0.016245 -0.0848655 139 92 90
0.0774246 0.0169638 -0.0793317 137 76 72
0.0782087 0.0199954 -0.0881015 123 41 39
0.0805593 0.0236956 -0.0846085 146 89 83
0.0720608 0.0155572 -0.0968424 192 93 85
0.0752871 0.0147675 -0.0889955 208 136 136
0.0783491 0.0142998 -0.0801391 155 68 64
0.0803071 0.0239366 -0.0846324 155 87 85
0.0797002 0.0243075 -0.0851711 159 91 82
0.0811023 0.0338716 -0.0917322 101 131 126
0.0733933 0.0178259 -0.098475 212 97 87
0.071174 0.0159 -0.0969926 172 74 71
0.0735946 0.0146803 -0.0948302 226 124 111
0.0743175 0.0133277 -0.0887344 181 107 105
0.0746392 0.0115484 -0.0851664 196 75 68
0.0754029 0.0114363 -0.0822569 133 57 50
0.0751451 0.011803 -0.0813343 142 58 54
0.0773903 0.0158056 -0.084679 182 90 88
0.0792447 0.0234832 -0.0837106 116 55 48
0.0804212 0.0256444 -0.0835611 206 87 77
0.0818903 0.0321299 -0.0909208 137 146 127
0.0824578 0.0304263 -0.0877464 225 117 106
0.0805164 0.0329222 -0.0902069 164 145 134
0.0811738 0.034834 -0.0916956 118 148 145
0.0740546 0.0150274 -0.0940754 213 153 146
0.0765442 0.0122934 -0.0809836 135 58 56
0.0804015 0.0253462 -0.0840187 188 101 85
0.0819525 0.034531 -0.0925478 150 87 82
0.0731044 0.013684 -0.0890769 200 131 117
0.0743415 0.0115545 -0.0815187 136 64 56
0.0760399 0.0129268 -0.0811507 133 61 53
0.0778404 0.0157607 -0.0791737 119 43 41
0.0779674 0.0180917 -0.0851847 163 125 111
0.079672 0.0195859 -0.0849591 139 58 50
0.0810078 0.021481 -0.0881138 142 52 52
0.0797115 0.0238773 -0.0839233 176 83 67
0.0809216 0.0301323 -0.0849528 189 97 83
0.0715818 0.0145976 -0.0946424 189 107 110
0.0725067 0.0142901 -0.094617 255 184 182
0.071707 0.0144952 -0.0928933 180 102 106
0.0735318 0.0178926 -0.0985644 193 108 103
0.0725713 0.0157369 -0.0954366 179 92 85
0.0746196 0.0135534 -0.0905019 166 96 93
0.0751767 0.0147123 -0.0891769 174 105 101
0.0765561 0.0128934 -0.0812606 106 49 49
0.0785979 0.0250655 -0.0844722 101 28 23
0.0797531 0.0311206 -0.0934552 151 70 57
0.0802566 0.0347556 -0.0955574 183 95 93
0.0726189 0.0158099 -0.0945301 193 129 111
0.0711927 0.0153653 -0.0955056 191 87 86
0.0741293 0.0185665 -0.098796 185 90 78
0.0719424 0.0142911 -0.0921637 190 111 99
0.0742936 0.0119968 -0.0908561 255 168 135
0.0738629 0.0130757 -0.0882546 179 101 91
0.0759464 0.0125291 -0.0843562 158 89 83
0.0745965 0.0110137 -0.0850027 168 82 75
0.0773746 0.016118 -0.078697 162 99 96
0.0778744 0.0163072 -0.0790883 107 55 46
0.0808549 0.015911 -0.0819015 143 78 81
0.0797149 0.0244362 -0.0838979 166 84 75
0.0788746 0.0349157 -0.0996333 145 87 77
0.071998 0.0157538 -0.0944382 191 117 101
0.0726523 0.0147404 -0.0921857 157 81 75
0.0747239 0.0131118 -0.0909195 193 94 92
0.0729147 0.0134264 -0.0911064 148 69 60
0.0745797 0.0107694 -0.082809 137 71 63
0.0754862 0.0105169 -0.0840446 227 116 112
0.0756039 0.0113222 -0.0850481 170 59 48
0.0787017 0.0190281 -0.0802901 143 78 74
0.0797165 0.0177129 -0.0854949 166 82 74
0.0798989 0.0248182 -0.084457 170 83 73
0.0810092 0.0277815 -0.0853112 162 88 89
0.0818792 0.028777 -0.0980845 193 89 76
0.0805876 0.0335676 -0.0875469 238 108 95
0.0804105 0.0339001 -0.0932655 115 107 95
0.0726916 0.0155801 -0.0948518 189 113 104
0.0718078 0.0155614 -0.09446 192 117 105
0.0728654 0.0156192 -0.0935638 188 120 110
0.0731969 0.0128195 -0.0901898 219 140 135
0.0750701 0.0114697 -0.0835935 145 59 51
0.0755658 0.0138134 -0.0820875 169 99 89
0.0758637 0.0137351 -0.0820525 174 108 104
0.0791641 0.015404 -0.0816286 153 85 71
0.0794962 0.0231916 -0.0856808 158 81 70
0.0788812 0.0326939 -0.0928624 118 13 0
0.0820196 0.0320647 -0.0907412 178 163 151
0.0817181 0.0298366 -0.0914498 176 84 71
0.0817693 0.03148 -0.0907672 158 173 160
0.0720834 0.0151198 -0.094515 202 121 117
0.0745657 0.0127522 -0.0874383 189 77 70
0.0732985 0.0158332 -0.0940086 180 96 81
0.0763921 0.0127795 -0.0861098 159 71 63
0.0765874 0.0107178 -0.0823724 138 55 51
0.0776929 0.0172019 -0.0805626 149 74 72
0.0790218 0.0201329 -0.0820673 141 65 58
0.0788426 0.0322373 -0.0879655 120 37 32
0.0785084 0.0348482 -0.0901221 150 105 95
0.0805526 0.0334013 -0.0904543 166 83 63
0.0806755 0.0339035 -0.0930365 116 96 72
0.0719494 0.0149278 -0.0948353 170 88 82
0.0715529 0.0117956 -0.0877849 204 100 91
0.0729516 0.0123259 -0.087675 192 85 76
0.0724082 0.0133747 -0.0912306 205 124 111
0.0764714 0.0129049 -0.0811456 156 70 67
0.0757754 0.0130123 -0.0808382 154 73 62
0.0774845 0.0136966 -0.0812159 145 60 52
0.0789445 0.0227204 -0.0844489 92 33 29
0.0800291 0.0324805 -0.0895087 168 126 121
0.0710838 0.0153166 -0.0957932 227 138 131
0.0713049 0.0105773 -0.0868023 182 119 122
0.0756942 0.0135623 -0.0840652 192 113 106
0.0778918 0.0130981 -0.0809743 156 89 86
0.0811806 0.0219648 -0.0857042 155 75 67
0.0808964 0.0248238 -0.0865577 169 80 79
0.0714452 0.0156683 -0.0950695 183 110 94
0.0716885 0.0152099 -0.0966982 206 95 60
0.074929 0.0120118 -0.0813327 157 83 76
0.0792312 0.0150873 -0.0822961 139 65 57
0.0791844 0.0194313 -0.0826767 137 60 58
0.0795462 0.0243729 -0.0886576 118 32 31
0.079575 0.0273781 -0.0823975 176 74 69
0.0807966 0.0299646 -0.0843689 161 49 42
0.0820739 0.0295577 -0.0889368 227 118 124
0.0809387 0.0310626 -0.0926083 146 96 73
0.0807856 0.0351073 -0.0945199 208 117 114
0.0716337 0.015167 -0.0961842 241 116 102
0.0716097 0.0154962 -0.0960554 194 87 90
0.0728265 0.013893 -0.0908842 140 57 53
0.0716833 0.0130677 -0.0911578 231 145 123
0.0728561 0.0128442 -0.0904415 138 97 81
0.0739184 0.010521 -0.0805292 175 131 114
0.0782436 0.0167508 -0.079412 153 81 76
0.0804742 0.0199212 -0.0904932 122 40 32
0.0799316 0.0218558 -0.0824566 159 72 69
0.0810794 0.0312525 -0.0877565 189 52 28
0.0814483 0.0330701 -0.0916454 114 203 207
0.081009 0.0320917 -0.0907726 124 127 112
0.0720147 0.0156157 -0.0946564 173 106 91
0.0727898 0.0120254 -0.0904521 236 106 104
0.0740097 0.0148076 -0.0925502 182 88 83
0.0735065 0.0117782 -0.0839636 171 90 89
0.0744644 0.0121564 -0.0826041 156 86 77
0.0746403 0.0109992 -0.0828987 133 55 51
0.0794324 0.0114091 -0.0823428 176 56 57
0.0789699 0.0183635 -0.0805341 142 88 83
0.0815466 0.0304696 -0.0859492 211 132 118
0.081777 0.0298396 -0.08548 196 84 71
0.0815116 0.0303537 -0.0867914 193 76 64
0.0806204 0.0280541 -0.0856993 148 82 77
0.0732985 0.0147776 -0.0944941 204 128 125
0.0704272 0.0126665 -0.090543 175 98 94
0.0750112 0.0132559 -0.0897258 157 86 76
0.0743754 0.0130767 -0.0880204 157 91 80
0.074082 0.0114755 -0.0874704 152 109 101
0.0740073 0.0116297 -0.0828195 158 82 76
0.0774714 0.0169255 -0.0791635 159 105 99
0.0782337 0.0144095 -0.0813157 108 41 33
0.0807259 0.0189414 -0.0842842 145 75 74
0.0809741 0.0272982 -0.0847321 160 67 55
0.0810312 0.0323854 -0.0908372 149 75 65
0.0720399 0.0142628 -0.0898581 151 81 72
0.0735577 0.0142975 -0.0903218 185 104 100
0.0757966 0.0150107 -0.0905784 161 85 78
0.0729946 0.0124257 -0.0841847 127 86 80
0.0728704 0.0108548 -0.0820865 149 78 66
0.0769112 0.0129205 -0.0844148 125 59 53
0.0823905 0.029844 -0.0887226 128 72 50
0.0802141 0.0319629 -0.0859156 186 118 114
0.0793205 0.0316857 -0.0851437 139 124 119
0.0826477 0.0335632 -0.0883652 141 244 246
0.0815318 0.0337917 -0.091127 117 140 133
0.0815105 0.031806 -0.0917063 121 92 74
0.0722457 0.0140587 -0.09172 171 95 90
0.0731757 0.0116259 -0.0814677 143 77 72
0.0778945 0.0165587 -0.0800366 139 65 60
0.0793879 0.0207094 -0.085267 134 65 59
0.078603 0.019878 -0.0803297 122 62 61
0.0803007 0.0185512 -0.0849369 157 83 84
0.079467 0.0228159 -0.0838896 128 58 54
0.0798638 0.0234605 -0.083849 124 37 31
0.0805839 0.02323 -0.0859407 162 99 94
0.080299 0.0331653 -0.0914058 145 76 66
0.070738 0.0158632 -0.096209 170 89 82
0.0724806 0.0159549 -0.0970369 206 111 100
0.0718878 0.0127622 -0.0895571 204 139 129
0.0745521 0.0144446 -0.0807827 161 104 89
0.0754533 0.0118462 -0.0820551 156 69 62
0.0786013 0.0137282 -0.0803834 175 102 92
0.0778678 0.0215168 -0.0782206 118 106 104
0.0790326 0.0250828 -0.0813105 161 77 75
0.080885 0.0275217 -0.0846795 158 98 91
0.0805951 0.0333315 -0.092067 153 89 78
0.0717962 0.0146605 -0.0944892 204 113 97
0.0719034 0.00990068 -0.0860464 255 118 115
0.0715597 0.0125279 -0.0891752 205 133 121
0.0750541 0.0119018 -0.0814516 152 79 73
0.075709 0.0128103 -0.0812446 159 81 76
0.0792502 0.0224416 -0.0822832 155 71 70
0.0788763 0.0189875 -0.0822484 109 33 30
0.0806544 0.0247333 -0.0854827 162 89 77
0.0816098 0.030606 -0.0830971 224 123 108
0.0804186 0.0301249 -0.0834519 117 103 88
0.0708973 0.0154277 -0.0946445 176 100 95
0.0733599 0.0133339 -0.0903812 129 63 54
0.0756052 0.0108586 -0.0873737 189 115 111
0.0746206 0.0133298 -0.0833638 176 84 83
0.0754878 0.0122773 -0.0813776 150 71 62
0.0748239 0.0117441 -0.0814396 147 77 70
0.0779993 0.0172875 -0.0798097 144 74 68
0.07933 0.0193576 -0.0819305 103 37 35
0.0784594 0.0205713 -0.0793089 111 94 84
0.0817596 0.0234195 -0.0846714 185 117 110
0.0802641 0.0274151 -0.084544 153 88 81
0.0802257 0.0270056 -0.0845693 170 87 80
0.0713132 0.015734 -0.0961258 162 68 61
0.0725272 0.0136012 -0.0917615 159 77 69
0.0750239 0.0146258 -0.0910601 181 96 88
0.0774239 0.0167652 -0.0794925 141 77 71
0.0773064 0.0189331 -0.0790654 151 91 79
0.0794918 0.0229768 -0.0819475 164 74 74
0.0802621 0.0277175 -0.0864189 166 80 72
0.0806497 0.0350791 -0.0944293 220 117 111
0.0800192 0.0351065 -0.095721 163 67 60
0.0710583 0.0153485 -0.0952299 194 90 84
0.0711745 0.0153594 -0.0949743 194 95 97
0.0719008 0.0161621 -0.0957922 166 67 63
0.0712922 0.0117061 -0.0901659 209 144 140
0.0737944 0.0119109 -0.0855673 195 60 55
0.0737975 0.0119768 -0.0814769 143 76 70
0.0765181 0.0164112 -0.0786344 109 46 39
0.0785932 0.0157477 -0.0798571 148 84 76
0.0786388 0.0181677 -0.0799024 115 55 45
0.0777604 0.0187757 -0.0782198 140 69 62
0.0776345 0.0223946 -0.0804764 124 48 42
0.0797733 0.0257198 -0.0834903 120 62 51
0.0803892 0.0258774 -0.0848177 167 95 83
0.0802348 0.0316264 -0.0887643 149 91 87
0.0813243 0.0330709 -0.0934522 155 90 80
0.0724826 0.0154111 -0.0937087 175 112 99
0.0711944 0.0120036 -0.0909929 208 118 120
0.0723041 0.0137861 -0.089082 170 101 89
0.0741379 0.0110171 -0.084922 191 75 71
0.0758315 0.0136896 -0.0809164 149 69 63
0.0778827 0.0140192 -0.0806728 137 66 63
0.0808136 0.0282121 -0.0832875 174 109 103
0.0812845 0.0292941 -0.0853095 205 102 95
0.0805164 0.0355598 -0.0955774 186 85 78
0.0713786 0.0146205 -0.0936301 171 108 96
0.0744332 0.0131712 -0.0875315 122 52 45
0.0738721 0.0136165 -0.088952 158 97 88
0.0783699 0.0168221 -0.0842659 133 78 71
0.0792074 0.0217487 -0.082211 144 55 52
0.0786814 0.0235024 -0.0807218 117 42 40
0.0807511 0.0293473 -0.0821094 127 115 88
0.0794279 0.0330972 -0.0911802 147 78 66
0.0788615 0.0326654 -0.089221 154 120 117
0.0808091 0.0354259 -0.0906086 113 147 141
0.0710187 0.0156926 -0.0962093 133 54 50
0.078132 0.015024 -0.0799264 148 75 67
0.0796473 0.0212633 -0.0859524 136 71 68
0.0793079 0.0247192 -0.0810822 169 81 74
0.0796236 0.026412 -0.0843176 161 86 78
0.0786221 0.0336408 -0.0929253 135 35 28
0.0705326 0.0125638 -0.0919411 210 132 132
0.0704755 0.0125634 -0.0908538 99 16 9
0.0716284 0.0124236 -0.0879605 188 97 86
0.0754113 0.0121215 -0.0814608 141 54 47
0.0751113 0.0117142 -0.0815674 145 71 64
0.0729874 0.0110169 -0.0824113 141 64 57
0.0770243 0.0143961 -0.0794424 152 83 76
0.0793313 0.0173146 -0.0797289 149 105 106
0.0792716 0.0186386 -0.0826463 140 67 58
0.079346 0.0224428 -0.0812976 168 86 83
0.0802009 0.025331 -0.084087 193 80 74
0.0810052 0.0274439 -0.0858853 168 83 76
0.0794844 0.0334366 -0.0872716 161 77 69
0.0710749 0.0136107 -0.0921938 172 117 107
0.072646 0.0105496 -0.0865209 173 96 79
0.0736734 0.0122582 -0.0813879 137 69 63
0.0800196 0.0232039 -0.0820764 164 70 65
0.079289 0.0241995 -0.0815676 138 69 66
0.0808476 0.0232525 -0.0857258 157 95 89
0.0789857 0.0312872 -0.0938875 134 79 70
0.0777089 0.0304024 -0.0831539 208 75 70
0.0803217 0.0322122 -0.0888846 163 78 69
0.070045 0.0142295 -0.0936889 198 153 128
0.0706699 0.0136281 -0.0929846 163 96 91
0.0720627 0.0134271 -0.0904409 150 81 75
0.0753666 0.0115232 -0.0855723 158 85 70
0.0734965 0.0107608 -0.0865359 196 97 88
0.0743753 0.00915215 -0.0830359 167 104 86
0.0773089 0.0138885 -0.0782663 118 64 56
0.0764446 0.0146621 -0.0803241 138 64 58
0.0794353 0.0250873 -0.0808946 162 86 83
0.0801316 0.0237461 -0.0845753 143 59 54
0.079798 0.0255791 -0.0837757 169 94 82
0.0804183 0.0267737 -0.0834217 177 99 97
0.0810671 0.0296093 -0.0838421 159 99 83
0.0815918 0.029319 -0.0837723 180 101 90
0.081059 0.0316263 -0.0865748 161 132 123
0.072397 0.0139454 -0.0913425 128 58 51
0.0737422 0.0133275 -0.090217 139 67 61
0.0701608 0.0124889 -0.0909962 146 71 73
0.0759859 0.0153996 -0.0791459 106 64 63
0.07825 0.0163382 -0.079363 137 75 68
0.0791365 0.0240255 -0.0810184 159 83 83
0.0830312 0.0302405 -0.0875738 227 106 93
0.0773248 0.0304733 -0.0829416 197 53 48
0.080678 0.0331492 -0.0906147 156 104 87
0.0705017 0.0150043 -0.0953906 188 110 100
0.0701651 0.0143143 -0.0941562 186 130 109
0.0722074 0.010071 -0.0862104 217 82 84
0.0726195 0.0105566 -0.0861505 203 99 102
0.0730737 0.0109857 -0.0818352 137 80 74
0.0739134 0.013316 -0.0799191 174 129 111
0.0781436 0.0131142 -0.0825114 133 41 35
0.0769896 0.0165952 -0.0789563 107 41 35
0.07736 0.0211676 -0.078548 159 89 69
0.0795025 0.0243326 -0.0806849 179 96 91
0.0794691 0.0240689 -0.0812816 157 79 75
0.0806304 0.029547 -0.0861 183 102 102
0.0808416 0.0317647 -0.0832194 201 107 97
0.0796943 0.0321399 -0.0877546 172 114 104
0.078813 0.0334606 -0.0912222 113 8 0
0.0812481 0.0317705 -0.092826 123 141 125
0.0729408 0.0127489 -0.0886869 149 75 58
0.0737859 0.010875 -0.0825216 147 79 69
0.0787396 0.0173369 -0.0815936 127 49 45
0.079908 0.0200008 -0.0846528 126 47 40
0.0778821 0.0158706 -0.0800709 131 59 55
0.0784388 0.0209239 -0.0817299 128 73 70
0.0793361 0.0234366 -0.0824283 176 74 67
0.0790235 0.0298326 -0.0836671 154 67 59
0.0791402 0.029504 -0.0847508 173 79 71
0.0700769 0.0149608 -0.0952573 184 95 92
0.0703909 0.0159212 -0.0960383 164 77 69
0.0718755 0.0146815 -0.0923484 116 50 42
0.0729823 0.0103452 -0.085462 148 45 42
0.0750626 0.014374 -0.0803365 168 105 91
0.0730416 0.0132142 -0.0816928 163 79 67
0.0797688 0.0250555 -0.0847934 164 85 82
0.0799687 0.033894 -0.0883968 199 80 59
0.0697578 0.015253 -0.0951036 160 76 70
0.0731486 0.011445 -0.0817415 140 82 76
0.0742155 0.0117318 -0.0792084 146 105 98
0.0793607 0.0171868 -0.0826459 140 58 52
0.0793451 0.0246517 -0.0804113 147 64 61
0.0785521 0.0275475 -0.0841156 155 86 79
0.0799822 0.0322288 -0.0834855 165 61 51
0.0798562 0.0319862 -0.0843699 170 99 89
0.0784715 0.0300216 -0.0818805 215 110 109
0.0772256 0.0293656 -0.0832885 205 65 60
0.0803855 0.0329304 -0.0868115 162 97 82
0.0782293 0.033609 -0.0926833 175 137 122
0.0717863 0.0106367 -0.0863142 194 69 68
0.0741413 0.011147 -0.0811309 182 118 107
0.0794445 0.0130195 -0.0741003 150 72 66
0.0777122 0.0185745 -0.0787663 179 96 85
0.0785198 0.02033 -0.0773835 133 87 86
0.0766038 0.0216579 -0.0784893 121 56 53
0.0794567 0.0174991 -0.0817167 143 69 64
0.0796275 0.0229774 -0.0826879 170 76 73
0.0778507 0.0330653 -0.0869614 170 109 110
0.0807743 0.0335211 -0.0892294 156 79 65
0.0810834 0.0318963 -0.0877999 189 138 128
0.0719692 0.014402 -0.0926466 168 98 89
0.0704168 0.00942738 -0.0874076 105 20 18
0.0710424 0.00972234 -0.0842203 88 23 22
0.0729874 0.0113439 -0.0820846 130 70 65
0.0752806 0.00830694 -0.0783531 136 72 68
0.074154 0.0093723 -0.0748484 113 54 46
0.0760105 0.0116383 -0.0758284 123 74 77
0.0790524 0.0196065 -0.0802032 148 86 84
0.0801749 0.0215124 -0.084113 139 38 22
0.0783757 0.0269071 -0.082675 120 51 44
0.0810842 0.0313644 -0.0851605 188 132 126
0.0813725 0.0322448 -0.0905391 117 102 89
0.0793641 0.0339447 -0.0940599 132 35 21
0.0707969 0.0141711 -0.095048 163 136 147
0.0714773 0.0101599 -0.0899293 143 73 67
