ply
format ascii 1.0
comment Created by Open3D
element vertex 1175
property double x
property double y
property double z
property uchar red
property uchar green
property uchar blue
end_header
0.0390978 0.0243192 -0.0723185 167 90 85
0.0337538 0.050843 -0.062432 171 82 77
0.0316303 0.048257 -0.0221512 84 45 43
0.0377296 0.0301306 -0.0828542 215 115 107
0.0391168 0.0417627 -0.0206757 83 41 38
0.0628698 0.0386522 -0.0261754 79 38 36
0.0310493 0.0461383 -0.0592777 187 94 88
0.0416743 0.0589909 -0.0113631 73 33 30
0.0623403 0.039526 -0.0280943 81 41 39
0.031063 0.0443886 -0.0630866 183 94 89
0.0327092 0.0439048 -0.00942463 79 37 34
0.0332801 0.0394417 -0.0631597 199 108 103
0.0318093 0.0468971 -0.0240832 83 44 42
0.0623197 0.0389667 -0.0259816 77 37 34
0.0342618 0.0596166 -0.061788 182 93 88
0.0582597 0.0430313 -0.0232758 85 40 38
0.0603804 0.0366022 -0.0204199 72 30 28
0.0318321 0.0394563 -0.0652794 182 88 82
0.0375463 0.0355154 -0.0856766 253 178 170
0.0310962 0.0465981 -0.0232757 77 39 36
0.0368372 0.0349022 -0.0865429 255 185 182
0.0346095 0.0317091 -0.0641865 186 95 90
0.037412 0.0311183 -0.0826394 211 94 90
0.0339163 0.0301593 -0.0666158 181 86 80
0.0290064 0.0372745 -0.0555311 190 95 90
0.036908 0.0280443 -0.0468119 127 76 72
0.0348711 0.0583988 -0.0258962 77 34 31
0.0350704 0.0445065 -0.0221744 79 37 34
0.0379022 0.0258396 -0.0626678 173 87 82
0.0641769 0.040658 -0.0248906 66 30 28
0.0348656 0.0291303 -0.0453747 134 73 69
0.0419178 0.0201498 -0.0407136 102 57 55
0.0362102 0.0334261 -0.0841273 255 196 192
0.0403121 0.0597832 0.0220605 84 46 42
0.0434052 0.0200627 -0.0675506 155 87 84
0.0644808 0.0411712 -0.0221092 69 31 29
0.0413981 0.0509956 -0.0277855 86 44 41
0.0598301 0.0321472 -0.0255953 77 37 34
0.032712 0.0483461 -0.0796927 223 120 114
0.0362609 0.0240218 -0.0724124 162 80 76
0.0386385 0.0322583 -0.0841274 236 68 65
0.0321424 0.0449765 -0.0642553 185 96 91
0.0338616 0.0450913 -0.0652352 193 101 95
0.0368928 0.0563707 -0.0221174 75 35 32
0.0377552 0.0593267 -0.026075 101 67 64
0.0339212 0.0482297 -0.0305314 87 49 46
0.0376746 0.0525451 -0.0224946 79 40 37
0.0316779 0.0411479 -0.0647802 173 79 72
0.0344152 0.0387998 -0.0689875 196 106 100
0.0316401 0.0382193 -0.079277 249 160 152
0.0536724 0.021284 -0.0447644 95 54 50
0.0359167 0.0401633 -0.0878166 255 167 166
0.0312569 0.0498268 -0.0196436 81 41 38
0.0634958 0.0372239 -0.0119896 83 43 41
0.0333696 0.0439634 -0.0836154 254 195 189
0.0343889 0.0433675 -0.0656354 197 105 100
0.0401798 0.0526048 -0.0293347 79 40 37
0.0585878 0.036689 -0.0265797 74 33 31
0.0487798 0.0225464 -0.063226 128 69 64
0.0373742 0.0311079 -0.0673131 185 92 86
0.0338723 0.0534048 -0.058773 85 37 33
0.0377646 0.0525663 -0.025149 81 43 41
0.0359797 0.0402922 -0.0848054 255 194 186
0.0378823 0.0533389 -0.0156964 79 38 36
0.0327573 0.0354221 -0.0608092 180 94 88
0.0324513 0.0308753 -0.0588206 185 101 96
0.0354263 0.0326593 -0.0809626 243 156 150
0.0308378 0.036141 -0.0736785 225 128 123
0.0336167 0.0442865 -0.063081 193 109 103
0.028952 0.0482614 -0.018293 69 32 29
0.0380952 0.0581675 -0.0291383 102 66 62
0.031204 0.0408269 -0.0525671 108 57 54
0.0341435 0.0407125 -0.085828 251 203 197
0.0266668 0.0496514 -0.00560783 77 39 36
0.0320216 0.0426956 -0.0769592 234 138 133
0.0390402 0.0636028 -0.0231647 94 47 43
0.0352222 0.0588437 -0.0317937 80 37 34
0.03213 0.0470099 -0.0251481 83 45 42
0.0321231 0.0464279 -0.0624004 183 86 80
0.0327721 0.0405554 -0.0802115 252 176 169
0.0307655 0.0359766 -0.0605417 187 88 82
0.0405863 0.0613737 -0.0285831 86 43 40
0.0369696 0.0293834 -0.0646489 178 88 83
0.0447855 0.0410875 -0.0167906 105 61 58
0.0336809 0.0439459 -0.0271859 92 53 51
0.0342152 0.0281264 -0.0433192 138 76 72
0.0357135 0.0362505 -0.0859664 255 180 178
0.0331512 0.0508869 -0.0186855 86 46 43
0.0329582 0.0469546 -0.0280134 83 45 42
0.03358 0.046064 -0.0334322 76 38 36
0.0315701 0.034406 -0.0604406 190 93 87
0.0294968 0.0336665 -0.0473191 105 48 44
0.0358295 0.0315467 -0.0719101 157 75 71
0.0299118 0.0378533 -0.0839735 249 159 157
0.0632577 0.0395588 -0.0257322 76 36 34
0.0346854 0.0454635 -0.065908 191 98 93
0.0307784 0.0361126 -0.0537454 89 40 37
0.0253209 0.038905 0.0570369 127 90 85
0.038587 0.0615331 -0.0138428 85 40 37
0.0378802 0.0598027 -0.0291569 105 69 65
0.0353807 0.0621919 -0.0244271 79 39 37
0.0297199 0.0456541 0.00186064 79 39 36
0.0364732 0.0606445 -0.0193814 119 89 84
0.0338743 0.0415709 -0.0672875 182 84 77
0.0310378 0.0484829 -0.0514701 105 55 52
0.0315327 0.0420157 -0.0817137 247 182 176
0.0341836 0.025195 -0.0715689 168 85 81
0.0361621 0.0327335 -0.0835324 254 157 152
0.0619675 0.0416473 -0.0275251 74 33 30
0.0374427 0.052823 -0.026932 82 47 47
0.0289083 0.0382865 -0.0704097 241 183 177
0.0335557 0.0395025 -0.0793062 236 142 136
0.036595 0.0345322 -0.0863403 255 187 184
0.0364538 0.0537679 -0.0160422 77 41 38
0.0342934 0.0458898 -0.0660474 187 91 83
0.031947 0.0523189 -0.0588116 175 84 78
0.0338519 0.0388836 -0.0819075 252 188 180
0.0391293 0.0705029 -0.0199458 76 36 33
0.0353883 0.0481776 -0.0209286 84 42 39
0.0632775 0.0347138 -0.0247801 66 31 29
0.0382831 0.0597001 -0.0333072 87 50 47
0.0352629 0.0592015 -0.0644844 185 93 89
0.0376274 0.0335917 -0.0839613 240 195 187
0.036376 0.0320063 -0.0832874 252 145 139
0.0349136 0.0547212 -0.0164226 79 39 36
0.0365689 0.0240613 -0.0422231 127 71 67
0.0341117 0.0400757 -0.0752638 231 148 141
0.0311246 0.0585956 -0.0655637 160 74 69
0.0369637 0.030843 -0.0830829 212 166 157
0.0354302 0.0244046 -0.0450199 124 65 61
0.0402429 0.0662612 -0.0189239 83 41 38
0.0358789 0.0386088 -0.0762783 155 74 69
0.0375266 0.0407373 -0.0847283 255 207 200
0.0347976 0.0414427 -0.0819014 247 138 132
0.0406225 0.0209954 -0.0684847 155 87 84
0.0365465 0.0366028 -0.0873267 255 184 184
0.0341445 0.0581887 -0.0296474 78 35 32
0.0317685 0.0444132 -0.0670202 177 87 81
0.0395607 0.0641827 -0.0211129 95 49 46
0.0339835 0.0563449 -0.0624208 161 80 76
0.0623185 0.0422515 -0.0396508 92 47 44
0.0377009 0.0606718 -0.0346477 80 39 36
0.0380464 0.0530486 -0.0186868 79 39 36
0.0328552 0.0346806 -0.0812169 254 187 182
0.0373133 0.0644049 -0.0653112 0 0 0
0.035113 0.0247776 -0.0453475 126 67 63
0.0361002 0.0594756 -0.0242841 122 87 84
0.0300001 0.047648 -0.0177425 81 43 40
0.0336417 0.028546 -0.0469513 129 68 64
0.0310352 0.0414929 -0.0391694 118 59 55
0.0357547 0.0438529 -0.0637392 99 49 45
0.0526722 0.0339403 -0.0275243 79 39 36
0.0560286 0.043926 -0.0198306 75 33 30
0.0375221 0.0522245 -0.0167661 79 37 34
0.033051 0.0411263 -0.0789222 235 132 126
0.0328207 0.0455648 -0.0645174 190 96 90
0.0328912 0.0403064 -0.0668497 169 73 65
0.0332842 0.0395094 -0.086015 255 149 148
0.0336364 0.058231 -0.0271934 79 35 32
0.0349048 0.0441251 -0.0223686 80 39 35
0.0324782 0.0480129 -0.0279692 79 40 37
0.0275454 0.0343521 -0.0766685 253 177 171
0.0359395 0.0265868 -0.0672243 174 93 90
0.0362398 0.0285322 -0.045417 124 74 70
0.0354839 0.0453697 -0.0232121 81 40 37
0.0348797 0.0418918 -0.0870097 254 197 192
0.029119 0.0326222 0.00756624 101 67 64
0.0384205 0.0589682 -0.0272266 114 82 79
0.0342184 0.0421945 -0.0694666 172 79 73
0.034072 0.0332579 -0.0798432 250 174 167
0.0388942 0.0514723 -0.0316349 82 43 40
0.0342399 0.0384078 -0.0826997 253 184 178
0.064666 0.0402691 -0.0161676 76 35 33
0.0325842 0.0421353 -0.0799782 251 155 148
0.0423614 0.0529972 -0.033864 85 44 42
0.0306696 0.0635837 -0.0134692 77 35 32
0.0338124 0.0413723 -0.0697459 182 94 89
0.0348087 0.0509036 -0.0628763 152 83 78
0.0334867 0.0385373 -0.083767 255 185 179
0.035398 0.063032 -0.0671349 147 74 71
0.0305233 0.0513965 -0.0177566 71 34 31
0.0663741 0.0446134 -0.024883 96 46 44
0.0331441 0.0595703 -0.0690287 152 75 71
0.027929 0.0373737 0.0231129 85 46 43
0.0332838 0.0305173 -0.0462148 138 75 71
0.0350847 0.0436741 -0.0220168 78 37 33
0.034869 0.0333221 -0.076509 162 72 67
0.0330729 0.0474623 -0.0801745 226 119 114
0.0413018 0.070523 -0.0310286 99 50 47
0.0630745 0.0363407 -0.0240372 69 31 29
0.0314779 0.0435051 -0.0831344 254 191 185
0.0249847 0.0458089 0.00391303 77 38 35
0.0542977 0.034056 -0.0309007 73 36 34
0.0349324 0.0292331 -0.0474776 135 74 70
0.0390925 0.0630572 -0.032372 91 42 39
0.0370005 0.0604341 -0.0322539 81 40 38
0.0627228 0.0407108 -0.0108817 79 35 32
0.0348529 0.0533697 -0.0188503 91 53 51
0.0352815 0.0584519 -0.022042 85 40 36
0.0349391 0.0442066 -0.0282922 81 41 37
0.0585395 0.0386112 -0.0210977 71 30 28
0.0314085 0.0403042 -0.0676544 179 89 83
0.0572951 0.0460725 -0.010555 69 31 28
0.0317368 0.0350175 -0.0809496 254 172 167
0.0546511 0.0331009 -0.0350193 74 36 33
0.0352914 0.0366908 -0.0773545 211 101 94
0.0249553 0.0484192 0.0100197 99 62 59
0.0346145 0.05246 -0.0612648 99 47 43
0.0418142 0.0185334 -0.0562208 169 94 89
0.0332688 0.0395179 -0.0670181 179 83 77
0.0404847 0.059231 -0.064735 99 48 46
0.0400446 0.06171 -0.0652234 0 0 0
0.0333408 0.0488174 -0.0779359 195 107 102
0.0400915 0.0178253 -0.0566086 169 89 85
0.0373423 0.0364842 -0.0758594 165 84 79
0.0399429 0.0243325 -0.0712187 174 100 95
0.0438407 0.0178026 -0.0563486 164 90 85
0.0364689 0.034502 -0.0449827 79 39 36
0.0310652 0.048727 -0.0189747 85 46 43
0.0371817 0.0313871 -0.0827087 219 124 119
0.0322816 0.0404201 -0.0844217 251 208 200
0.0352319 0.0410039 -0.0819999 242 145 138
0.0352088 0.038412 -0.0647172 122 65 61
0.0337248 0.0412537 -0.0693743 179 89 84
0.0338251 0.0365119 -0.0782318 237 132 126
0.0404932 0.0247759 -0.0699534 171 98 94
0.0366396 0.030855 -0.083524 0 0 0
0.0321355 0.0471531 -0.0217202 93 56 53
0.0326897 0.0520715 -0.017731 85 45 42
0.0629861 0.0369453 -0.0233066 70 32 30
0.0339233 0.0393192 -0.0850939 249 186 180
0.0366017 0.0311393 -0.0832177 249 158 152
0.0347459 0.0422117 -0.0861768 255 218 211
0.0309208 0.0365935 -0.0817414 254 175 170
0.0391334 0.0547498 -0.00930099 82 43 40
0.0324239 0.0404088 -0.0795058 248 175 167
0.0418976 0.0202709 -0.0557608 159 90 86
0.0323285 0.0318809 -0.0783016 249 170 164
0.0348895 0.0563007 -0.065196 156 76 71
0.0412141 0.0195741 -0.0553069 166 94 90
0.0332493 0.0421071 -0.082513 248 190 182
0.0342414 0.0396896 -0.0819153 253 188 181
0.0320428 0.0380777 -0.0791741 243 135 129
0.0318313 0.0438254 -0.0398025 115 59 55
0.0536312 0.0356168 -0.0319907 77 37 34
0.0543436 0.0411398 -0.0136674 81 40 39
0.0343274 0.0613219 -0.0176061 76 40 38
0.0369095 0.0341067 -0.0771549 206 113 108
0.0377051 0.0262576 -0.0751573 167 85 80
0.037237 0.0288621 -0.081091 224 114 104
0.0248425 0.0484751 -0.022701 106 51 47
0.0413936 0.0209238 -0.0703262 151 76 72
0.0353608 0.0351346 -0.0766953 222 124 119
0.0394997 0.0254187 -0.046695 115 72 69
0.0330389 0.0351159 -0.0714981 182 102 98
0.0343267 0.0459001 -0.0788743 211 117 111
0.0314387 0.034253 -0.0753792 241 142 135
0.0532957 0.020095 -0.0435929 103 61 58
0.0334588 0.0420529 -0.0642644 196 104 98
0.0405587 0.0574241 -0.024731 72 32 29
0.0566183 0.0137656 -0.0445095 0 0 0
0.0336555 0.0444439 -0.0682037 179 90 85
0.0285407 0.0413096 -0.0562103 193 97 91
0.0269823 0.0557435 -0.0435146 102 50 47
0.0337368 0.0427876 -0.0776837 224 132 127
0.0289165 0.0517872 -0.0760171 0 0 0
0.0261907 0.0544408 -0.0102468 77 36 33
0.0374281 0.0356574 -0.082531 241 144 137
0.0385238 0.0273311 -0.0672854 191 97 91
0.0272409 0.0450379 -0.0717691 217 111 106
0.0507688 0.0312406 -0.0182497 79 39 36
0.0406081 0.0247675 -0.0463407 92 54 51
0.041234 0.0207696 -0.0565382 167 95 91
0.0335481 0.0234948 -0.0388803 132 69 65
0.0334243 0.0330657 -0.0667982 162 79 74
0.0515921 0.0191864 -0.0243288 69 34 31
0.0275969 0.0508215 -0.0680503 176 81 75
0.0331901 0.0375042 -0.0139976 80 42 39
0.030928 0.0395497 -0.0698974 186 95 90
0.0336787 0.0365187 -0.0706317 183 92 87
0.0305709 0.0358092 -0.0740928 237 146 140
0.0369472 0.0479597 -0.0155186 81 38 35
0.0368681 0.0408101 -0.0884313 249 167 165
0.0339199 0.0346324 -0.0831031 255 179 175
0.0317125 0.0440125 -0.0749499 199 108 102
0.0333077 0.0359965 -0.078371 241 127 119
0.0328466 0.0445848 -0.0792073 229 126 121
0.0378578 0.0270153 -0.0764989 169 81 76
0.053512 0.0219476 -0.040337 93 57 55
0.0370748 0.0377889 -0.021622 80 39 36
0.049071 0.0225057 -0.0495812 113 79 75
0.0587253 0.034865 -0.0181558 78 35 32
0.0645081 0.030397 -0.0336921 0 0 0
0.0312655 0.0386894 -0.082128 254 209 203
0.0267491 0.057389 -0.0462961 169 87 82
0.0271582 0.0353982 -0.0291102 126 64 60
0.0271698 0.054408 -0.0716905 0 0 0
0.0354969 0.0599379 -0.0292915 79 36 33
0.0346933 0.0362032 -0.0834456 255 181 176
0.0321118 0.0496167 -0.0265662 73 34 31
0.0372366 0.0314786 -0.0837943 238 161 154
0.0277287 0.0294264 -0.0540962 185 92 86
0.0308449 0.0272708 -0.0732164 209 113 108
0.0405912 0.0247796 -0.0719003 166 91 87
0.0487577 0.0466585 -0.0181581 65 25 23
0.0714374 0.0409289 -0.0281518 0 0 0
0.027652 0.0560985 -0.042025 91 43 39
0.031723 0.0335489 -0.076484 243 147 140
0.0344644 0.0351078 -0.0842429 255 182 180
0.027393 0.0508635 -0.0249676 98 49 45
0.0274115 0.0392549 -0.0145152 70 31 28
0.0310686 0.0289684 -0.0699403 186 98 93
0.0310138 0.0416494 -0.0785549 252 161 154
0.041021 0.0255165 -0.0662714 186 103 98
0.0337042 0.0311369 -0.0768169 223 127 122
0.0323477 0.032216 -0.0750478 224 125 119
0.0319515 0.0477989 -0.0415103 101 51 46
0.0397396 0.0522889 -0.0841995 0 0 0
0.0314617 0.0346119 -0.0732124 207 108 102
0.0355621 0.0384285 -0.0876572 255 178 174
0.0364507 0.0339019 -0.0854866 255 193 188
0.0357075 0.0312424 -0.0850598 0 0 0
0.0472587 0.0185427 -0.038631 109 75 71
0.0345059 0.0308294 -0.0826054 0 0 0
0.0280379 0.0316489 -0.03118 127 67 63
0.063079 0.03642 -0.0259859 69 31 29
0.040607 0.0533576 -0.0230175 84 44 41
0.033994 0.0438325 -0.0667437 187 92 86
0.0329334 0.0329255 -0.0058424 76 38 35
0.0314378 0.0475085 -0.0255862 76 38 35
0.0322108 0.0520881 -0.0414899 97 49 45
0.0364312 0.0488474 -0.0843187 0 0 0
0.0356314 0.0277135 -0.0509971 122 65 61
0.0349967 0.0437229 -0.0217937 78 37 33
0.0314338 0.0275108 -0.0465211 121 66 62
0.0253664 0.0427641 -0.0307797 114 55 51
0.0367698 0.0366701 -0.0352274 78 39 36
0.0298159 0.0429833 -0.0601278 187 94 88
0.031787 0.0554284 -0.0685842 172 81 75
0.0326411 0.0500695 -0.0637831 169 76 70
0.0310481 0.0318126 -0.0428699 127 68 64
0.0308442 0.0464313 -0.0621773 183 94 89
0.0344495 0.0442457 -0.0226119 83 43 40
0.0317595 0.0419427 -0.0683047 183 93 87
0.0334946 0.0533233 -0.0694096 160 77 70
0.0343052 0.0467141 -0.0681065 175 84 78
0.0391668 0.0244105 -0.06511 179 92 87
0.0335273 0.0554895 -0.0623826 170 87 83
0.0303361 0.0423444 -0.0583828 194 103 97
0.0369324 0.043311 -0.0320204 78 37 33
0.0601953 0.0387705 -0.0221339 73 33 30
0.0367545 0.0363691 -0.0867298 255 182 181
0.0431517 0.0530332 -0.0303876 82 44 41
0.0311062 0.0472955 -0.0220392 82 43 40
0.0363016 0.0526644 -0.0206525 82 43 40
0.0398397 0.0550963 -0.0218039 78 39 36
0.031948 0.047083 -0.0261036 81 42 40
0.0343392 0.0388877 -0.0826688 252 186 179
0.032219 0.058241 -0.0601639 160 79 75
0.0299203 0.040412 -0.0559183 198 113 108
0.0345969 0.03846 -0.0799678 209 94 88
0.0614424 0.0410997 -0.0192664 80 36 33
0.0320436 0.0502173 -0.0638792 168 75 69
0.0347341 0.027841 -0.0638755 188 94 88
0.0339112 0.0447531 -0.00499053 83 41 38
0.0299194 0.0303155 -0.0489934 92 43 40
0.0322123 0.0375495 -0.0417211 119 64 61
0.0614265 0.0372824 -0.0225837 82 41 39
0.0303105 0.047651 -0.0185871 82 43 41
0.036603 0.0364107 -0.0860892 255 176 174
0.0310539 0.0469948 -0.0407186 110 57 52
0.0373637 0.0606461 -0.0282673 93 54 51
0.0403732 0.0540021 -0.0198502 84 43 41
0.0359067 0.0423379 -0.0338243 82 43 39
0.0286704 0.040384 0.00383035 94 55 53
0.0328866 0.0389514 -0.0632111 189 95 90
0.0345148 0.0428445 -0.0645806 195 118 113
0.0327288 0.0453081 -0.0656038 185 97 92
0.0359873 0.044081 -0.065632 90 43 39
0.034964 0.0442044 -0.0665613 194 101 95
0.0318576 0.0490745 -0.0811763 0 0 0
0.0347609 0.0523298 -0.0660184 160 71 65
0.0330339 0.05966 -0.0621961 165 81 75
0.0368474 0.0270803 -0.0655459 187 94 87
0.032424 0.0365342 -0.0830904 254 168 164
0.0341272 0.0416685 -0.0864242 254 195 190
0.0386196 0.0581702 -0.0268723 84 39 36
0.0339672 0.0364295 -0.0824584 253 164 159
0.0364335 0.052289 -0.0173858 80 39 36
0.0317064 0.0421768 -0.070599 156 75 70
0.0519391 0.0192559 -0.0442838 102 60 57
0.0333585 0.0416963 -0.0683515 179 88 82
0.0368553 0.0539787 -0.0101408 78 38 35
0.032334 0.0406332 -0.0271441 71 31 27
0.0382061 0.0540349 -0.0235135 136 107 99
0.0332274 0.0297193 -0.04236 138 75 71
0.0349105 0.0420326 -0.0880584 0 0 0
0.0369245 0.052266 -0.0174918 79 37 34
0.0318706 0.0351216 -0.0604613 189 95 89
0.0578949 0.0422569 -0.0148108 81 36 33
0.0344759 0.0389403 -0.0662511 186 90 84
0.0338095 0.0382146 -0.0720592 174 88 83
0.0331987 0.0314669 -0.0644259 174 83 78
0.0356409 0.046794 -0.0650706 101 51 48
0.0334226 0.0321795 -0.0785926 245 155 148
0.0360071 0.0262139 -0.0659276 177 95 91
0.0321656 0.0297037 -0.0480651 110 53 49
0.0329965 0.0376502 -0.0221812 76 39 36
0.0348234 0.0302587 -0.0456488 133 74 70
0.0359024 0.0606216 -0.0293639 83 40 38
0.0536701 0.0401755 -0.0200818 77 34 32
0.0379635 0.0622052 -0.031485 88 43 40
0.0294656 0.0524198 -0.0510692 138 74 69
0.0298275 0.0449109 -0.0516685 98 50 46
0.0347882 0.0540316 -0.0636555 166 87 83
0.0659095 0.0370052 -0.0241982 187 174 176
0.0324312 0.040633 -0.0800533 255 182 174
0.034625 0.0468673 -0.0645128 182 101 96
0.0629698 0.0370993 -0.0239247 71 32 30
0.032158 0.044609 -0.026862 80 40 37
0.0348745 0.0317154 -0.0644724 184 94 88
0.0559411 0.0422753 -0.0221182 80 37 34
0.0336879 0.0402793 -0.0651863 194 97 91
0.0332736 0.0444333 -0.0659138 187 96 90
0.0301103 0.0344158 -0.0617757 169 82 76
0.0331193 0.0384577 -0.065111 186 86 80
0.0320273 0.0390374 -0.0486705 111 56 52
0.0613088 0.0381408 -0.0246849 82 44 42
0.0504116 0.0204957 -0.0409859 107 75 71
0.0361503 0.057955 -0.0594897 85 39 36
0.0345485 0.0481115 -0.0634605 168 94 89
0.0416168 0.022644 -0.0623363 176 98 94
0.031527 0.0395006 -0.05495 96 47 43
0.0349629 0.0421995 -0.066647 189 100 95
0.0345302 0.0293681 -0.0648534 178 87 81
0.0320222 0.0553119 -0.0119025 80 38 36
0.0272887 0.0467408 -0.0557917 186 96 91
0.0333093 0.0370252 -0.079081 221 108 103
0.0343685 0.0331699 -0.0494057 126 66 62
0.0346984 0.0304472 -0.0651231 180 88 82
0.0360292 0.0539844 -0.0165949 80 44 42
0.0352562 0.0600024 -0.0638575 183 95 91
0.041892 0.0198399 -0.0690266 146 76 73
0.0639123 0.0405077 -0.0213642 78 36 34
0.0378964 0.0565599 -0.0221489 75 36 33
0.03175 0.0550226 -0.0596454 164 76 70
0.0346575 0.0345607 -0.0834121 255 178 174
0.0358547 0.0591473 -0.0323765 77 36 33
0.0571817 0.0350268 -0.0170452 71 34 33
0.0297457 0.0484332 -0.0569487 181 86 80
0.0518728 0.021872 -0.0431499 104 69 67
0.0384401 0.0675323 -0.0384415 107 58 55
0.0341815 0.03642 -0.0604151 86 37 33
0.0329641 0.0444286 -0.0659702 181 91 86
0.039224 0.0391699 -0.0852937 227 113 107
0.0352699 0.0348955 -0.0688699 183 93 87
0.0325269 0.0326779 -0.04365 126 66 63
0.0336426 0.0308847 -0.0646024 177 84 78
0.0429615 0.0376486 -0.0226204 101 62 59
0.0305303 0.0383988 -0.0791881 252 187 180
0.035755 0.0639701 -0.0659581 141 69 66
0.0357305 0.0602504 -0.0651703 177 92 88
0.0383035 0.0290332 -0.0660796 172 87 82
0.0298689 0.0457258 -0.0499078 98 48 45
0.0557564 0.0370196 -0.0315514 74 34 32
0.0369113 0.0560499 -0.0223359 75 36 33
0.0303928 0.0355678 -0.0775754 244 140 133
0.0361965 0.0549785 -0.029592 73 31 28
0.0398194 0.0233907 -0.0481754 113 65 62
0.0363022 0.0306329 -0.0657575 192 100 94
0.034797 0.0353648 -0.0845362 255 180 178
0.0355422 0.0589849 -0.0638315 183 95 90
0.032591 0.0383947 -0.0795027 244 135 129
0.0430528 0.0515844 -0.0300441 121 91 86
0.0370477 0.0634247 -0.0663622 0 0 0
0.0354985 0.0383284 -0.0820554 216 101 97
0.0364923 0.0350908 -0.0807728 240 143 137
0.0337942 0.04455 -0.018472 80 40 37
0.0412317 0.0253036 -0.0779476 194 104 99
0.0646426 0.0377297 -0.0259914 59 27 25
0.0235893 0.0393835 0.0314242 127 90 85
0.0311464 0.0423695 -0.0813805 250 185 178
0.0312823 0.0395983 -0.0575144 177 103 99
0.0558344 0.0289866 -0.0274981 73 32 30
0.0628489 0.0320429 0.0152394 87 47 44
0.0316801 0.0432654 -0.0371091 108 56 52
0.0335664 0.0367722 -0.0641678 187 93 87
0.0369111 0.0300701 -0.0809126 147 72 68
0.0330276 0.0431 -0.0777704 230 130 125
0.0344419 0.0600493 -0.062002 181 92 88
0.0367545 0.0394556 -0.075134 187 99 94
0.0361174 0.0370547 -0.0808373 238 132 124
0.0569813 0.0442429 -0.0111834 72 31 28
0.0354793 0.0604892 -0.0638189 180 95 91
0.0525604 0.0331819 -0.0274866 77 37 35
0.0315838 0.029334 -0.0705618 190 101 96
0.032901 0.038564 -0.063981 187 89 83
0.0327377 0.0436031 -0.0638441 192 97 91
0.0311932 0.0356269 -0.054256 86 37 33
0.0336345 0.0456134 -0.0784667 210 115 110
0.0340769 0.0427094 -0.0790121 231 137 132
0.0333199 0.0380826 -0.079822 220 103 97
0.045939 0.0469322 -0.0171514 91 47 44
0.0354524 0.0593269 -0.0205488 77 39 36
0.0333919 0.0451184 -0.0263982 83 44 41
0.0335635 0.0491552 -0.0169597 77 39 36
0.0339901 0.0337088 -0.08099 252 170 164
0.0626804 0.0402123 -0.0134304 81 37 35
0.0292874 0.0510502 -0.0493369 91 40 36
0.0312817 0.0524562 -0.0164334 80 39 37
0.0400333 0.0523971 -0.0294059 82 44 41
0.0556128 0.0421066 -0.0070992 166 145 140
0.0407204 0.0186611 -0.0552867 171 93 89
0.0317776 0.0419023 -0.0789677 251 160 153
0.0355504 0.0335391 -0.0765411 215 121 117
0.0353608 0.0549628 -0.0322233 84 39 36
0.0346468 0.0586327 -0.0636237 183 92 87
0.0566524 0.044221 -0.0114314 74 32 29
0.0515289 0.0334188 -0.0262154 81 40 37
0.0352425 0.0637882 -0.0173974 87 49 46
0.0357168 0.0367182 -0.0773386 218 113 107
0.0305296 0.041186 -0.0229914 69 30 27
0.043997 0.0200857 -0.073585 154 79 74
0.0333145 0.0361883 -0.0743524 215 109 104
0.0348967 0.0472896 -0.064423 166 91 86
0.0316343 0.0471153 -0.0246901 81 42 40
0.0371683 0.0296097 -0.083367 0 0 0
0.0332075 0.0507432 -0.0798267 0 0 0
0.0350087 0.0268388 -0.0438756 129 68 64
0.0330456 0.0341292 -0.0771052 238 142 135
0.0334456 0.0317474 -0.0797963 251 161 156
0.0353238 0.0327256 -0.06519 185 99 93
0.0380837 0.0612837 -0.0273426 88 47 43
0.0370609 0.0614001 -0.0224833 109 74 70
0.0347163 0.0522789 -0.0247023 83 42 39
0.0389082 0.0603642 -0.0265368 89 49 45
0.033518 0.0403403 -0.0742393 226 138 132
0.0381717 0.0286914 -0.0499254 126 78 73
0.0334449 0.0368321 -0.0654239 184 87 80
0.0341875 0.0461882 -0.0666801 183 87 81
0.0333212 0.0417217 -0.0676852 173 79 72
0.0359169 0.0589259 -0.0214678 82 41 38
0.0382017 0.0218107 -0.0551525 142 78 74
0.0416889 0.0552461 -0.0323052 76 35 32
0.0338587 0.0391787 -0.0753623 234 159 152
0.0423252 0.0530848 -0.0262546 93 58 55
0.0324781 0.0387353 -0.0661727 194 103 97
0.0541153 0.0436317 -0.00867586 80 37 34
0.0365487 0.037033 -0.0800427 228 150 145
0.0391367 0.0200277 -0.0561514 180 100 96
0.0328278 0.0388069 -0.0793306 243 132 125
0.0427822 0.0163047 -0.055853 162 81 77
0.0315125 0.0397578 -0.0837383 250 207 200
0.0334607 0.0669422 -0.050894 107 56 54
0.0382493 0.0422196 -0.0788139 165 82 77
0.0324786 0.0459278 -0.0804018 245 142 135
0.0334902 0.0363609 -0.0799935 238 125 119
0.0290256 0.0408621 -0.0220832 67 29 26
0.0341261 0.059547 -0.0674498 154 71 66
0.0393535 0.0356361 -0.0294778 74 34 31
0.0652587 0.0531152 -0.0113528 99 54 51
0.0390133 0.0563462 -0.0752996 155 79 75
0.0640615 0.0372426 -0.0382603 39 12 11
0.0403765 0.043154 -0.0131307 79 35 32
0.0379804 0.0503629 -0.0238799 81 38 34
0.0313368 0.0334657 -0.0481011 106 53 49
0.0349428 0.0492151 -0.0184032 84 43 40
0.029377 0.0412789 -0.0785631 251 167 160
0.0307331 0.0185415 -0.0329642 121 65 61
0.0283659 0.0468917 -0.0399486 99 46 42
0.0319367 0.0433107 -0.0431682 114 57 53
0.0346988 0.0308587 -0.0830398 0 0 0
0.0263683 0.0456264 -0.0496799 189 99 93
0.0345815 0.0359346 -0.0762992 217 109 102
0.0436987 0.036552 -0.017648 90 49 45
0.0364509 0.0300077 -0.0768691 160 79 75
0.0345877 0.0348498 -0.0879936 0 0 0
0.0297347 0.033911 -0.073825 240 138 132
0.0561825 0.0361058 -0.0189068 78 36 33
0.0350265 0.0628735 -0.0643167 158 79 76
0.0342665 0.0468099 -0.0654032 186 92 86
0.0298398 0.0293754 -0.0562986 185 91 85
0.0335682 0.0609778 -0.0691529 0 0 0
0.0352764 0.0435907 -0.0668617 201 114 108
0.0331977 0.0490117 -0.015614 76 39 35
0.0365675 0.0318956 -0.0844729 0 0 0
0.0333569 0.0365233 -0.0701914 183 92 87
0.036804 0.0277517 -0.067436 180 90 84
0.035463 0.0336047 -0.0849381 255 190 186
0.0412614 0.0507753 -0.0310379 85 42 40
0.0432769 0.0439078 -0.0285621 83 40 37
0.0309598 0.0656735 -0.0566869 172 87 83
0.0344836 0.0340161 -0.084558 255 184 181
0.0363075 0.0446971 -0.0194563 82 40 36
0.0362485 0.0336912 -0.0250142 71 32 29
0.042452 0.030992 -0.014424 79 37 33
0.0372232 0.0306327 -0.082389 194 109 104
0.034158 0.0345943 -0.0844058 255 183 181
0.0345201 0.0331629 -0.0848799 0 0 0
0.0764539 0.0537017 -0.0317932 0 0 0
0.0319389 0.0319226 -0.0769155 243 154 147
0.0343016 0.037668 -0.0760739 180 86 82
0.029961 0.0493153 -0.0395302 102 48 43
0.0364424 0.0345589 -0.0852166 255 181 177
0.029181 0.0241141 -0.0376797 124 71 67
0.0291561 0.0496318 -0.0763535 0 0 0
0.0358697 0.0355648 -0.0753814 195 119 114
0.0330531 0.0587494 -0.0680824 159 77 72
0.0353975 0.0337027 -0.0859079 0 0 0
0.0373156 0.0607952 -0.0687187 160 86 83
0.0331866 0.046336 -0.0860858 0 0 0
0.0334987 0.0495727 -0.0801114 0 0 0
0.0336203 0.0297336 -0.0432829 139 75 71
0.0361423 0.0276013 -0.0487046 130 67 63
0.0348905 0.0552367 0.0112261 82 38 36
0.0400639 0.0404816 -0.0253291 80 39 36
0.0302179 0.0461012 -0.014949 84 46 43
0.0329253 0.0492414 -0.0129785 78 40 37
0.0335174 0.0282856 -0.0444701 133 71 67
0.033482 0.0382701 -0.0685572 185 94 88
0.0337046 0.0465168 -0.0797652 222 122 117
0.0444508 0.0172627 -0.0393284 100 51 48
0.0312562 0.0316599 -0.0418702 130 69 66
0.0304229 0.0446252 -0.00786613 78 38 34
0.032364 0.0459033 -0.035929 69 30 27
0.0355733 0.0388218 -0.0195025 83 44 40
0.0509915 0.0194074 -0.0427504 107 69 65
0.0358509 0.0437822 -0.0898154 0 0 0
0.0296436 0.0458524 -0.0640803 186 98 93
0.035793 0.048606 -0.0267558 80 42 38
0.0317534 0.0470398 -0.024067 83 44 41
0.0381337 0.0535474 -0.0263518 214 201 198
0.0364172 0.0273344 -0.0489916 134 71 67
0.034487 0.0491687 -0.0220516 76 39 36
0.0591586 0.0332154 0.00880915 79 38 35
0.0311645 0.0279721 -0.0408999 129 69 65
0.0374628 0.0299632 -0.0664997 186 93 87
0.0291514 0.0429355 -0.0610536 174 81 75
0.0316583 0.0491954 -0.0623489 175 81 74
0.0332031 0.0596858 -0.0694635 0 0 0
0.0318352 0.040891 -0.0776095 237 137 131
0.0334961 0.0547938 -0.0633134 163 78 73
0.0336023 0.0430369 -0.0670126 185 93 87
0.0481942 0.0196464 -0.0436596 116 80 76
0.0316084 0.0427983 -0.022857 78 39 36
0.0364312 0.0253179 -0.0568287 99 48 45
0.0332831 0.0393575 -0.0664108 180 82 75
0.037235 0.0249799 -0.0445317 125 71 67
0.029083 0.0512735 -0.0499345 113 57 53
0.0350881 0.0421729 -0.0679084 196 101 95
0.0345412 0.0326089 -0.0497617 129 68 64
0.032698 0.0437707 -0.062628 195 102 96
0.0340979 0.0463275 -0.0630013 183 110 105
0.0356061 0.0366052 -0.0856625 255 176 173
0.031262 0.0493072 -0.0650659 184 91 85
0.0331771 0.0429214 -0.0772435 226 132 127
0.0326628 0.0414233 -0.0752825 234 136 131
0.0343112 0.0430759 -0.0850677 254 198 191
0.0328358 0.0380816 -0.0673488 187 96 90
0.032404 0.0425705 -0.0758462 220 125 120
0.034663 0.0511411 -0.0643243 176 85 79
0.0319055 0.0440199 -0.0662981 171 79 73
0.0321024 0.0549583 -0.0603274 166 77 72
0.0308076 0.0414759 -0.0721754 235 144 139
0.0565676 0.0446187 -0.0124452 72 30 27
0.0392492 0.0263066 -0.0482231 119 74 71
0.0345519 0.0304188 -0.0749563 158 79 75
0.0353304 0.0443826 -0.0674667 189 95 89
0.0357969 0.0420532 -0.0645035 90 41 37
0.0382337 0.0597408 -0.0246381 109 74 70
0.0331475 0.04889 -0.0647214 171 77 70
0.0313921 0.0349715 -0.0599179 190 95 89
0.063053 0.0364202 -0.0207842 71 32 30
0.0318135 0.0273397 -0.0436052 122 66 62
0.0392069 0.0632775 -0.0230941 91 45 42
0.0297172 0.0433604 -0.0607406 181 89 84
0.0326512 0.0460792 -0.0260599 85 47 44
0.0317 0.045895 -0.0646154 184 96 91
0.0323444 0.0429794 -0.0779675 239 138 132
0.0340479 0.0396559 -0.0797957 233 140 134
0.0321889 0.0379833 -0.075193 231 151 146
0.0531738 0.019384 -0.0453801 97 60 55
0.0325002 0.0390809 -0.0822564 255 203 195
0.0356963 0.0566386 -0.0262216 82 36 32
0.033477 0.0451998 -0.0719476 179 85 79
0.0341221 0.05007 -0.0100756 82 40 37
0.033493 0.0300937 -0.0441842 136 72 69
0.0346957 0.0359368 -0.0672891 194 94 87
0.0398268 0.0522911 -0.0232627 83 41 38
0.0287889 0.0349014 -0.0732492 236 132 125
0.0346065 0.0396733 -0.0686305 179 80 72
0.0414899 0.0564704 -0.00635211 87 51 48
0.0318465 0.0414747 -0.0676703 181 92 87
0.0322717 0.0445732 -0.0659429 178 90 84
0.0356695 0.0326958 -0.0831849 255 170 165
0.0343019 0.0404242 -0.0670629 191 94 88
0.0318202 0.0546768 -0.060697 168 79 73
0.0358463 0.0622833 -0.065316 160 82 79
0.0352017 0.0636129 -0.0662356 140 68 65
0.0317223 0.0438424 -0.0685737 184 95 90
0.0328049 0.0383138 -0.0638149 195 96 90
0.0373879 0.036683 -0.0781693 195 116 111
0.0347602 0.0386745 -0.078328 241 176 169
0.0331497 0.0392773 -0.0850395 249 179 174
0.0325303 0.0442978 -0.0242348 90 53 50
0.0310374 0.0447746 -0.0783242 234 136 131
0.037593 0.0671598 -0.033064 115 69 66
0.0316753 0.0418952 -0.0401981 121 63 59
0.0307234 0.0470233 -0.068802 178 86 79
0.0342039 0.0418524 -0.0649448 193 107 103
0.0374511 0.0368792 -0.0873102 255 180 178
0.0311683 0.0386421 -0.0657155 186 96 90
0.033551 0.0353172 -0.0675441 167 83 77
0.043573 0.0386897 -0.0265255 100 60 56
0.0385904 0.0648573 0.00767084 72 33 30
0.0317962 0.0408052 -0.0754142 207 111 108
0.0254454 0.0357749 0.02068 87 49 45
0.0360934 0.0398131 -0.082297 245 151 145
0.038533 0.0523483 -0.0253813 80 41 38
0.034744 0.0357723 -0.0673853 191 91 85
0.033066 0.0591495 -0.0592958 159 79 74
0.0370494 0.0532453 -0.0191418 79 41 38
0.0437411 0.0183399 -0.0557613 166 93 89
0.0305984 0.0481587 -0.0170797 84 46 43
0.0307046 0.0481341 -0.0239292 72 34 31
0.0405663 0.0540828 -0.0185988 85 44 42
0.0316787 0.0415947 -0.0802742 252 170 163
0.0325357 0.040406 -0.0654764 177 80 73
0.0350282 0.0610854 -0.0621159 183 102 98
0.0391894 0.0601786 -0.034892 85 41 39
0.0324451 0.0397318 -0.0794445 251 177 170
0.0357683 0.0630906 -0.0651578 156 82 79
0.0633017 0.0431274 -0.021631 81 37 35
0.0371101 0.063558 -0.0662584 0 0 0
0.0352858 0.062233 -0.0664494 150 74 71
0.0230529 0.03734 0.0197056 81 42 39
0.0366538 0.0392532 -0.0828616 239 125 118
0.0377023 0.0694424 -0.0318583 117 68 65
0.0351185 0.0392128 -0.0262169 80 42 39
0.0241985 0.043863 0.00436671 80 40 37
0.0548698 0.032509 -0.0331381 75 36 33
0.0321356 0.0546905 -0.0614059 171 83 77
0.0268892 0.0409015 -0.0750987 253 175 167
0.034131 0.0421793 -0.0781837 228 134 128
0.033725 0.0632391 -0.0645962 155 77 73
0.0354116 0.0577538 -0.0614095 142 86 82
0.0314776 0.0416988 -0.0835305 254 209 202
0.0347521 0.0360262 -0.0841686 255 166 162
0.0312977 0.0418118 -0.0774619 234 137 131
0.0527971 0.0329401 -0.0340507 77 38 35
0.037542 0.0223064 -0.0721932 182 105 101
0.0353298 0.0422789 -0.0803439 230 134 129
0.0382999 0.0265922 -0.0483002 127 74 70
0.0321643 0.0379768 -0.0662432 187 97 91
0.0373477 0.0686616 -0.0317532 112 62 59
0.0305789 0.0467165 -0.0232682 71 35 33
0.0307636 0.0494718 -0.0612389 174 82 75
0.0392834 0.025446 -0.0466545 117 73 69
0.0318708 0.0342644 -0.0814707 255 181 176
0.0563138 0.0426537 -0.0226365 80 36 33
0.0299478 0.0473681 -0.0221586 66 31 28
0.0350807 0.0472815 -0.0656936 196 110 104
0.0351696 0.052084 -0.0634079 156 85 81
0.0349351 0.0451757 -0.0684921 188 94 88
0.0367221 0.036979 -0.0874 255 181 181
0.0334715 0.0398667 -0.0807596 248 168 161
0.0390859 0.0615736 -0.0284651 95 50 47
0.036892 0.030146 -0.0658205 187 96 90
0.034318 0.0403297 -0.0741142 163 79 74
0.0358859 0.0577863 -0.0301428 79 36 33
0.0358194 0.037905 -0.0812824 224 112 108
0.0324003 0.0421102 -0.0808627 251 168 161
0.0308012 0.0305172 -0.0736836 239 141 134
0.0320169 0.0399109 -0.0820547 252 183 175
0.0331889 0.033675 -0.0732061 216 114 109
0.036335 0.0399327 -0.0319488 84 46 43
0.0353326 0.0378536 -0.0785005 207 109 104
0.0314388 0.0439814 -0.0761811 224 120 115
0.0322234 0.046719 -0.0821313 0 0 0
0.033565 0.0364489 -0.0621096 174 94 89
0.0356069 0.0450558 -0.0361719 83 43 40
0.0335415 0.0353057 -0.0719336 175 97 93
0.0305761 0.0423742 -0.067187 181 93 88
0.0337464 0.0400975 -0.0757515 240 170 163
0.0336225 0.0595605 -0.0646756 175 85 80
0.0370049 0.0581456 -0.0306072 73 43 40
0.0370522 0.0548036 -0.0183531 160 139 135
0.0341864 0.0312267 -0.0467194 134 70 67
0.0339883 0.0370039 -0.0687714 177 80 73
0.0331644 0.0435038 -0.0580567 88 39 35
0.0468465 0.0230299 -0.064151 150 78 74
0.0370584 0.0610603 -0.027892 85 45 43
0.0326708 0.0467216 -0.0812563 240 131 125
0.0403326 0.0705587 -0.0338155 93 45 42
0.0323925 0.0462576 -0.0821776 0 0 0
0.0320288 0.0333885 -0.0686433 156 78 73
0.0334278 0.0416942 -0.0758139 232 131 127
0.0327644 0.0415426 -0.0815158 253 183 175
0.0320817 0.0319367 -0.074386 211 114 108
0.0336501 0.0312628 -0.0674419 177 93 88
0.0338606 0.0400666 -0.0717487 179 93 88
0.0376192 0.0419651 -0.0861511 249 183 175
0.0362012 0.060695 -0.0286368 78 40 38
0.0385135 0.0205964 -0.0556494 170 92 87
0.0328567 0.0333269 -0.0777806 244 149 143
0.0314492 0.0554864 -0.0424742 105 55 52
0.0320059 0.0318788 -0.045023 129 69 65
0.0350918 0.0425285 -0.0641566 98 50 47
0.0353622 0.0578579 -0.0638742 177 88 82
0.0321282 0.044134 -0.0661398 173 83 77
0.0332984 0.032314 -0.0492141 121 64 60
0.0390967 0.0240315 -0.0624997 178 92 86
0.0300996 0.0509494 -0.0548713 175 89 84
0.0337145 0.06032 -0.0666569 160 76 71
0.0376768 0.0362534 -0.0873808 255 183 181
0.0342478 0.0453648 -0.0231721 78 39 35
0.0336197 0.0300462 -0.0649812 174 83 77
0.0417179 0.0529947 -0.026044 86 47 44
0.0360369 0.0617858 -0.0655098 166 88 84
0.0343297 0.0426533 -0.0752399 206 120 116
0.0353199 0.0318351 -0.0814314 239 153 147
0.0374772 0.0369826 -0.0847009 251 181 173
0.0326472 0.0422004 -0.0762472 220 124 119
0.0298879 0.0577724 -0.0599924 163 79 73
0.0355288 0.0364196 -0.0806293 240 127 120
0.0341316 0.0453851 -0.0782161 197 103 98
0.0585943 0.0426475 -0.0113523 80 35 32
0.0322043 0.0427878 -0.081981 250 184 178
0.0380501 0.0592121 -0.0321734 86 51 49
0.0322939 0.0320965 -0.0726351 195 101 97
0.0354147 0.0387054 -0.0772806 216 123 116
0.0393049 0.0210022 -0.0553583 155 83 80
0.0319954 0.0353692 -0.0676232 182 95 89
0.0308346 0.0419719 -0.0796882 248 171 164
0.0352594 0.0317558 -0.0820106 243 150 144
0.0500376 0.0184002 -0.0564104 104 47 44
0.0345998 0.0445817 -0.0634899 148 89 84
0.034959 0.0574776 -0.0653099 165 79 74
0.0296137 0.0527385 0.0165642 82 41 38
0.0279187 0.0308635 0.016954 83 45 42
0.0340048 0.034484 -0.0248634 75 36 34
0.0360931 0.0209693 -0.0369893 123 70 66
0.0218996 0.0369625 0.0115633 66 28 25
0.0347024 0.0308374 -0.0734934 186 92 88
0.0396086 0.0473428 -0.0275498 84 41 38
0.0258023 0.0330548 -0.0634243 196 102 97
0.0306482 0.0498375 -0.0497355 102 52 48
0.0348916 0.0410349 -0.066697 196 105 99
0.0549985 0.0219699 -0.02443 76 37 35
0.0292873 0.0551374 -0.0608111 168 77 71
0.0313466 0.0609734 -0.0661092 164 82 77
0.0303236 0.0466073 -0.0280486 71 32 29
0.0298192 0.048074 -0.0399242 109 54 49
0.0331457 0.059316 -0.0333677 71 30 27
0.0398929 0.071749 -0.0368568 0 0 0
0.032275 0.0412984 -0.0391518 114 62 58
0.0359845 0.0331893 -0.0855607 0 0 0
0.0316432 0.0381277 -0.0783265 239 126 119
0.0294517 0.0415015 0.0226632 115 75 71
0.0372827 0.0474987 -0.0868571 0 0 0
0.0390717 0.0173332 -0.0544151 194 115 110
0.0304471 0.0496251 -0.0715806 176 85 79
0.027016 0.0544908 -0.0292006 97 47 43
0.0325896 0.0426366 -0.037367 79 38 34
0.0333769 0.0437922 -0.0702096 178 89 83
0.0211104 0.0641158 -0.0471979 156 72 67
0.0302387 0.0587508 -0.0416328 81 36 33
0.0341855 0.0277838 -0.0448183 135 72 68
0.0322157 0.0390973 -0.0900503 0 0 0
0.0548392 0.00752882 -0.0357105 0 0 0
0.0337931 0.058617 -0.0698897 160 81 76
0.0314273 0.057633 0.0118982 101 65 63
0.0357797 0.0320322 -0.0641537 178 97 92
0.0304069 0.0382657 -0.0712477 234 150 144
0.0357926 0.031462 -0.0757813 184 98 94
0.033635 0.0487085 -0.0156992 79 41 37
0.0305293 0.0334534 -0.0728859 220 116 110
0.0281137 0.0461837 -0.0314713 106 54 49
0.0311754 0.0330775 -0.0755162 241 141 134
0.0317306 0.0347647 -0.0775637 246 144 137
0.02973 0.0454817 -0.0765451 223 132 127
0.0363222 0.0328979 -0.0840724 255 180 175
0.0356778 0.0318153 -0.0822639 241 147 140
0.0378681 0.0476387 -0.0891699 0 0 0
0.0338336 0.0564855 -0.0739787 0 0 0
0.0375888 0.0293846 -0.0769095 157 78 73
0.0349366 0.0332382 -0.0814577 255 174 169
0.0330398 0.0614801 -0.0635482 168 81 77
0.0368186 0.0335964 -0.0828145 245 155 148
0.0290397 0.030889 0.00834971 85 48 44
0.0333952 0.0320367 -0.023238 78 38 35
0.0310504 0.0383755 -0.0247388 65 26 24
0.0354017 0.0486561 -0.0845932 0 0 0
0.0343315 0.0506805 -0.0743221 182 89 82
0.0362429 0.0634387 -0.0172145 98 60 55
0.0300906 0.0465201 -0.0515071 95 46 42
0.0345804 0.0329001 -0.0859743 0 0 0
0.0321772 0.0385378 -0.0787866 241 130 123
0.0352861 0.0591075 -0.0640011 182 93 89
0.0280549 0.0329821 -0.034514 128 66 62
0.0372049 0.0684828 -0.0280239 107 66 63
0.0402766 0.0230103 -0.0445953 97 56 53
0.0335065 0.0322568 -0.0226335 76 36 33
0.0492818 0.0155948 -0.0732673 0 0 0
0.0361239 0.0468661 -0.0871847 0 0 0
0.0308517 0.0387501 -0.063141 189 96 90
0.0483506 0.0218038 -0.0187604 82 43 40
0.0375216 0.018762 -0.0552049 202 114 109
0.0317489 0.0535022 -0.0726825 194 101 96
0.0288144 0.0556829 -0.0286701 91 45 41
0.0393059 0.0593106 -0.0214856 82 38 34
0.0323475 0.0438419 -0.0700824 185 96 91
0.0341887 0.0292741 -0.0556323 88 41 38
0.0329163 0.0290025 -0.0779998 229 119 113
0.0324887 0.0465419 -0.0857586 0 0 0
0.0319409 0.0286712 -0.0436338 129 69 65
0.0366413 0.0455881 -0.0262729 88 47 44
0.0321805 0.0343752 -0.0734769 197 100 94
0.0357317 0.0356781 -0.0827175 250 195 188
0.0319711 0.0403652 -0.0815725 254 184 175
0.0335545 0.0423799 -0.0778537 228 138 133
0.0308471 0.0327639 -0.0730029 207 107 101
0.0332157 0.0430895 -0.077405 226 132 127
0.0317748 0.0424493 -0.0763725 232 139 134
0.0323459 0.0378621 -0.0245857 72 33 30
0.0374135 0.0484891 -0.0292421 82 40 37
0.0248872 0.0374179 0.0285772 105 66 62
0.0340462 0.0256782 -0.0749996 187 91 85
0.036804 0.0362725 -0.0879834 255 177 175
0.0339489 0.0354824 -0.0838607 255 173 171
0.0304711 0.0404509 -0.0752745 222 120 115
0.0289323 0.0417323 -0.0810251 254 200 194
0.0335091 0.0423754 -0.0710699 183 93 87
0.0330384 0.0254687 -0.0390803 135 73 68
0.036249 0.0439756 -0.0333471 79 39 36
0.0265109 0.0455371 0.00641566 91 53 51
0.0326713 0.0474467 -0.0374503 71 30 27
0.0364879 0.0284237 -0.049838 130 67 63
0.0375527 0.052146 -0.0206409 80 39 36
0.0350805 0.0242546 -0.0634907 177 94 90
0.0361393 0.0543014 0.0154897 86 43 40
0.0362404 0.0394508 -0.030079 99 61 58
0.0323253 0.049147 -0.0101672 79 41 37
0.0340167 0.0492734 -0.01185 84 41 38
0.0326019 0.0398968 -0.020343 76 37 34
0.033537 0.0449707 -0.0230424 81 41 38
0.0287797 0.0366737 -0.0778511 254 179 171
0.0333037 0.0417625 -0.017423 98 59 55
0.0316179 0.0371847 -0.0108354 80 43 40
0.0331199 0.0271311 -0.0631275 189 99 94
0.0292202 0.0461565 -0.0148752 77 39 36
0.0335616 0.0386951 -0.0243872 81 43 40
0.0325675 0.0455619 -0.0639628 191 96 90
0.0287176 0.041053 0.00428102 88 50 47
0.0302589 0.0283515 -0.0458999 106 54 50
0.0281484 0.0411736 -0.00654552 74 36 33
0.0606945 0.0383552 -0.0268413 83 47 45
0.0337155 0.0416898 -0.025399 83 44 40
0.0587991 0.0335889 -0.0270693 76 36 33
0.0259886 0.0473102 0.0316468 88 47 44
0.0344422 0.0492552 -0.0131553 83 40 37
0.0363297 0.0309018 -0.083288 0 0 0
0.0389391 0.0524468 -0.0181947 82 40 37
0.0364003 0.0410558 -0.0833304 247 141 133
0.0359472 0.0263506 -0.043106 131 76 72
0.032518 0.0445048 -0.0627975 191 96 89
0.0388669 0.0442211 -0.0273003 82 39 36
0.0322022 0.0465949 -0.0620841 185 89 83
0.0362618 0.0347967 -0.0854334 255 185 181
0.0334639 0.0397924 -0.0852002 248 185 180
0.0398737 0.0527184 -0.0237882 82 41 38
0.027375 0.0464284 -0.0688581 164 81 77
0.0280557 0.0491534 -0.00148639 101 65 62
0.0361084 0.0368983 -0.0873421 255 178 179
0.03486 0.0278128 -0.0650757 191 98 92
0.0275755 0.0416111 0.0129033 94 54 50
0.0351739 0.0311002 -0.0658003 182 90 84
0.0378033 0.0268499 -0.0631357 162 77 70
0.0303999 0.0456779 -0.0667446 177 83 77
0.0328113 0.0494592 -0.0611587 184 94 88
0.0315094 0.0435903 -0.0255726 78 38 35
0.0298366 0.0433682 -0.0801054 252 187 182
0.0369127 0.0273765 -0.0653584 182 89 83
0.0358563 0.024775 -0.0436836 133 72 68
0.0326365 0.0496854 -0.0138331 80 43 40
0.031568 0.0325002 -0.0627531 180 92 87
0.0327185 0.0427047 -0.0102076 77 36 32
0.0340421 0.0468929 -0.0626504 172 98 93
0.0358629 0.0356114 -0.0854185 255 183 181
0.0349299 0.0357854 -0.0629376 105 52 48
0.0340623 0.0387572 -0.0692399 192 102 97
0.0414206 0.0247895 -0.0706815 158 86 82
0.0305162 0.0501581 -0.0703155 172 78 72
0.0382469 0.0248125 -0.0445148 121 72 68
0.0320292 0.0379351 -0.0655199 191 100 95
0.0325478 0.0362132 -0.0619996 187 94 88
0.0326074 0.0443986 -0.0657327 185 96 91
0.0259458 0.0435352 0.00707276 91 54 51
0.0372123 0.0304908 -0.075984 186 100 95
0.0342939 0.0306966 -0.0646868 180 87 81
0.0355188 0.0353232 -0.0856539 255 183 181
0.0509557 0.0198274 -0.0431885 105 68 64
0.0345443 0.0473107 -0.0642571 174 92 87
0.0318517 0.0452694 -0.0203724 85 46 44
0.031881 0.0328229 -0.0801047 255 181 177
0.0304024 0.0379199 -0.0797864 254 192 185
0.0352464 0.0629571 -0.0367083 104 51 48
0.0361636 0.0538833 -0.00270021 82 39 36
0.0298453 0.0413701 -0.0522173 99 51 47
0.028612 0.0473209 -0.068908 167 83 79
0.0269373 0.0330149 -0.0508683 189 93 87
0.0335614 0.048166 -0.0238311 110 78 75
0.0330087 0.0399582 -0.0613234 185 107 102
0.0345107 0.0416269 -0.0770115 231 131 126
0.0327924 0.0423252 -0.0622798 197 109 104
0.0570264 0.0381331 -0.00769722 79 36 33
0.0366269 0.0472478 -0.0275205 83 42 39
0.0308259 0.0392479 -0.0827863 250 209 202
0.0371779 0.0257591 -0.077783 236 112 107
0.0312763 0.0319976 -0.0353883 125 68 64
0.0347474 0.0423265 -0.0730649 181 92 86
0.0373242 0.0257966 -0.0688302 161 83 79
0.0324354 0.0450661 -0.025317 78 39 36
0.0392697 0.0541074 -0.0166655 84 43 40
0.0349527 0.0366537 -0.0676633 187 87 81
0.0432613 0.051422 -0.027417 89 51 47
0.0260863 0.0327546 0.00348816 67 30 27
0.0336276 0.0371021 -0.0458809 119 63 59
0.0333796 0.0429333 -0.0780502 226 130 125
0.0331698 0.05172 -0.06707 171 81 75
0.0324002 0.0476257 -0.0252971 85 46 43
0.0291755 0.0430038 -0.0549116 193 106 101
0.0313713 0.0361104 -0.0689232 170 84 79
0.0314449 0.0434712 -0.0770648 239 135 130
0.0414732 0.0189383 -0.073098 185 89 84
0.0333438 0.0353738 -0.0594586 105 53 49
0.0569519 0.030805 -0.0210923 73 34 32
0.0301499 0.0360079 -0.0781036 248 150 143
0.0316552 0.0492758 0.00106117 86 44 41
0.0414575 0.0221413 -0.0711632 148 74 71
0.0340082 0.0417774 -0.0219692 89 50 47
0.0335174 0.0544635 -0.0623883 169 82 77
0.0326986 0.0412197 -0.0739474 236 151 145
0.0325248 0.0497084 -0.0776796 210 123 121
0.0341876 0.0461925 -0.0682532 180 93 88
0.0381083 0.0622148 -0.0302894 86 41 39
0.0351914 0.0369407 -0.0866418 255 174 173
0.0346231 0.0385173 -0.0797702 206 90 84
0.036159 0.0369685 -0.0272559 79 42 38
0.0362853 0.0277788 -0.0659281 189 97 92
0.0342665 0.0295452 -0.0430581 132 74 70
0.0320199 0.0457372 -0.0633847 187 94 89
0.0364129 0.0250534 -0.0635605 187 93 88
0.0271701 0.0395823 0.0229217 82 42 39
0.0338299 0.0611973 -0.00735163 80 37 34
0.0330406 0.0388273 -0.0758712 238 190 186
0.0441085 0.0254442 -0.0614836 95 51 49
0.0574708 0.0427259 -0.0184023 81 36 33
0.0308831 0.0439079 -0.0619079 187 94 88
0.0314606 0.0410738 -0.077434 240 140 135
0.0378481 0.0253383 -0.0698012 175 96 92
0.036442 0.0358455 -0.0856993 255 185 182
0.0319569 0.0377652 -0.0780701 230 121 116
0.0424947 0.0257008 -0.0639359 148 85 82
0.0335834 0.0364745 -0.0311344 64 27 25
0.0283488 0.0497046 -0.0527629 182 91 85
0.0289762 0.0471495 -0.00774412 94 58 55
0.031581 0.0484631 -0.0515914 104 55 51
0.0391098 0.0618698 -0.0301937 87 40 37
0.0619792 0.0363139 -0.0244083 72 32 30
0.0320147 0.0416116 -0.0618998 193 99 93
0.0400058 0.0229147 -0.0693231 165 91 86
0.025957 0.0463584 -0.056862 181 93 88
0.0352843 0.0317839 -0.067875 178 86 80
0.0331689 0.039413 -0.0620337 189 107 102
0.0339958 0.0463315 -0.0660883 179 83 76
0.0341545 0.0674797 0.000480679 135 100 94
0.0372261 0.031093 -0.0830868 208 166 156
0.0371017 0.0328497 -0.0844944 255 156 150
0.0303694 0.0458358 -0.0771141 220 128 122
0.0329965 0.0415161 -0.0753158 239 145 140
0.0300247 0.0439471 -0.0763715 240 132 126
0.0306316 0.0474257 -0.065479 203 116 111
0.0593594 0.0423663 -0.0160735 86 41 38
0.0416948 0.0544257 -0.0267227 83 42 40
0.025013 0.0451363 0.0112356 95 58 55
0.0316703 0.0421039 -0.0815489 249 187 179
0.0359097 0.0382578 -0.088113 255 142 142
0.0231233 0.043628 0.00672267 76 37 34
0.0297052 0.0614885 -0.0332 87 42 38
0.0372944 0.0600645 -0.0253617 94 55 51
0.0358417 0.0391962 -0.0785905 237 167 160
0.0385548 0.0249691 -0.0721084 172 90 85
0.0595854 0.0446043 -0.0189868 74 31 29
0.03833 0.0252479 -0.0778984 230 116 111
0.0384695 0.0659848 -0.0297596 84 41 38
0.0331306 0.0503929 -0.0597216 161 93 88
0.0372483 0.0354427 -0.0863788 255 186 183
0.0323381 0.0386342 -0.0423042 121 68 64
0.0316104 0.0439155 -0.0241395 78 38 35
0.034007 0.0396423 -0.085477 248 185 180
0.0361948 0.0367543 -0.0861577 255 177 174
0.0328257 0.0424192 -0.077209 231 140 135
0.0344824 0.0396033 -0.0826892 254 183 175
0.0299622 0.040577 -0.0675347 160 79 74
0.0369919 0.0599397 -0.0180992 82 39 36
0.0341247 0.0593244 -0.0629142 178 85 80
0.0326635 0.0633249 -0.000397121 89 46 43
0.0320182 0.0408041 -0.0760791 202 111 107
0.0397366 0.0620278 -0.0605568 101 51 48
0.0329267 0.0420142 -0.0798388 250 152 145
0.0407827 0.0598636 -0.0268939 84 40 36
0.0287778 0.0506562 -0.0493481 114 59 55
0.0506563 0.018754 -0.0424309 108 70 66
0.0327745 0.0473668 -0.0627464 183 88 82
0.0321138 0.0380498 -0.0789374 235 124 118
0.0568849 0.0416266 -0.0201269 78 34 31
0.0338211 0.0357925 -0.0687096 157 71 65
0.0348752 0.0364247 -0.067835 188 86 80
0.0392826 0.0292988 -0.0479969 75 39 36
0.0401153 0.0356456 -0.0250752 81 38 35
0.0380193 0.0370291 -0.0848624 248 160 151
0.0359291 0.0533593 -0.0180102 85 46 43
0.0348828 0.0343814 -0.0834074 255 188 185
0.0283536 0.0581206 -0.0320918 100 52 49
0.0336254 0.0328188 -0.0829497 255 188 183
0.0343394 0.0301276 -0.0637676 182 89 84
0.0330051 0.044156 -0.0846904 0 0 0
0.0336134 0.0352485 -0.0785775 239 128 121
0.0332605 0.0404401 -0.0665559 180 83 76
0.0351987 0.0306777 -0.0642142 187 95 90
0.0423611 0.0235061 -0.0640684 176 97 92
0.0338112 0.06011 -0.0094478 76 34 31
0.0349852 0.0592256 -0.0634681 184 93 89
0.0338647 0.0619891 -0.0684056 0 0 0
0.0331312 0.0413835 -0.0758324 238 142 136
0.0338399 0.0705619 -0.030473 102 54 52
0.0341063 0.0390371 -0.0806038 242 132 126
0.0359578 0.0617095 -0.0637474 166 89 86
0.0348582 0.0459038 -0.0250691 79 40 37
0.0292023 0.0413256 -0.0695509 234 142 137
0.0413495 0.0223869 -0.0700368 163 92 88
0.0346819 0.0284614 -0.0725737 175 91 87
0.0281158 0.0398932 -0.0782331 254 183 175
0.0366518 0.0274456 -0.0491108 136 72 67
0.0611803 0.0382262 -0.0218212 75 36 35
0.0295925 0.041123 -0.019994 63 26 23
0.0360154 0.0329575 -0.016075 75 36 33
0.0291247 0.0447126 0.000853763 79 39 36
0.024008 0.0433768 0.00596149 79 38 35
0.03612 0.0282157 -0.0654721 191 100 94
0.0349643 0.0399714 -0.0660933 197 111 106
0.0332775 0.0291849 -0.0417719 139 76 72
0.0363089 0.0620709 -0.0244331 86 47 45
0.0390836 0.0218153 -0.0655451 166 92 88
0.0420495 0.0374623 -0.0160099 95 55 51
0.0338895 0.0417809 -0.0739106 165 82 77
0.0366718 0.0603035 -0.0339501 79 38 35
0.0301273 0.04644 -0.0218773 69 33 31
0.0347487 0.0265753 -0.0462867 134 72 68
0.0307818 0.0410099 -0.0703542 205 115 110
0.0504425 0.0351359 -0.0231563 83 41 38
0.0347169 0.0622694 -0.0689374 0 0 0
0.0422254 0.0169277 -0.05668 164 86 81
0.0319462 0.0400585 -0.0664205 181 90 84
0.0341067 0.0332817 -0.082624 255 185 179
0.0340154 0.0457378 -0.0251151 97 59 55
0.0339457 0.036221 -0.0835085 254 170 166
0.0351992 0.0286157 -0.0503639 128 67 63
0.0241118 0.0451637 0.00646512 80 41 38
0.0326492 0.0424842 -0.0451045 115 56 51
0.0363849 0.059722 -0.0235652 164 143 139
0.0347544 0.0486087 -0.016029 84 41 38
0.036012 0.0281517 -0.0653665 190 99 93
0.0344069 0.049106 -0.00438056 81 38 35
