ply
format ascii 1.0
comment Created by Open3D
element vertex 1194
property double x
property double y
property double z
property uchar red
property uchar green
property uchar blue
end_header
0.0789525 0.0296115 -0.110146 255 255 255
0.0783609 0.0195332 -0.0802318 93 35 27
0.0783002 0.0229348 -0.0792293 152 68 60
0.0790505 0.015609 -0.0851655 138 60 49
0.0752736 0.00691146 -0.0771207 76 27 25
0.0647842 0.014825 -0.09257 87 17 13
0.0730592 0.0133271 -0.0662466 81 37 31
0.072878 0.0129194 -0.0654228 69 32 28
0.0682293 0.0112986 -0.0855381 126 51 47
0.0707072 0.00946435 -0.0672835 58 26 23
0.0728916 0.0158407 -0.0614257 68 27 20
0.0737966 0.0137367 -0.0649397 91 32 24
0.0768011 0.0295919 -0.0851336 143 64 54
0.0747681 0.0322211 -0.0806868 122 59 48
0.0733355 0.0179498 -0.0620683 77 29 26
0.0678975 0.00559354 -0.0698456 101 56 51
0.0652703 0.0149327 -0.0834464 136 37 32
0.063797 0.0102372 -0.0691727 61 16 12
0.0653096 0.00875895 -0.0750971 72 31 28
0.0591412 0.00844127 -0.0717471 0 0 0
0.0652966 0.019316 -0.0950798 134 73 64
0.0753806 0.0266184 -0.0792355 139 77 64
0.0619559 0.0089012 -0.0774248 72 25 23
0.0742727 0.0333126 -0.0817541 144 67 56
0.0664368 0.0130942 -0.0816237 85 15 9
0.0663204 0.0158026 -0.097682 142 64 54
0.068617 0.00892569 -0.0772997 97 52 47
0.0831757 0.0370659 -0.0951914 185 253 246
0.0687078 0.00734106 -0.0794262 79 38 35
0.077566 0.0294172 -0.0834699 228 162 143
0.0654316 0.0119918 -0.0811108 64 17 14
0.0753796 0.0170425 -0.062064 0 0 0
0.0653641 0.0133933 -0.0862348 146 48 39
0.0766558 0.0158175 -0.0692557 50 0 0
0.0746251 0.0198144 -0.0596902 0 0 0
0.0735164 0.0199722 -0.0568489 0 0 0
0.0628345 0.0169907 -0.0820001 123 49 42
0.0765012 0.0166743 -0.0698856 80 26 22
0.0642926 0.0116187 -0.0778709 57 22 18
0.0642038 0.021501 -0.100343 150 51 49
0.0722232 0.0336199 -0.0780923 105 49 37
0.0738621 0.0323016 -0.0770518 156 99 87
0.0674336 0.013289 -0.0834288 116 34 27
0.073668 0.0331394 -0.075647 147 74 63
0.0666068 0.0126458 -0.0850256 133 50 43
0.067011 0.0139664 -0.0850975 135 48 45
0.0772209 0.0234375 -0.0821907 141 64 60
0.0588046 0.00361232 -0.0810212 160 0 0
0.0695557 0.0114253 -0.0841566 112 71 62
0.0780638 0.0200383 -0.0639341 0 0 0
0.0750475 0.0294502 -0.079586 119 75 64
0.0645892 0.0136158 -0.0820274 133 63 57
0.0643722 0.017976 -0.0945404 111 48 45
0.064366 0.0150895 -0.0849942 140 31 24
0.0771507 0.0205582 -0.0643296 46 14 11
0.0760136 0.0261393 -0.0784317 132 78 68
0.0746682 0.032787 -0.0791053 120 71 59
0.0737553 0.0194458 -0.0559886 85 52 49
0.0729841 0.033562 -0.0786787 165 120 105
0.0714497 0.0106069 -0.0868879 146 62 56
0.0685617 0.012594 -0.0919676 107 37 33
0.0763872 0.025943 -0.079998 120 75 63
0.0775641 0.0307634 -0.0865857 167 80 72
0.0779931 0.0320858 -0.084423 233 255 255
0.0649482 0.01495 -0.0830319 101 38 29
0.07315 0.0349455 -0.0835467 146 62 56
0.0766561 0.0384783 -0.0844958 157 68 63
0.074978 0.0189983 -0.0578273 0 0 0
0.0804629 0.0220835 -0.0899749 128 39 33
0.0757934 0.024453 -0.0796083 127 69 55
0.0688433 0.0114039 -0.0853488 112 70 63
0.0771975 0.0299729 -0.0777733 104 0 0
0.0808727 0.0199677 -0.0632002 0 0 0
0.0779245 0.0185352 -0.060299 0 0 0
0.0741993 0.0175742 -0.0578729 0 0 0
0.0646883 0.0196084 -0.0972671 102 22 17
0.076263 0.0265472 -0.0792444 132 57 46
0.0682106 0.0123276 -0.0582092 60 19 16
0.0760077 0.0263505 -0.07837 123 72 64
0.0770101 0.0149179 -0.0699043 32 0 0
0.0641599 0.027813 -0.0472238 54 37 25
0.074422 0.0273011 -0.0797684 132 66 58
0.077807 0.0217893 -0.0815862 129 54 53
0.0779382 0.0191095 -0.0610751 0 0 0
0.0727097 0.00724208 -0.0741244 77 31 27
0.0760835 0.0181872 -0.0672072 66 26 26
0.0736982 0.0189857 -0.0618717 93 33 29
0.0800619 0.0331216 -0.0932188 180 82 72
0.0610747 0.0144684 -0.0642964 73 46 42
0.0680327 0.0348613 -0.0816213 132 82 73
0.0795326 0.0255988 -0.0842534 146 43 35
0.0787478 0.0219659 -0.0821934 153 90 85
0.0742169 0.0284082 -0.0810695 152 94 69
0.0766365 0.0337945 -0.0853588 169 70 65
0.074583 0.0309081 -0.082411 138 71 61
0.0747627 0.0319117 -0.0794303 116 71 59
0.0727346 0.0171212 -0.0609843 83 53 34
0.0649312 0.0088557 -0.0715256 63 11 10
0.0678375 0.012325 -0.0841208 255 255 255
0.0687815 0.012753 -0.0855481 141 65 66
0.0824739 0.0289557 -0.104991 255 255 255
0.070729 0.0390136 -0.0859829 151 97 87
0.073565 0.0206219 -0.0571596 42 13 10
0.0765325 0.0294105 -0.0841189 159 71 67
0.0742253 0.0231459 -0.0592016 52 21 19
0.0761646 0.0266042 -0.0789905 126 46 44
0.0739194 0.0175725 -0.0529242 0 0 0
0.0716609 0.0336574 -0.0810023 150 100 83
0.0761784 0.026559 -0.0791048 144 58 55
0.0781075 0.0275093 -0.0765522 93 0 0
0.0673768 0.0269261 -0.0440171 34 11 9
0.0638696 0.0270857 -0.0486656 33 2 0
0.0812097 0.0282735 -0.0881316 136 43 32
0.0771718 0.0235219 -0.077432 128 65 58
0.0669087 0.0139426 -0.0833173 154 83 71
0.075739 0.0180184 -0.0647921 63 17 12
0.0772219 0.0241564 -0.0799307 196 72 61
0.0670952 0.0131771 -0.0830235 107 50 45
0.0734567 0.0113179 -0.0851355 116 69 61
0.0807747 0.0316318 -0.088896 163 94 87
0.076121 0.0246505 -0.0792461 117 59 50
0.0754608 0.0271841 -0.080594 126 58 61
0.0748035 0.0276924 -0.0797185 155 68 47
0.0597259 0.00564266 -0.0797141 123 114 94
0.0778756 0.0207205 -0.063406 0 0 0
0.0749615 0.0273388 -0.0810631 133 57 51
0.0757042 0.0380097 -0.0846885 160 60 58
0.0675425 0.01384 -0.0832645 130 52 46
0.0636977 0.0136722 -0.0863797 139 51 43
0.0790405 0.0212793 -0.0657568 50 6 2
0.0774262 0.0196484 -0.0646899 0 0 0
0.0692585 0.0121152 -0.0847155 117 54 47
0.0756355 0.0266068 -0.0779199 137 78 69
0.0735875 0.0197743 -0.0597675 88 53 41
0.0773014 0.0229196 -0.0793753 117 52 44
0.0753186 0.0305367 -0.0755371 255 112 98
0.0745032 0.0156991 -0.0636786 66 0 0
0.0760003 0.014308 -0.0533687 0 0 0
0.0731138 0.0338269 -0.0784622 162 121 107
0.0779078 0.0189839 -0.08121 114 55 47
0.067908 0.0147703 -0.0965399 108 41 36
0.0702602 0.0339185 -0.0782567 0 0 0
0.078078 0.0220364 -0.0790523 12 0 0
0.0752326 0.0118332 -0.0930317 145 65 59
0.06096 0.012894 -0.0680568 70 19 17
0.0756893 0.0123394 -0.0834297 125 59 51
0.0681838 0.0133141 -0.0849113 135 82 73
0.0772204 0.0314145 -0.0856617 181 123 106
0.0732117 0.0337258 -0.0788123 152 108 89
0.0685825 0.0112033 -0.0858997 110 21 20
0.0670326 0.0114707 -0.0864786 149 72 66
0.0731519 0.0345962 -0.0801476 148 98 81
0.0776293 0.0203515 -0.064803 70 31 23
0.0765944 0.0308114 -0.0860922 166 109 97
0.0761941 0.0155497 -0.0611885 0 0 0
0.072896 0.0182743 -0.0624984 90 45 42
0.0751057 0.0311026 -0.0791236 142 98 87
0.0772356 0.0140047 -0.0745195 97 23 17
0.0775501 0.028676 -0.0834369 137 53 42
0.0787433 0.014732 -0.0809099 118 48 42
0.0678407 0.0127224 -0.0891562 128 55 50
0.0594891 0.0138413 -0.0647327 89 29 25
0.0814308 0.0288679 -0.0923569 125 63 47
0.0804956 0.0263225 -0.0844516 145 53 40
0.0770381 0.0243268 -0.0819242 149 65 60
0.0799839 0.0209582 -0.0848778 142 58 54
0.0811863 0.0177 -0.0875115 133 66 57
0.0723615 0.0234979 -0.0312549 0 0 0
0.0737077 0.0195981 -0.0593984 99 77 54
0.0669254 0.00985126 -0.0592569 26 0 0
0.0633016 0.010062 -0.0658446 74 30 27
0.0834381 0.0353649 -0.104553 193 144 137
0.0752328 0.0311266 -0.0794756 153 100 82
0.0702264 0.016074 -0.0985952 141 66 57
0.0785621 0.0196819 -0.0797565 132 61 54
0.0616833 0.0186037 -0.084566 121 43 40
0.0764722 0.0235407 -0.0810383 136 66 61
0.0774592 0.0213031 -0.0818155 148 67 61
0.0703909 0.0179752 -0.053459 48 22 20
0.0748401 0.0115705 -0.07429 95 36 33
0.0767353 0.0296502 -0.0842547 147 88 78
0.0751355 0.0183979 -0.0627057 62 0 0
0.0719306 0.0362225 -0.0833151 150 77 76
0.0792021 0.0203689 -0.0622748 0 0 0
0.0751392 0.013997 -0.0894064 126 68 59
0.0651405 0.00911692 -0.0687789 87 32 28
0.0717473 0.0356409 -0.0803771 130 89 70
0.0759592 0.0151469 -0.0939655 148 65 57
0.0649707 0.0283346 -0.0442722 63 30 23
0.0734614 0.0335133 -0.0781836 103 59 42
0.0694551 0.00942086 -0.0819964 198 98 85
0.0677679 0.0116415 -0.0573977 39 0 0
0.0817967 0.0380645 -0.102274 255 255 255
0.067389 0.00869298 -0.0753099 55 13 12
0.0581316 0.00303535 -0.081397 29 0 0
0.0775504 0.0281212 -0.0814493 136 55 57
0.0672256 0.0132231 -0.0834861 110 51 44
0.07529 0.0182807 -0.0646368 58 20 16
0.067542 0.0108171 -0.0648568 174 154 150
0.0745638 0.0155953 -0.063682 63 21 16
0.0747186 0.0225377 -0.0617325 42 9 3
0.0751811 0.0146516 -0.0945395 138 66 61
0.062154 0.0152079 -0.0875217 116 46 42
0.0662885 0.0109088 -0.0645927 168 123 115
0.0711034 0.015148 -0.0959458 142 69 60
0.0755021 0.0114675 -0.0924855 128 69 64
0.0628831 0.00252674 -0.0713344 0 0 0
0.0638845 0.0178451 -0.089218 105 32 28
0.0632986 0.0108153 -0.0629305 102 46 36
0.0710692 0.0104759 -0.0863838 119 63 54
0.0800616 0.0194079 -0.094057 133 52 43
0.0747555 0.0135142 -0.0937698 129 67 62
0.0716599 0.0109514 -0.0882952 138 59 54
0.0657422 0.00863667 -0.0685597 84 34 30
0.0776942 0.00943287 -0.0792154 93 47 44
0.0769731 0.0147642 -0.0739006 78 35 33
0.0640326 0.00789532 -0.0772598 79 26 23
0.0651591 0.00875244 -0.0708255 82 25 24
0.0719591 0.0362842 -0.0838181 149 76 78
0.0739255 0.0154779 -0.0523795 0 0 0
0.0694635 0.0262221 -0.0354504 0 0 0
0.074661 0.0110354 -0.0562782 75 0 0
0.0833929 0.0260033 -0.0857399 166 83 77
0.076601 0.0293232 -0.0851049 153 70 60
0.0740819 0.0216269 -0.0539897 48 21 22
0.0660343 0.0119908 -0.0542686 48 20 18
0.0824021 0.0280975 -0.098436 198 36 0
0.0693906 0.0156961 -0.0972332 134 70 60
0.0658028 0.017367 -0.0938643 110 36 32
0.069081 0.00805032 -0.0685087 84 29 26
0.0620775 0.0201503 -0.0932259 124 47 42
0.074975 0.0319946 -0.0794644 124 72 60
0.0734031 0.0200375 -0.0550868 0 0 0
0.0745039 0.0286186 -0.0821827 140 70 61
0.0739143 0.0198306 -0.058625 0 0 0
0.0682658 0.0129503 -0.0830434 108 41 34
0.0721527 0.0346293 -0.0769489 54 11 7
0.077357 0.0230491 -0.0794878 102 29 24
0.0816565 0.019551 -0.0891503 132 71 62
0.0708141 0.017223 -0.0989421 157 83 72
0.0679847 0.0263266 -0.036639 0 0 0
0.0727051 0.032385 -0.074305 248 138 114
0.0640774 0.0109428 -0.0663778 67 18 14
0.0641717 0.0156802 -0.0832943 115 30 28
0.0711583 0.0143452 -0.0933064 122 66 59
0.0732963 0.0122551 -0.0702759 77 34 31
0.0680386 0.00635936 -0.0699916 97 42 39
0.0692678 0.0126686 -0.0603125 87 47 40
0.0708405 0.0117875 -0.0889958 135 54 47
0.0678636 0.0191153 -0.0457258 56 37 34
0.0642613 0.0161833 -0.0853619 129 42 37
0.0739914 0.0172401 -0.0990281 179 119 103
0.0723468 0.0102974 -0.069552 64 18 19
0.0625552 0.0247721 -0.0472884 102 60 55
0.0642709 0.0284512 -0.0455848 33 12 13
0.0762574 0.0134669 -0.0721779 74 25 24
0.071575 0.0103317 -0.0680455 68 23 21
0.066773 0.010398 -0.0890593 122 55 53
0.066345 0.0258661 -0.0412549 44 23 21
0.0823055 0.0369302 -0.0998308 183 149 183
0.0784272 0.0182415 -0.0950478 155 79 71
0.077069 0.031118 -0.0865067 165 90 84
0.0759507 0.026688 -0.0793633 130 67 59
0.0731443 0.0341955 -0.0803138 122 82 74
0.0588627 0.000524162 -0.0840987 182 0 0
0.0806085 0.0234925 -0.0903284 160 82 72
0.06723 0.01192 -0.0572263 52 23 20
0.0754581 0.0267211 -0.0805027 134 71 65
0.075269 0.0313785 -0.0794308 145 90 79
0.0769887 0.0216736 -0.0759032 255 173 152
0.0798877 0.0250831 -0.101351 184 124 113
0.0641515 0.0273106 -0.0480425 34 2 0
0.0804758 0.0262745 -0.0856617 131 45 36
0.0753096 0.0310295 -0.0790379 110 69 61
0.0677754 0.0101909 -0.0815129 204 101 88
0.0741333 0.0200245 -0.0602719 70 25 21
0.07797 0.0334818 -0.0859236 192 178 161
0.084679 0.026765 -0.0882944 139 69 53
0.0706609 0.0167357 -0.0980766 133 61 54
0.0646731 0.0292675 -0.0436514 19 0 0
0.065292 0.031749 -0.0471404 12 0 0
0.0659704 0.00821151 -0.0563878 54 19 16
0.0803679 0.0209548 -0.0857309 143 55 49
0.0760403 0.0122569 -0.0932435 134 63 53
0.0635223 0.0150974 -0.0844651 129 45 40
0.0734715 0.0129965 -0.083989 88 17 8
0.065287 0.0111855 -0.0641255 90 47 40
0.0728767 0.0188251 -0.0616526 86 60 47
0.0665585 0.0289717 -0.0349606 0 0 0
0.0797679 0.032723 -0.106926 255 255 243
0.0626024 0.0114118 -0.0651959 72 20 16
0.0745811 0.0124216 -0.0688736 107 24 20
0.0748819 0.0124906 -0.0838249 123 57 49
0.0748436 0.0126612 -0.0898888 128 46 38
0.0820508 0.0153145 -0.0876065 121 52 46
0.0729361 0.0120434 -0.0691202 78 42 38
0.062776 0.0109277 -0.0627375 76 39 34
0.0789258 0.0381724 -0.104249 255 255 230
0.0645564 0.00649359 -0.04831 59 32 29
0.0636079 0.00449212 -0.0730778 69 26 24
0.0608996 0.0141691 -0.0646175 83 32 27
0.0832048 0.0133656 -0.084784 42 0 0
0.0692819 0.0270263 -0.0318402 0 0 0
0.0823034 0.0264874 -0.0976305 173 207 185
0.0651456 0.00977648 -0.0734227 68 25 21
0.0633931 0.0171664 -0.0888237 111 38 33
0.0630758 0.0158533 -0.0885395 116 45 38
0.0613255 0.0161505 -0.0679924 77 17 16
0.0687635 0.0268652 -0.0323439 41 0 0
0.0627852 0.0199533 -0.0492628 45 0 0
0.069412 0.0213302 -0.0490502 49 20 19
0.066335 0.0279729 -0.0356152 0 0 0
0.0663381 0.0286769 -0.0301753 0 0 0
0.0697367 0.0110641 -0.0919766 122 42 40
0.0651163 0.00622328 -0.0451527 57 0 0
0.0810879 0.0153912 -0.0867969 115 49 41
0.0808214 0.0312948 -0.0875853 179 106 101
0.0633433 0.0106285 -0.0674796 70 27 24
0.0699308 0.0202258 -0.0459177 0 0 0
0.0728867 0.013788 -0.092869 130 64 55
0.0757658 0.014344 -0.0933038 144 75 67
0.0665108 0.00981812 -0.0558291 56 24 21
0.0717248 0.0165019 -0.0586664 61 19 16
0.0800777 0.0212496 -0.0882191 140 61 56
0.0611772 0.0141653 -0.0660045 78 18 15
0.0675762 0.020919 -0.0361253 0 0 0
0.06625 0.00783416 -0.0498279 33 23 23
0.0756863 0.0239826 -0.0808114 118 70 59
0.0740967 0.0332185 -0.0798089 100 73 66
0.0692518 0.0085288 -0.0774516 95 63 58
0.0721459 0.0243042 -0.0497687 32 11 10
0.0610062 0.0131361 -0.0770441 76 17 13
0.0734166 0.0103771 -0.0723645 76 36 30
0.074322 0.023843 -0.0588765 53 23 20
0.0775007 0.016695 -0.0972767 145 74 63
0.0761538 0.0242487 -0.0750757 216 172 152
0.0773271 0.0205832 -0.0640829 0 0 0
0.0626081 0.0137499 -0.0883526 120 52 53
0.0644577 0.0183249 -0.0960765 131 68 60
0.0644719 0.0089673 -0.0778299 65 21 18
0.0704975 0.00807893 -0.0762064 94 38 34
0.0700799 0.00719864 -0.0802408 97 60 53
0.0585496 0.00129313 -0.0831276 182 0 0
0.0735068 0.0232778 -0.0551513 45 21 19
0.0804383 0.0193473 -0.0887388 125 40 32
0.0765047 0.0238865 -0.0785626 137 84 76
0.0754496 0.013966 -0.070147 84 31 29
0.0673131 0.0110318 -0.064868 243 254 250
0.0729472 0.0157671 -0.0969301 145 68 58
0.079978 0.0205727 -0.0962338 151 75 65
0.0665512 0.0283045 -0.040297 28 0 0
0.0581624 0.00142365 -0.0819762 94 0 0
0.0756715 0.0271153 -0.0810927 121 78 77
0.0738195 0.0227458 -0.0569993 44 19 15
0.0801228 0.0246099 -0.0930412 111 18 12
0.0767124 0.0265925 -0.0595908 67 23 0
0.0657176 0.0259158 -0.0360701 32 0 0
0.0715259 0.01073 -0.08943 142 58 52
0.067687 0.00829153 -0.0685504 89 44 40
0.0636107 0.0185678 -0.0914489 162 73 60
0.0633722 0.0141602 -0.0872504 136 61 53
0.0714924 0.015714 -0.0970108 129 63 51
0.0805945 0.0220507 -0.0927975 130 46 42
0.0751695 0.0171235 -0.0649172 64 29 25
0.0662303 0.00873279 -0.0723676 65 22 19
0.0716118 0.0348928 -0.0781093 151 107 86
0.0644794 0.00957496 -0.0723814 68 20 16
0.064141 0.0115665 -0.0757309 81 36 32
0.0808756 0.0276361 -0.107193 255 255 255
0.0682254 0.0153096 -0.0513322 90 68 61
0.0648241 0.0100439 -0.0794344 80 23 20
0.0680279 0.00904266 -0.0554201 59 29 27
0.0699111 0.025462 -0.0285894 87 0 0
0.0632455 0.0128056 -0.0802138 199 76 67
0.0678181 -0.00260703 -0.0784647 255 81 0
0.0671142 0.0223677 -0.0485369 45 11 9
0.0694658 0.0126662 -0.0900385 118 40 36
0.0667455 0.0107198 -0.0607023 34 12 10
0.0746172 0.0189949 -0.0592032 72 32 21
0.0788167 0.0110033 -0.0778837 94 42 39
0.0804134 0.0229419 -0.0895654 134 47 40
0.0738963 0.0330936 -0.0824744 148 65 56
0.0739778 0.0349212 -0.0841045 142 66 58
0.0731504 0.0173565 -0.0615096 77 4 11
0.0647118 0.0078286 -0.0540718 52 17 17
0.0725972 0.0032984 -0.0707971 56 0 0
0.068819 0.0121801 -0.0582001 52 29 42
0.0700933 0.0170051 -0.101524 156 79 78
0.0679543 0.0282432 -0.0297453 0 0 0
0.073916 0.0325549 -0.0726486 165 87 59
0.0804197 0.0200996 -0.0892459 149 54 49
0.0694738 0.0123207 -0.09257 115 54 48
0.0686429 0.0158614 -0.0549963 74 41 33
0.0737181 0.0188301 -0.0579037 43 29 23
0.0655709 0.0104207 -0.0665497 68 30 27
0.0796014 0.0190634 -0.0947022 149 74 64
0.0715416 0.0169681 -0.0578639 57 26 22
0.0765611 0.0167344 -0.0948546 135 53 48
0.0669503 0.0137844 -0.0548433 58 17 13
0.0617967 0.011217 -0.0657818 46 0 0
0.0680577 0.0231985 -0.0476188 43 7 5
0.0687475 0.012089 -0.0584749 67 16 0
0.0673767 0.0233033 -0.045987 45 12 12
0.0689576 0.0165608 -0.0531011 103 20 5
0.0651558 0.0033142 -0.0488103 0 0 6
0.0590988 -0.0014119 -0.0538373 0 0 0
0.068795 0.0214732 -0.0502772 50 21 18
0.0781357 0.0201675 -0.0797675 123 70 63
0.0774931 0.0208757 -0.0807966 115 59 50
0.0659694 0.0133056 -0.0857749 162 189 175
0.0758082 0.0167368 -0.0651577 105 0 0
0.0696484 0.0164339 -0.0550847 59 25 21
0.0645755 0.015653 -0.0855046 132 53 50
0.0630257 0.0114712 -0.0704539 72 21 18
0.081738 0.0239222 -0.0945918 165 76 75
0.0829862 0.0243571 -0.0975324 157 51 45
0.0764496 0.0239453 -0.0806421 143 96 81
0.0699449 0.0133743 -0.0924769 140 78 70
0.066592 0.0151177 -0.0921886 120 51 47
0.0731024 0.0185465 -0.0583813 95 64 49
0.0645383 0.00897074 -0.0781231 86 41 36
0.0794171 0.0218856 -0.0838643 129 45 42
0.0808928 0.0265602 -0.0985488 159 66 60
0.0762402 0.0290218 -0.0837175 137 57 49
0.0565392 0.00591508 -0.0789231 135 0 0
0.0764268 0.0290027 -0.0820846 127 74 66
0.0821483 0.0278708 -0.106567 255 255 255
0.072932 0.0277164 -0.0546992 43 8 6
0.074633 0.0234589 -0.0621508 29 0 0
0.081462 0.0237371 -0.0955941 148 88 84
0.0646839 0.0126522 -0.0851646 152 64 64
0.0773207 0.0229792 -0.0785003 164 134 122
0.0837586 0.0101727 -0.0820277 158 184 170
0.0677735 0.0246386 -0.0304236 0 0 0
0.0786066 0.0213743 -0.0809525 0 0 0
0.0819875 0.0154935 -0.0869712 140 72 65
0.0661986 0.0134389 -0.0835872 118 45 37
0.0671854 0.00870446 -0.075631 66 11 0
0.076043 0.0369938 -0.0856458 130 69 66
0.080724 0.021658 -0.0912026 149 76 66
0.0740804 0.0335008 -0.0781474 132 94 80
0.0824248 0.0299121 -0.0951117 156 84 74
0.0636004 0.0173668 -0.0893974 93 36 27
0.0661217 0.0147617 -0.0891427 121 49 44
0.0745134 0.0226813 -0.0599244 51 13 9
0.0676516 0.0231562 -0.0461031 35 13 16
0.0741983 0.0247934 -0.0581405 49 8 1
0.0714067 0.0147424 -0.0956742 139 57 49
0.0674347 0.0241744 -0.0477885 55 24 23
0.0689988 0.011496 -0.0873319 127 43 34
0.0680695 0.0262127 -0.0327273 47 0 0
0.067085 0.0287114 -0.0341149 14 0 0
0.0799025 0.0236804 -0.0863771 152 55 51
0.0809324 0.037369 -0.0951126 197 163 156
0.0690366 0.0281606 -0.0367176 31 0 0
0.0747347 0.0166432 -0.0633498 62 18 15
0.0812453 0.026424 -0.0876586 164 70 61
0.064453 0.0145056 -0.0868099 125 34 29
0.0673712 0.0240257 -0.0477187 55 21 20
0.0749546 0.0034034 -0.073137 0 0 0
0.0669435 0.0111186 -0.0480051 48 37 35
0.0736279 0.0199508 -0.0375493 129 0 0
0.0648773 0.00390436 -0.0412068 74 0 0
0.0812679 0.0120757 -0.0924201 114 56 48
0.0805438 0.0268263 -0.0948569 158 140 126
0.0686904 0.027186 -0.0390705 27 0 0
0.0804716 0.0295255 -0.0923949 156 67 55
0.0672492 0.00280841 -0.0405014 0 0 0
0.0819154 0.0228206 -0.093706 149 92 87
0.0820197 0.0322087 -0.10642 163 131 124
0.0717334 0.0174997 -0.055075 52 27 25
0.0644056 0.00695495 -0.0533238 44 36 40
0.071881 0.0224337 -0.0448828 28 5 5
0.0677027 0.0134428 -0.083065 145 50 41
0.0780425 0.0169061 -0.0813586 119 31 25
0.0641472 0.0142914 -0.0865377 128 16 12
0.0803098 0.0181896 -0.0891167 134 62 51
0.0594453 0.0108036 -0.0545611 37 0 0
0.0694821 0.0280491 -0.0365056 29 0 0
0.0715101 0.0235058 -0.0308147 38 0 0
0.0775637 0.0297085 -0.0857208 160 63 54
0.0818968 0.0154905 -0.0864179 113 57 46
0.0655988 0.0178004 -0.0958811 126 58 52
0.0607823 0.014319 -0.0630923 79 32 28
0.0731395 0.0343387 -0.0794791 137 101 87
0.0611881 0.0124128 -0.0766244 67 23 19
0.0660397 0.0289756 -0.0324172 39 0 0
0.0636287 0.0114777 -0.0724981 68 22 19
0.0743115 0.026282 -0.0597291 34 0 0
0.0669038 0.0109277 -0.0649292 155 131 126
0.0700364 0.0262428 -0.0326385 0 0 0
0.0744888 0.0113628 -0.0870228 150 75 68
0.0682402 0.00749533 -0.0715435 74 30 27
0.0706182 0.0163296 -0.099384 162 84 74
0.0797051 0.0184367 -0.101729 148 22 16
0.0600195 0.00336537 -0.0816018 165 0 0
0.0755951 0.0251302 -0.0750992 242 137 116
0.0757341 0.0134576 -0.0708612 102 39 38
0.0798774 0.0210753 -0.0846463 138 48 43
0.0597105 0.0150005 -0.0693104 81 16 16
0.0760449 0.0141259 -0.0932544 177 97 86
0.0752455 0.0162203 -0.0967138 135 64 56
0.0797067 0.0181493 -0.0955995 142 62 51
0.0730777 0.0204272 -0.0546572 54 19 18
0.068396 0.0233583 -0.0473013 46 14 15
0.0746933 0.021335 -0.0625311 55 17 13
0.0686036 0.016161 -0.0548754 70 39 34
0.0697953 0.0349126 -0.0825608 117 79 60
0.0725888 0.0209252 -0.054251 48 23 22
0.0770125 0.0285002 -0.0822175 216 94 88
0.0800733 0.0391449 -0.0896582 170 14 12
0.0733133 0.0272013 -0.0551677 46 12 0
0.0736733 0.0245199 -0.0539845 44 0 0
0.0791556 0.0328754 -0.106338 255 255 235
0.0698308 0.0260005 -0.0331459 0 0 0
0.078221 0.00366833 -0.0707489 0 0 0
0.0822566 0.0305348 -0.0899777 133 79 72
0.069191 0.0258401 -0.0362744 36 0 0
0.0681198 0.0265993 -0.0325483 0 0 0
0.0794252 0.0246681 -0.0855093 111 29 22
0.0794099 0.0189417 -0.0993049 101 3 0
0.0851516 0.031646 -0.0987057 98 134 116
0.0735804 0.0232652 -0.0531648 45 18 17
0.0683596 0.0290101 -0.0388713 9 0 0
0.0697996 0.0266755 -0.0382086 28 0 0
0.0761489 0.0138555 -0.0347301 0 0 0
0.080503 0.0198195 -0.0994426 150 98 88
0.0791746 0.0375769 -0.103457 255 255 229
0.071436 0.0269102 -0.044552 27 0 0
0.0889999 0.0353663 -0.0938927 166 255 255
0.0678922 0.0218628 -0.050722 52 19 17
0.063452 0.00384069 -0.0488892 53 0 0
0.0766957 0.0318039 -0.0857995 168 203 179
0.0642986 0.00614069 -0.0499915 63 43 48
0.0742319 0.014964 -0.0652055 77 40 35
0.0764472 0.0177371 -0.098389 180 79 71
0.0646717 0.0199663 -0.049611 67 32 28
0.0698607 0.0271864 -0.0361471 25 0 0
0.0683874 0.0244012 -0.0451275 57 21 21
0.0665581 0.00971286 -0.059138 68 27 20
0.071197 0.0210611 -0.0504985 48 15 15
0.0780143 0.0382141 -0.103483 255 255 245
0.0670878 0.00317899 -0.0398777 76 0 0
0.0635014 0.0303627 -0.0410526 108 54 48
0.0623357 0.0233557 -0.0484636 182 101 95
0.0689489 0.00799543 -0.080189 60 11 7
0.0728103 0.033381 -0.0802358 122 75 63
0.0816528 0.0264621 -0.09122 160 154 141
0.0815195 0.0196506 -0.0833253 131 31 25
0.0721093 0.0107328 -0.0703007 55 6 3
0.0726755 0.0161726 -0.0624266 71 32 27
0.0745184 0.0200616 -0.103386 195 120 106
0.0662015 0.00842807 -0.0686041 96 35 31
0.0688516 0.00638457 -0.0705976 76 26 20
0.0594626 0.00941474 -0.0522797 31 0 0
0.0588083 0.0132897 -0.068617 80 13 12
0.0810727 0.0367175 -0.0853839 255 255 255
0.0815902 0.0245251 -0.0889857 166 61 56
0.0799758 0.0259548 -0.0852427 159 71 61
0.0616928 0.0150801 -0.073438 72 19 15
0.0659655 0.0207125 -0.0496878 58 22 21
0.0800305 0.0175994 -0.0942769 145 63 57
0.0791768 0.0295433 -0.0843774 148 80 69
0.0778244 0.0146039 -0.0821776 134 56 47
0.0755394 0.0347909 -0.0837392 145 44 36
0.0657365 0.00817768 -0.0657004 99 23 8
0.0776626 0.0142642 -0.0827014 110 34 27
0.0900154 0.0308406 -0.0982812 35 0 145
0.0916974 0.0270897 -0.0967532 127 0 35
0.0786536 0.015273 -0.0618277 255 0 0
0.0815371 0.0282361 -0.0884891 191 81 72
0.0693484 0.00151133 -0.0831751 117 0 0
0.0688132 0.0128755 -0.0876518 126 55 49
0.0904436 0.0206191 -0.102464 163 255 255
0.0622131 0.011689 -0.0629795 76 35 31
0.0648334 0.00786376 -0.0701895 91 39 36
0.0723575 0.0365286 -0.0843386 150 69 66
0.0613987 0.016049 -0.0705842 83 19 16
0.0701925 0.0104288 -0.0892949 147 61 53
0.0784012 0.0179452 -0.0815812 143 28 0
0.0738635 0.0115028 -0.0685688 85 44 33
0.0728369 0.015914 -0.0614644 59 25 19
0.0635751 0.0239656 -0.0490432 53 21 20
0.0624522 0.00148284 -0.06319 0 0 0
0.0678973 0.0103427 -0.0627548 63 29 26
0.0818436 0.0231947 -0.0642962 0 0 0
0.0628211 0.0112073 -0.0645324 66 23 23
0.0759542 0.0128985 -0.073186 75 32 29
0.0716742 0.00855992 -0.076121 76 35 31
0.0781294 0.0288064 -0.11123 255 215 198
0.0822858 0.0236019 -0.0909245 238 55 51
0.083025 0.0254245 -0.0875196 222 75 66
0.0614624 0.013218 -0.0700689 70 23 21
0.0615918 0.0290454 -0.035427 0 0 0
0.0804805 0.016124 -0.0881453 115 38 35
0.0614675 0.0120553 -0.0666409 76 23 22
0.0636604 0.0118084 -0.0749065 80 31 28
0.0810699 0.0187386 -0.0946337 127 58 46
0.0769319 0.0125932 -0.0885651 135 12 8
0.0681766 0.0120918 -0.0828282 155 54 44
0.0695435 0.00710601 -0.0689573 88 38 34
0.0746597 0.0115525 -0.0802145 119 71 61
0.0719467 0.024216 -0.0459487 50 12 5
0.0762537 0.0148518 -0.0708298 90 37 34
0.0645448 0.0138528 -0.048751 60 27 17
0.0588108 0.00481788 -0.069207 0 0 0
0.0801233 0.0178169 -0.0952022 148 73 61
0.0747881 0.0115469 -0.0757772 98 42 39
0.0783228 0.0193066 -0.0810895 142 64 57
0.0639976 0.0200178 -0.0495095 69 38 34
0.0769579 0.0121711 -0.0882584 127 71 67
0.0693662 -0.00113549 -0.0675917 0 0 0
0.0654748 0.00857992 -0.0551303 63 37 33
0.0747723 0.012663 -0.084165 133 69 62
0.0749222 0.0140277 -0.0656398 86 32 27
0.0728904 0.00851403 -0.0726498 88 41 39
0.0642577 0.0128658 -0.0838669 145 61 54
0.0729375 0.015481 -0.0605452 106 49 50
0.0644663 0.0131017 -0.0861643 142 58 54
0.0803907 0.0242118 -0.0855716 157 70 61
0.0803579 0.0258759 -0.0841994 166 95 91
0.0687738 0.012166 -0.0525703 76 0 29
0.0634314 0.0105494 -0.0662064 89 20 16
0.0830057 0.0367828 -0.0982751 138 63 58
0.0645631 0.00836631 -0.0701149 84 29 28
0.0605256 0.00922803 -0.0553175 45 0 0
0.0820134 0.0161896 -0.0863227 183 76 70
0.0794163 0.0171573 -0.0923118 164 45 33
0.070347 0.0251516 -0.0284547 0 0 0
0.0786447 0.0217956 -0.0833823 138 57 53
0.0762727 0.0318082 -0.0859531 180 96 77
0.0735839 0.0166659 -0.0969833 193 127 109
0.0803125 0.0202742 -0.089154 145 61 57
0.0672768 0.02267 -0.0315454 0 0 0
0.0908487 0.026604 -0.09774 57 0 135
0.0745461 0.0146844 -0.0620922 67 17 41
0.0620352 0.0216287 -0.0498254 64 0 0
0.0678975 0.0232657 -0.047269 47 18 17
0.0730557 0.0133778 -0.0525353 110 0 0
0.0821744 0.0242412 -0.105252 255 255 255
0.0722947 0.0112824 -0.0563149 76 77 73
0.0656993 0.00885786 -0.0518189 56 0 0
0.0742826 0.01707 -0.0612696 67 0 0
0.075324 0.00317983 -0.0809097 184 0 0
0.0660857 0.00771111 -0.0725399 60 16 15
0.0695795 0.0119687 -0.0863443 136 59 50
0.0796318 0.0101612 -0.0817321 124 38 45
0.0778071 0.0289176 -0.0814719 142 71 65
0.0684042 0.0132426 -0.090856 128 52 49
0.0761626 0.0123039 -0.0832262 149 80 72
0.081489 0.0249667 -0.092465 117 111 95
0.066793 0.00720106 -0.0673855 80 43 38
0.0796214 0.0166212 -0.0930673 152 69 59
0.0790977 0.0193948 -0.100869 130 78 71
0.0711017 0.00670394 -0.0714253 85 40 35
0.0688258 0.00617063 -0.0711095 74 39 33
0.0743679 0.0134443 -0.0625896 55 16 13
0.0758249 0.0344619 -0.0815529 213 79 68
0.0728314 0.0119023 -0.0678978 83 39 33
0.0731462 0.0102204 -0.0677099 77 28 28
0.0707149 -0.00221849 -0.0660318 0 0 0
0.077627 0.0149507 -0.0822892 113 38 32
0.0781613 0.0323639 -0.107461 255 224 201
0.0782788 0.0276396 -0.0175525 0 0 0
0.0696819 0.00785077 -0.0701093 77 39 38
0.0770018 0.0212044 -0.106687 166 43 34
0.08574 0.023584 -0.0993907 0 0 0
0.0926419 0.0275369 -0.101047 163 255 255
0.0808108 0.0304755 -0.0984278 159 90 76
0.0788823 0.0339136 -0.108578 255 243 235
0.0667311 0.0101653 -0.0647896 104 70 64
0.0636923 0.0184714 -0.0483319 92 40 39
0.067145 0.0123796 -0.0557935 52 18 15
0.064546 0.00668948 -0.04838 0 0 0
0.080215 0.00645654 -0.0650065 0 0 0
0.0824088 0.0252329 -0.0905028 0 0 0
0.0663204 0.010113 -0.0611564 66 27 23
0.0762025 0.00862111 -0.0673503 213 70 46
0.0785382 0.0373363 -0.0941151 185 19 23
0.0906367 0.0218296 -0.100954 220 255 255
0.0796772 0.00329612 -0.0677006 0 0 0
0.0878733 0.0254817 -0.0988822 255 255 255
0.0693113 0.0283931 -0.0372423 35 0 0
0.0680255 -0.00258905 -0.0490719 0 0 0
0.0716001 0.0113611 -0.067004 68 24 21
0.0793628 0.0165814 -0.09986 154 85 68
0.0769527 0.0294203 -0.084948 147 74 59
0.0837172 0.0104295 -0.0822279 176 140 131
0.0849683 0.0242168 -0.0895025 202 80 73
0.0779687 0.0245412 -0.082246 144 50 49
0.0679533 0.00668266 -0.0691335 82 39 36
0.0733903 0.0228899 -0.047856 43 14 6
0.0773899 0.0179894 -0.0970576 158 71 62
0.0752137 0.012485 -0.0722718 127 47 42
0.0677037 0.00839501 -0.0681886 87 39 37
0.0798235 0.0157025 -0.0921007 176 56 51
0.0683903 -0.00240978 -0.0655488 0 0 0
0.0789939 0.0319898 -0.0873718 165 75 68
0.0732668 0.0110268 -0.0744152 93 37 31
0.0620977 0.00776845 -0.036037 99 0 0
0.0836094 0.0241055 -0.0965643 99 109 105
0.0750798 0.0152117 -0.0662053 87 35 31
0.0660653 0.013325 -0.0854255 140 61 56
0.0749194 0.0353339 -0.0822974 152 57 49
0.0662597 0.00871949 -0.05447 50 34 31
0.0689033 0.0261322 -0.0368265 24 0 0
0.0682454 0.0257005 -0.0320795 47 0 0
0.0700408 0.0171141 -0.0518721 77 30 42
0.0683062 0.0116916 -0.057611 68 10 4
0.0869031 0.0256278 -0.0977852 111 107 92
0.0707648 0.00431201 -0.0815869 147 0 0
0.0796177 0.0175438 -0.0959089 148 68 62
0.0757126 0.00548484 -0.0709865 3 0 0
0.0720453 0.00851618 -0.0530709 0 0 0
0.0671272 0.018766 -0.0252016 111 0 0
0.0896045 0.0280393 -0.0946969 148 255 255
0.0764257 0.0333277 -0.0859611 159 65 59
0.0807835 0.0251588 -0.0933915 121 147 129
0.0606109 -0.00469018 -0.0457426 0 0 0
0.0696178 0.0177153 -0.0491698 53 22 20
0.0756607 0.0133754 -0.0689038 139 60 53
0.0796472 0.0350026 -0.0897117 141 68 57
0.0744576 0.0107626 -0.0777313 112 48 41
0.0777183 0.0166456 -0.105401 220 92 85
0.0629011 0.0278161 -0.0336983 44 0 0
0.0821385 0.0248981 -0.088675 208 73 60
0.0748737 0.0384606 -0.0859209 112 59 53
0.0839728 0.0273277 -0.0872577 154 87 63
0.0740623 0.0158181 -0.0608861 79 41 36
0.0777364 0.0137061 -0.0824675 106 36 32
0.0787823 0.0144533 -0.0914901 131 43 38
0.0752047 0.0113575 -0.0888253 137 73 64
0.0757964 0.0173839 -0.099083 165 58 46
0.0802657 0.035213 -0.104068 255 255 255
0.0734899 0.0121472 -0.0869629 152 0 0
0.0683479 0.022927 -0.0461458 38 9 8
0.075526 0.0135263 -0.0853003 147 60 54
0.081457 0.0183347 -0.0881259 148 90 80
0.0725746 0.0109171 -0.0883711 150 20 0
0.0804961 0.0201185 -0.0903979 134 56 48
0.0813367 0.024341 -0.0984283 195 140 122
0.0803006 0.0203181 -0.0966458 134 93 78
0.0807037 0.0268892 -0.0814972 56 0 0
0.0762364 0.00960417 -0.080392 129 67 58
0.0644614 0.00495333 -0.0354133 63 0 0
0.0804663 0.0192051 -0.0881935 133 14 10
0.0639472 0.00700975 -0.03841 83 0 0
0.0654984 0.0163255 -0.0518135 58 20 14
0.0736935 0.00100528 -0.0713654 79 0 0
0.0827751 0.00645373 -0.0686265 0 0 0
0.0639184 0.00281232 -0.0394663 77 0 0
0.0625735 0.00488249 -0.0486695 91 45 0
0.0778652 0.0276855 -0.0838039 111 27 22
0.078076 0.0342372 -0.107038 255 236 217
0.0751976 0.0200679 -0.0334251 0 0 0
0.0763134 0.0352405 -0.0831475 145 71 70
0.0661422 0.00528046 -0.0365682 77 0 0
0.069816 0.0264449 -0.0349321 22 0 0
0.0631304 0.0152281 -0.0880414 123 44 38
0.0685719 0.0236049 -0.0449697 36 13 12
0.0652469 0.0171617 -0.0268675 99 0 0
0.0703527 0.0265863 -0.0384839 24 0 0
0.0758343 0.00447209 -0.0694532 52 21 28
0.0610007 0.0175189 -0.0508 63 25 20
0.0656504 0.0136089 -0.0534874 45 17 12
0.0832985 0.0107585 -0.0958618 255 201 197
0.0765281 0.00254738 -0.085352 72 0 0
0.0739612 0.009553 -0.0824425 105 52 47
0.0816244 0.0241056 -0.0937081 74 134 127
0.0762731 0.0329713 -0.0796936 255 102 71
0.0760016 0.00378744 -0.0685828 239 124 125
0.0801525 0.0293677 -0.0855263 159 61 51
0.0816951 0.0334833 -0.0965059 105 43 21
0.0828909 0.0212698 -0.101705 195 154 138
0.0801969 0.0353415 -0.105431 255 255 252
0.0786174 0.0386356 -0.106211 255 209 180
0.0835462 0.0280247 -0.104477 255 255 255
0.0772264 0.0386872 -0.10005 163 153 136
0.085082 0.0369672 -0.0947778 133 40 27
0.0724612 0.0158237 -0.0210374 105 0 0
0.0797379 0.0356297 -0.0952989 155 80 77
0.0692349 0.00760468 -0.080302 65 22 19
0.0803036 0.0263834 -0.0949049 165 135 118
0.079222 0.0177893 -0.0829468 122 52 44
0.0749615 0.0131089 -0.0853818 137 67 60
0.0748954 0.00918988 -0.0811545 86 31 27
0.0800818 0.0280122 -0.0839409 86 0 0
0.0726984 0.00749038 -0.0738172 81 38 33
0.071612 0.0100876 -0.0705728 54 11 6
0.0730319 0.0167599 -0.0622762 73 33 29
0.0753989 0.0362411 -0.0861063 133 48 46
0.0615081 0.0139116 -0.0726476 69 14 11
0.0750486 0.0206404 -0.102219 191 104 90
0.0667124 0.0074593 -0.0683433 74 29 26
0.0716001 0.019021 -0.0528371 49 16 14
0.0710575 0.0169299 -0.0977577 141 61 53
0.0710739 0.00586366 -0.0738605 75 37 36
0.073669 0.0120111 -0.0715167 91 52 45
0.0829219 0.0296711 -0.0864234 255 255 255
0.0742431 0.0322958 -0.0796883 80 31 24
0.0820183 0.0308987 -0.0834294 210 76 56
0.064575 0.0192877 -0.0489365 79 45 43
0.0830324 0.0242611 -0.087424 225 104 88
0.0793281 0.016713 -0.0965977 141 65 58
0.0767754 0.0137685 -0.0850087 137 55 49
0.0795145 0.0259523 -0.0862012 150 67 56
0.0784339 0.0145302 -0.0831641 142 55 47
0.065521 0.00775325 -0.0651254 80 33 28
0.0742413 0.0124915 -0.0839078 125 61 53
0.0911611 0.0293813 -0.0981052 29 0 133
0.0912031 0.0275907 -0.097566 117 0 43
0.0799271 0.0238025 -0.0846728 160 39 35
0.0795867 0.0272072 -0.0870117 164 78 73
0.0819037 0.029154 -0.0910171 215 57 34
0.0720466 0.00785058 -0.0811868 74 13 9
0.0690854 0.0128565 -0.0890366 137 68 62
0.088714 0.0217373 -0.102215 165 255 255
0.0762621 0.00437397 -0.0780754 0 0 0
0.0627106 0.011167 -0.0650911 64 26 23
0.0648866 0.00812708 -0.0681477 75 24 22
0.0806832 0.0184176 -0.0891091 131 52 47
0.0732453 0.0131645 -0.0673117 95 41 36
0.0726435 0.0160614 -0.0610068 78 23 21
0.0609302 0.0223886 -0.0491423 78 28 39
0.0711764 0.0119197 -0.087065 123 52 47
0.0631404 0.000847898 -0.0629256 0 0 0
0.0653254 0.00328257 -0.067674 0 0 0
0.0677708 0.0104484 -0.0633983 58 28 25
0.077238 0.0122972 -0.0888301 132 51 45
0.0627582 0.00912094 -0.0656353 55 54 48
0.0708459 0.00748923 -0.0758316 75 25 22
0.0662533 0.00638234 -0.0782613 66 18 13
0.0679512 0.0266468 -0.0334906 0 0 0
0.0741072 0.00981878 -0.0770971 138 64 59
0.0595255 0.0145376 -0.0697093 74 30 28
0.0679543 0.0228854 -0.032377 0 0 0
0.0818651 0.0162171 -0.0887863 140 67 63
0.060658 0.0129903 -0.0687696 87 32 27
0.0623317 0.0119538 -0.0697674 63 16 14
0.0777501 0.0137531 -0.0881556 145 12 7
0.0678736 0.0100816 -0.0863662 130 60 55
0.0679774 0.00652527 -0.0708403 95 38 33
0.0658765 0.00771948 -0.0716245 79 37 33
0.0752797 0.00989259 -0.0802576 129 76 57
0.075005 0.011694 -0.0743299 98 46 41
0.0677546 0.0139851 -0.0476582 62 36 31
0.0746997 0.0138016 -0.0616393 92 41 40
0.0585281 0.00596384 -0.0691818 0 0 0
0.0791864 0.0171569 -0.0941696 137 58 50
0.0735744 0.0109249 -0.0763988 103 51 43
0.0783285 0.0157946 -0.0834296 145 68 60
0.0697534 -0.00270891 -0.0654399 0 0 0
0.0678616 0.00814056 -0.053664 63 32 28
0.0808952 0.016777 -0.0880728 122 51 45
0.0745268 0.0128889 -0.0877809 143 69 63
0.0707042 0.00730741 -0.0716692 77 31 25
0.0779491 0.0381661 -0.0898367 132 106 104
0.0758954 0.0164974 -0.067105 84 28 28
0.0670547 0.0103999 -0.0847933 141 62 56
0.0711446 0.0162092 -0.0599057 89 50 34
0.0663657 0.0144296 -0.0838028 138 47 40
0.0793537 0.0287535 -0.0858482 175 77 70
0.0688496 0.0100262 -0.0880301 144 52 45
0.0754066 0.0167543 -0.0613413 71 21 15
0.0684078 0.0148087 -0.0510573 58 46 40
0.0758949 0.0075637 -0.0787984 92 42 36
0.0652746 0.00802532 -0.0710117 70 17 18
0.0820581 0.0368442 -0.0987217 138 63 58
0.0669154 0.0105339 -0.0649742 70 21 17
0.0616501 0.00896367 -0.056625 50 0 0
0.079057 0.0111193 -0.0886395 184 81 70
0.0797248 0.0164834 -0.0913735 147 65 60
0.0680096 0.0260059 -0.0295153 0 0 0
0.0759005 0.0126077 -0.0940067 107 52 44
0.0602988 0.0113241 -0.0749606 81 23 20
0.0770513 0.0303259 -0.0855155 176 97 86
0.0803207 0.0211521 -0.0893474 141 54 51
0.0653663 0.0191054 -0.0478099 52 8 8
0.0700135 0.0232034 -0.0246305 0 0 0
0.0907495 0.027751 -0.0966002 56 0 139
0.0753832 0.00732883 -0.079658 89 43 40
0.0796128 0.0186251 -0.0972305 155 106 91
0.0723627 0.00855307 -0.0600849 106 28 32
0.0752187 0.0170473 -0.0606326 45 16 0
0.0608904 0.0210505 -0.0490649 54 0 0
0.0737007 0.00877875 -0.0813959 108 68 54
0.0634934 0.00602072 -0.0771672 76 0 0
0.0655432 0.0255299 -0.0298979 13 0 0
0.0671052 0.0235992 -0.0472246 42 18 16
0.0733769 0.0112376 -0.0533999 120 0 0
0.0817963 0.0248932 -0.106436 255 255 255
0.0728139 0.0113036 -0.0594375 93 24 21
0.0669992 0.00839231 -0.0522557 67 0 0
0.081075 0.0229181 -0.0953644 160 139 121
0.0644551 0.0295511 -0.0338004 0 0 0
0.0748443 0.0117983 -0.0573437 120 57 48
0.075548 0.016553 -0.0607079 56 33 28
0.0752989 0.00204297 -0.0825692 65 0 0
0.0735353 0.0114095 -0.0903637 105 0 0
0.0646359 0.00895176 -0.071457 68 17 13
0.0721096 0.010305 -0.0874885 142 70 61
0.0805848 0.0223687 -0.0915867 156 84 75
0.0765141 0.012943 -0.083459 146 64 59
0.0796914 0.0293534 -0.0834677 145 69 62
0.0702644 0.0127387 -0.0901729 85 26 21
0.0833294 0.0277276 -0.0932433 68 128 118
0.0803499 0.0220609 -0.0893949 145 61 56
0.0784235 0.0164819 -0.0927356 139 58 53
0.0812063 0.0178552 -0.0886981 146 79 69
0.0728016 0.015114 -0.0947659 141 74 65
0.0792184 0.0178318 -0.0999209 141 53 42
0.0677903 0.00713403 -0.0700424 88 40 34
0.0685336 0.00772746 -0.0727823 81 36 34
0.0736639 0.0112798 -0.0681211 79 42 39
0.0739211 0.007052 -0.0653886 0 50 72
0.0794213 0.0143076 -0.0832402 127 45 40
0.0788527 0.0109671 -0.0871473 146 40 35
0.0777743 0.0291796 -0.106953 255 241 216
0.067919 0.0265313 -0.0393067 0 0 0
0.0655769 0.00706598 -0.0673296 59 21 18
0.0756158 0.0196878 -0.107264 157 49 41
0.0833382 0.0229004 -0.0972194 0 0 0
0.0914955 0.0242558 -0.0990586 147 255 255
0.0650907 0.0091699 -0.0644852 83 55 46
0.0657589 0.020435 -0.044923 83 54 59
0.0807447 0.0190094 -0.0981547 185 85 82
0.0743603 0.00915097 -0.0813915 83 20 16
0.0681141 0.0232376 -0.0461238 48 12 11
0.0650214 0.00621095 -0.045217 0 0 0
0.0770989 0.0093525 -0.0796309 111 41 51
0.0800567 0.00648822 -0.0659961 0 0 0
0.067848 0.00842432 -0.0654015 84 31 30
0.0745263 0.00783543 -0.0631508 78 45 61
0.0786289 0.037309 -0.0934089 185 19 23
0.0893855 0.0203368 -0.102928 220 255 255
0.0799869 0.0200361 -0.0856986 150 67 65
0.0902447 0.0209599 -0.102261 255 255 255
0.0636137 0.0301889 -0.0342154 39 0 0
0.0682683 0.0255229 -0.0386112 27 0 0
0.0682088 0.00109662 -0.0476738 0 0 0
0.0706934 0.00998222 -0.0665192 62 24 22
0.0794634 0.0177699 -0.0959781 151 90 79
0.0787495 0.0344462 -0.0869094 162 59 49
0.0841229 0.0108233 -0.0822043 173 136 126
0.0832347 0.0256456 -0.0865581 209 81 73
0.0800897 0.0136593 -0.0828982 130 55 48
0.0808868 0.0160549 -0.0922315 166 53 39
0.0798493 0.0105779 -0.0908304 114 0 0
0.0672786 0.00856053 -0.0698513 83 35 31
0.0742751 0.0191383 -0.0534048 42 15 12
0.0799492 0.0174368 -0.0860155 116 42 36
0.0798851 0.0185728 -0.0970238 154 86 74
0.0739403 0.0112607 -0.0751004 102 52 45
0.068919 0.00815982 -0.0680164 81 31 27
0.0793133 0.0168992 -0.0908772 151 67 57
0.0716914 -0.00207071 -0.0657849 0 0 0
0.0790685 0.0343222 -0.0872748 151 59 54
0.0731695 0.0108277 -0.078882 96 50 46
0.0741785 0.0141999 -0.0676484 87 41 37
0.0710724 0.0100775 -0.0903961 134 69 59
0.0784639 0.0332802 -0.0814941 140 43 43
0.0622175 0.00692408 -0.0564871 54 37 34
0.0738142 0.0159591 -0.0273623 0 0 0
0.0794716 0.0226087 -0.100281 160 56 48
0.067216 0.0249487 -0.0341603 34 0 0
0.0738255 0.0215781 -0.0296807 54 0 0
0.0701414 0.0163661 -0.050125 83 62 61
0.0692989 0.0106125 -0.0568801 75 0 23
0.0816104 0.0121075 -0.0977036 12 126 113
0.0758948 0.00406081 -0.069964 0 0 0
0.0805921 0.030481 -0.0703669 0 96 0
0.0728117 0.00693456 -0.0562363 0 0 0
0.0693039 0.018368 -0.0258518 74 0 0
0.0895492 0.0287133 -0.0953962 165 255 255
0.0781508 0.0298738 -0.0819846 200 57 53
0.0826643 0.0266511 -0.0926127 99 38 26
0.0815758 0.0305362 -0.0892777 148 67 59
0.0806007 0.0225439 -0.100777 140 107 98
0.0835095 0.0259957 -0.0975877 153 143 127
0.0756539 0.0121607 -0.0730681 95 45 41
0.0610177 -0.00455654 -0.0467923 0 0 0
0.0649978 0.0174275 -0.0505128 52 17 16
0.0814463 0.0238262 -0.0947789 176 116 107
0.0654775 0.00729426 -0.0472252 70 44 48
0.0630937 0.0277876 -0.0337525 43 0 0
0.0839122 0.0252967 -0.0903526 182 63 54
0.0707861 0.0379752 -0.0870352 116 60 54
0.0738387 0.0148077 -0.063366 77 14 9
0.078614 0.0149633 -0.085317 117 43 42
0.0797389 0.0373316 -0.102412 255 255 255
0.0751795 0.00911436 -0.0908249 165 0 0
0.0754805 0.0125484 -0.0733417 88 33 29
0.0739787 0.0224418 -0.0493008 52 17 1
0.0858172 0.0332924 -0.0947758 41 0 0
0.0758084 0.0128285 -0.084019 133 61 54
0.0797051 0.0372042 -0.0922266 207 90 79
0.0733529 0.0106069 -0.0776889 88 23 20
0.0749073 0.0107554 -0.0876582 127 9 0
0.0805631 0.0208067 -0.0898706 132 49 48
0.0657195 0.0031886 -0.0446137 59 0 0
0.0819693 0.0258296 -0.0972565 176 137 122
0.0803035 0.0218399 -0.0965794 166 68 64
0.0771448 0.00950629 -0.0798171 113 53 45
0.0654691 0.00543758 -0.0364879 31 0 0
0.0804361 0.0189414 -0.0891566 135 0 0
0.0634678 0.00660406 -0.0379568 72 0 0
0.0765657 0.0252223 -0.0764873 136 2 0
0.0637889 0.0151225 -0.0497573 55 24 18
0.0752447 0.0151873 -0.0926944 160 78 71
0.0708648 -0.000751251 -0.0736532 112 0 0
0.0840506 0.00517064 -0.0675126 0 0 0
0.0623623 0.00983792 -0.0312142 89 0 0
0.063861 0.00235735 -0.039047 76 0 0
0.0635273 0.00379638 -0.0485388 66 61 0
0.0786385 0.027998 -0.0861378 144 62 56
0.0787962 0.0332251 -0.1083 255 234 216
0.0644864 0.00739734 -0.0378428 72 0 0
0.0672009 0.0188896 -0.0238131 0 0 0
0.074749 0.0205814 -0.0380805 133 0 0
0.0832328 0.0372702 -0.1033 174 73 85
0.0630149 0.0161016 -0.0487716 55 25 27
0.0817691 0.0332958 -0.10428 148 255 255
0.0765434 0.00541219 -0.0822869 61 0 0
0.0776644 0.00308247 -0.0857831 69 0 0
0.0751098 0.00814336 -0.0802973 108 63 53
0.076705 0.00513361 -0.0674855 111 137 149
0.0695838 0.00835164 -0.0303124 104 0 0
0.0818936 0.0293853 -0.0978021 70 69 63
0.077101 0.0221878 -0.0686524 0 0 0
0.0822249 0.0261215 -0.0984117 175 138 125
0.0790105 0.0389912 -0.102736 255 255 255
0.0847588 0.0124868 -0.0749939 0 0 0
0.0721015 0.0228596 -0.0433119 65 33 34
0.084546 0.0285882 -0.102806 255 255 255
0.0804011 0.0322415 -0.093197 180 101 89
0.0830884 0.0274175 -0.104036 145 147 131
0.0698838 0.0139538 -0.0263191 32 0 0
0.0835901 0.0290378 -0.0930966 138 17 12
0.0821379 0.0251127 -0.0918616 92 143 113
0.067236 0.0186677 -0.0248281 90 56 46
0.077986 0.0304921 -0.106918 255 255 255
0.0777886 0.0312423 -0.107753 255 255 255
0.0759942 0.0279781 -0.108648 255 216 204
0.0812507 0.0309706 -0.104717 255 137 112
0.0807328 0.0252327 -0.105258 255 255 255
0.0815834 0.0214132 -0.105369 165 75 65
0.0838724 0.0288412 -0.0999925 180 206 191
0.0745189 0.0127772 -0.0943274 156 82 68
0.0781594 0.0151685 -0.0824602 121 45 38
0.0800158 0.0286246 -0.0814791 96 20 12
0.0774454 0.0209702 -0.080541 118 62 54
0.076126 0.0150227 -0.070207 85 32 31
0.071425 0.0118888 -0.0848572 126 74 61
0.0780321 0.0184497 -0.0809046 136 64 55
0.0686869 0.0124994 -0.0837793 107 48 43
0.0713113 0.00851402 -0.0758325 70 26 21
0.0726373 0.0112701 -0.0704904 71 23 18
0.0773005 0.0231889 -0.0799536 110 53 44
0.0756348 0.0248663 -0.0768302 194 97 82
0.0786635 0.0323178 -0.0863627 158 202 191
0.0689758 0.0127221 -0.093264 149 76 69
0.0750585 0.0277166 -0.0804257 131 60 54
0.0759901 0.024207 -0.0796911 130 67 59
0.067684 0.0134364 -0.0853127 196 191 185
0.0669545 0.0125192 -0.0835821 124 59 51
0.0720798 0.016759 -0.0595687 72 25 27
0.0726478 0.00675737 -0.0745919 86 33 29
0.0672602 0.0129882 -0.0841176 124 52 44
0.0640936 0.0148766 -0.0832886 108 41 36
0.0624157 0.0165023 -0.0946025 78 0 0
0.0694137 0.0143445 -0.0587 63 27 23
0.0724403 0.0349163 -0.0814743 124 92 76
0.0673582 0.0105061 -0.0639153 67 25 27
0.0699983 0.021076 -0.048818 49 10 9
0.0736004 0.0338915 -0.079455 136 95 77
0.0657559 0.0105306 -0.0546374 47 20 16
0.0774903 0.0245335 -0.107942 255 201 181
0.0836417 0.0331699 -0.0966931 78 250 220
0.0741542 0.0196403 -0.103052 255 175 152
0.0815447 0.0301551 -0.0990198 127 77 69
0.0777663 0.0131148 -0.0827367 132 46 40
0.0788024 0.0187978 -0.0795258 120 59 52
0.0767584 0.0331061 -0.0853383 161 79 67
0.0737666 0.012006 -0.0694702 88 44 38
0.076493 0.0299445 -0.0827786 190 198 185
0.0692075 0.010862 -0.0857711 118 78 71
0.0735428 0.0122856 -0.0700114 87 39 32
0.075951 0.026493 -0.0797653 138 51 53
0.0747038 0.020444 -0.0621612 45 10 5
0.0747589 0.020746 -0.0614431 62 0 0
0.0749655 0.0267993 -0.0792114 110 45 35
0.0744493 0.0323361 -0.0796214 128 66 57
0.0663343 0.0138891 -0.083181 114 49 42
0.0638634 0.0166736 -0.0833065 108 37 33
0.0695195 0.0148281 -0.0571203 70 40 39
0.0686551 0.012089 -0.0615036 41 8 5
0.0697621 0.0112225 -0.0586318 50 17 0
0.0743175 0.0331046 -0.0794994 145 112 100
0.0719519 0.0162134 -0.0578335 66 38 31
0.0623059 0.0120139 -0.0705286 75 24 21
0.0622663 0.0118923 -0.0636605 69 34 27
0.0624119 0.0106719 -0.0643129 73 31 22
0.0779091 0.0161287 -0.0967946 155 81 68
0.0762308 0.0139356 -0.0839123 132 50 42
0.0828285 0.0371891 -0.092452 209 179 174
0.0688364 0.0151534 -0.0958981 131 66 61
0.0714478 0.0118944 -0.0846653 111 54 49
0.075703 0.0346256 -0.0807467 217 193 161
0.0770223 0.0232472 -0.0813377 132 45 34
0.0691001 0.00728537 -0.0712188 75 25 21
0.0770323 0.0203983 -0.0631198 0 0 0
0.0762805 0.0169651 -0.0660389 53 25 17
0.0667302 0.012958 -0.085082 238 255 255
0.0662827 0.0132699 -0.0838899 119 55 49
0.0642741 0.0165752 -0.0827577 108 40 36
0.0630603 0.0174216 -0.0828886 96 28 24
0.0651406 0.0140027 -0.082832 119 56 53
0.072233 0.0171987 -0.0558244 53 23 14
0.0621823 0.016949 -0.0826594 136 53 54
0.0725349 0.0335661 -0.0792728 112 67 53
0.0730229 0.0342617 -0.0782583 139 110 95
0.0650209 0.0122708 -0.0539086 52 19 18
0.0758643 0.0276946 -0.108012 229 83 76
0.0782392 0.0203185 -0.0802824 88 28 20
0.0747539 0.00856295 -0.0785558 69 17 8
0.0789899 0.014608 -0.0718943 22 0 0
0.0749338 0.0266668 -0.0764367 213 123 100
0.0651874 0.0143716 -0.0832621 110 43 37
0.0742316 0.0329103 -0.0800601 118 70 61
0.0745605 0.0179277 -0.0589483 68 42 30
0.0661307 0.0141109 -0.087551 124 50 43
0.0682396 0.0106623 -0.063744 96 40 42
0.064638 0.00986169 -0.069512 82 36 31
0.0605173 0.0119503 -0.0756577 48 2 0
0.0647022 0.00978745 -0.0728106 59 22 21
0.0655963 0.0128142 -0.0834023 138 42 37
0.064603 0.0191231 -0.0959305 146 68 63
0.0753421 0.0274741 -0.079487 126 65 53
0.0743734 0.033039 -0.0803196 136 72 61
0.0649199 0.0130131 -0.0836436 118 51 46
0.0661361 0.0159894 -0.0971657 141 64 54
0.0740386 0.0336191 -0.0805324 128 77 67
0.0646849 0.0102114 -0.0759558 69 15 8
0.0757394 0.0160771 -0.0617225 0 0 0
0.0648391 0.0157337 -0.0819973 128 44 41
0.0678301 0.00798738 -0.0760351 65 18 13
0.0628166 0.0100715 -0.0768825 77 27 24
0.0643164 0.0215289 -0.100274 150 49 47
0.0726767 0.034232 -0.0789066 66 37 31
0.0745824 0.0321761 -0.0793658 100 50 43
0.0743032 0.03193 -0.076073 158 94 84
0.0662667 0.0135166 -0.0836981 124 45 40
0.0804209 0.0235972 -0.0943211 171 75 64
0.0653511 0.0131391 -0.0844665 121 48 44
0.0669958 0.0127422 -0.0839859 125 51 40
0.0684528 0.0131034 -0.0834485 144 53 47
0.0792354 0.0247746 -0.0795031 71 0 0
0.0587265 0.00356984 -0.0811234 172 0 0
0.069162 0.0112791 -0.0840928 119 74 64
0.0748953 0.0316938 -0.0802849 110 53 44
0.0749116 0.0286488 -0.078642 128 77 66
0.0698784 0.0118326 -0.0861904 150 53 47
0.0761799 0.0241335 -0.0785477 130 80 70
0.07775 0.0285047 -0.0810538 136 66 55
0.0736805 0.0328167 -0.079773 121 68 58
0.0725667 0.033686 -0.0784226 145 95 76
0.0778414 0.0324009 -0.108863 255 162 135
0.0798931 0.0243647 -0.0956475 185 36 32
0.0675069 0.013666 -0.0907683 98 24 20
0.0756239 0.0262733 -0.0784914 128 77 66
0.0773543 0.030013 -0.0848707 170 108 95
0.0760158 0.0345881 -0.0843717 161 79 73
0.0723697 0.0335822 -0.0805722 147 95 81
0.0740791 0.0200972 -0.0590002 0 0 0
0.075363 0.0249832 -0.079749 62 43 36
0.0662188 0.00877014 -0.0707063 87 39 35
0.0639695 0.0193199 -0.0977009 101 23 16
0.0759554 0.0259861 -0.0795472 125 66 56
0.0745736 0.0267768 -0.0789384 128 53 42
0.0783634 0.0196016 -0.0800935 97 31 24
0.0687357 0.0136997 -0.0582723 62 25 21
0.0757187 0.0245585 -0.079606 162 58 45
0.0766413 0.0127424 -0.0845973 161 78 75
0.0746853 0.0283476 -0.0796042 137 60 53
0.0770962 0.0221541 -0.0796881 113 55 46
0.0705437 0.00794724 -0.0710346 61 29 24
0.0734724 0.0198237 -0.0603979 77 50 41
0.071591 0.0352394 -0.0783641 123 75 66
0.0783111 0.0196617 -0.0792806 107 44 37
0.0769181 0.0217923 -0.0795195 131 62 53
0.0760322 0.0234277 -0.081217 130 71 61
0.0748878 0.0276031 -0.0804481 144 60 60
0.0751048 0.0283415 -0.0823461 128 55 51
0.0749865 0.0276694 -0.0802136 122 67 55
