ply
format ascii 1.0
comment Created by Open3D
element vertex 1165
property double x
property double y
property double z
property uchar red
property uchar green
property uchar blue
end_header
0.0742124 0.0174619 -0.100127 209 105 97
0.0818989 0.00970551 -0.0994228 194 95 92
0.073982 0.0159158 -0.0986225 229 128 124
0.0809833 0.0260537 -0.0944988 255 174 166
0.0739052 0.0190521 -0.101797 202 124 114
0.0746823 0.0208254 -0.104104 202 86 77
0.0790794 0.0181982 -0.0975239 150 86 76
0.0810062 0.0152499 -0.0924046 180 131 118
0.0739457 0.0194486 -0.102704 223 116 110
0.0804844 0.0261733 -0.0944855 255 182 173
0.0746194 0.0177155 -0.100677 200 127 117
0.0773451 0.0159534 -0.0960539 147 64 55
0.0819148 0.0276665 -0.093562 246 129 116
0.0784903 0.0172223 -0.0973941 185 98 88
0.0813839 0.0280744 -0.0944273 141 100 88
0.0812232 0.0302639 -0.0936636 174 120 110
0.0730482 0.0190638 -0.101862 200 106 95
0.0738715 0.019092 -0.101839 151 66 57
0.0729463 0.0167476 -0.0992738 177 75 69
0.0803154 0.0269506 -0.0943778 158 121 105
0.074111 0.0146592 -0.0956065 191 94 94
0.07411 0.0188045 -0.101257 199 109 98
0.0809798 0.0182296 -0.0936068 176 111 106
0.0820049 0.0153351 -0.0914327 166 69 79
0.073145 0.0176929 -0.100238 229 149 138
0.0799804 0.0128473 -0.0954671 216 116 108
0.0731697 0.015681 -0.0982013 179 93 84
0.0790941 0.0143956 -0.0956504 180 116 106
0.0775809 0.0142902 -0.0908362 141 72 67
0.0762996 0.0134219 -0.0959812 131 59 55
0.080616 0.0258222 -0.0945327 255 139 124
0.0734229 0.0196917 -0.10263 227 127 115
0.0748438 0.0140763 -0.0966353 211 118 110
0.0826663 0.0275661 -0.0947346 235 125 111
0.0781564 0.0197789 -0.101138 190 90 77
0.0785165 0.0135232 -0.0976121 172 94 85
0.0833082 0.0266705 -0.0972779 192 126 119
0.0776136 0.0135677 -0.0921278 151 85 76
0.074496 0.0150646 -0.0952798 183 90 85
0.0734947 0.0160897 -0.0971472 184 98 91
0.0739413 0.0150744 -0.0964754 235 168 150
0.0720078 0.0158198 -0.0971774 205 105 97
0.0725055 0.0169557 -0.0992903 186 72 70
0.0738332 0.01564 -0.0977699 181 91 81
0.079727 0.0128101 -0.0865314 126 66 61
0.0824727 0.0282241 -0.0946193 166 78 72
0.0823654 0.0280282 -0.0958163 146 70 59
0.0818741 0.0131327 -0.101543 164 111 103
0.0812896 0.0278059 -0.0934104 137 64 57
0.0734521 0.014767 -0.097172 197 122 111
0.0739164 0.015262 -0.0971873 202 126 113
0.0768225 0.014819 -0.0933557 157 84 81
0.0796579 0.0253921 -0.0850724 143 61 51
0.0726378 0.0174877 -0.100158 242 116 109
0.0732057 0.0163274 -0.0969354 202 119 110
0.072896 0.0141054 -0.0939939 209 126 113
0.0782792 0.0153678 -0.0901391 138 67 61
0.0816543 0.0311534 -0.0902384 182 64 44
0.0735364 0.0159327 -0.0976434 178 92 83
0.0773815 0.0147625 -0.0994321 202 98 93
0.0719202 0.0166764 -0.0989952 177 75 64
0.080279 0.0271894 -0.0910687 117 39 32
0.0746557 0.0111995 -0.0919267 238 128 119
0.0822624 0.034949 -0.0954022 164 142 139
0.0735795 0.0150189 -0.0946221 173 93 83
0.080398 0.0353757 -0.0884959 150 123 106
0.0807874 0.0319844 -0.093536 182 114 105
0.0817659 0.0304155 -0.0906167 166 112 107
0.073079 0.0159421 -0.0977873 181 90 82
0.0795786 0.019144 -0.0842094 140 64 62
0.0751511 0.0132036 -0.0941193 178 80 74
0.0797357 0.0192319 -0.0868396 138 61 58
0.0833365 0.0305156 -0.0899841 141 69 60
0.0717584 0.0164522 -0.0983577 180 89 79
0.0722338 0.0170642 -0.099317 213 94 87
0.0776856 0.0145773 -0.082346 129 55 51
0.0836082 0.0323758 -0.0897495 166 88 88
0.081057 0.0317981 -0.0933891 169 111 99
0.0751977 0.015144 -0.0951478 190 93 88
0.0749002 0.0125125 -0.0890399 176 87 81
0.0787997 0.01618 -0.0860488 116 47 42
0.0794791 0.0196469 -0.0838857 141 66 64
0.0740497 0.0128008 -0.0891867 162 87 76
0.0802772 0.0320869 -0.0900892 146 75 72
0.0715204 0.0165359 -0.0985578 186 88 82
0.0712144 0.0152566 -0.0958547 183 119 102
0.0800128 0.0235052 -0.086605 157 77 70
0.0807571 0.03392 -0.0938042 143 143 138
0.0739155 0.0175781 -0.100571 204 133 122
0.0759995 0.0141015 -0.0904835 137 68 62
0.0774158 0.0158054 -0.0804732 127 48 43
0.080659 0.0291859 -0.0869671 134 44 38
0.0810114 0.0272482 -0.0848417 179 64 63
0.0799366 0.028005 -0.0910508 103 24 17
0.0724022 0.0161019 -0.0978464 200 109 106
0.0709682 0.0144164 -0.0944241 163 85 77
0.0711391 0.0164869 -0.098262 169 73 66
0.072874 0.011714 -0.0872424 128 47 40
0.0711093 0.0164648 -0.0985792 196 93 85
0.0710772 0.0157425 -0.0974233 172 72 66
0.0724975 0.0130194 -0.0940024 241 170 152
0.0764793 0.012964 -0.0815765 135 53 49
0.080177 0.0248332 -0.0856814 181 83 84
0.081559 0.0259481 -0.0864542 179 85 75
0.072355 0.0121798 -0.091322 151 86 77
0.077731 0.00890004 -0.0863419 194 91 71
0.0754156 0.00937545 -0.0865003 155 67 58
0.0770018 0.0131305 -0.0839594 122 56 51
0.0832191 0.0289045 -0.0875668 169 84 69
0.0700951 0.0159002 -0.0976044 163 80 73
0.0801133 0.0282566 -0.0829945 173 82 83
0.0798022 0.0327996 -0.0883274 150 97 88
0.0707926 0.0158579 -0.0970764 188 87 81
0.0775188 0.0127687 -0.0820049 137 52 47
0.0801612 0.0230856 -0.0852801 105 31 27
0.0790997 0.0271056 -0.0825022 209 105 99
0.0704803 0.0156434 -0.0968827 189 86 79
0.0783075 0.0147391 -0.0817369 129 64 60
0.0768983 0.0223448 -0.0780388 212 130 123
0.0703499 0.0155286 -0.0982146 187 90 85
0.0743139 0.0122102 -0.0814424 140 66 57
0.0802445 0.0252792 -0.0847279 175 96 87
0.081361 0.032372 -0.0884727 221 82 71
0.0705606 0.0160265 -0.0977038 176 82 77
0.0746366 0.0113392 -0.0879874 168 82 77
0.0745666 0.0119229 -0.0926968 153 90 81
0.0741093 0.0135303 -0.0890493 119 56 51
0.0792128 0.0195583 -0.083359 121 45 41
0.079526 0.0172158 -0.0887616 144 66 62
0.0797004 0.0268623 -0.0854587 153 72 67
0.0716566 0.0154332 -0.0960253 176 125 111
0.0759938 0.012906 -0.0813014 143 64 57
0.075601 0.012601 -0.0814707 127 51 45
0.0770754 0.0157409 -0.0807322 129 59 54
0.0805226 0.0213454 -0.0839619 174 89 88
0.070115 0.0137022 -0.0937387 129 65 59
0.0789302 0.0298874 -0.0860378 175 103 98
0.080392 0.0326701 -0.0935557 159 95 87
0.0695238 0.0154416 -0.0970084 172 85 77
0.0720095 0.00723426 -0.0891052 131 94 73
0.0742448 0.0118285 -0.083699 134 73 65
0.0793924 0.0230609 -0.0823141 154 74 73
0.0800201 0.0230326 -0.0866364 146 74 68
0.0766968 0.0118385 -0.08263 144 65 54
0.0747493 0.0119999 -0.082102 145 69 62
0.0711184 0.00909737 -0.083765 131 40 37
0.0796928 0.0225248 -0.0825971 154 72 69
0.0796954 0.0326524 -0.0889086 156 101 91
0.0695812 0.0140537 -0.0945398 150 86 74
0.0695126 0.014248 -0.0950339 184 121 102
0.071522 0.0145176 -0.0956869 207 100 86
0.0801062 0.0273913 -0.0859465 154 58 50
0.0771271 0.0370632 -0.0925753 161 110 99
0.0772605 0.0142858 -0.0884223 144 63 58
0.071881 0.0109811 -0.0832873 107 40 32
0.0798725 0.0220935 -0.0868087 147 76 70
0.0777076 0.0142058 -0.0812727 137 64 60
0.0757224 0.0125767 -0.081549 129 48 42
0.0804226 0.0248035 -0.0867522 146 58 52
0.0701435 0.0141974 -0.094715 159 92 83
0.0795014 0.0185102 -0.0847077 131 62 59
0.0690447 0.0148221 -0.0959981 176 103 93
0.0765129 0.0154837 -0.0799648 115 49 49
0.0762417 0.0124823 -0.0836504 127 61 56
0.0790518 0.0241986 -0.0825928 151 74 69
0.0786603 0.0240142 -0.0830785 145 62 58
0.0800697 0.0264114 -0.0848274 193 84 79
0.0737982 0.0097498 -0.0854124 122 10 0
0.0725608 0.0126165 -0.0884396 112 47 40
0.0762758 0.0141751 -0.0798167 125 47 45
0.0797521 0.0283572 -0.085319 157 48 38
0.0803998 0.0357469 -0.0918706 143 124 109
0.0730323 0.00657904 -0.0882833 145 87 77
0.0723641 0.0103677 -0.0834572 133 51 42
0.0738091 0.011345 -0.0833488 147 73 65
0.0790688 0.0179969 -0.0842458 123 51 46
0.0794894 0.0178578 -0.0811605 168 76 76
0.0801177 0.0287257 -0.0858373 161 77 69
0.0780079 0.0325805 -0.0850055 169 81 70
0.0804804 0.0329763 -0.0907202 154 89 83
0.0689533 0.0143766 -0.094529 154 89 81
0.0736017 0.0112722 -0.0838451 133 70 61
0.077598 0.0100621 -0.086357 175 102 88
0.0728449 0.00919029 -0.0861433 211 95 91
0.0784723 0.0160751 -0.0834403 119 53 46
0.0771043 0.0329506 -0.0841715 163 82 73
0.0826301 0.0346904 -0.0950069 131 32 27
0.0782099 0.030273 -0.085894 166 79 71
0.0798333 0.0333996 -0.0875186 154 65 58
0.0682027 0.0135241 -0.0930623 107 43 36
0.0740073 0.00964915 -0.0838716 148 87 71
0.0767135 0.0148895 -0.0814063 139 64 59
0.0817758 0.0252872 -0.0853844 155 68 67
0.0797892 0.0357682 -0.0922208 170 86 75
0.0803778 0.0355779 -0.0894815 115 148 136
0.0707878 0.0115643 -0.0946743 172 102 86
0.071332 0.0116377 -0.0926083 190 112 103
0.0733565 0.0119038 -0.0817886 138 68 61
0.0802948 0.027812 -0.0875265 170 77 69
0.0829084 0.028889 -0.0876884 167 73 72
0.0749526 0.00748048 -0.0779788 124 91 85
0.0765952 0.0119862 -0.0714928 90 51 48
0.0824719 0.0150957 -0.0830686 115 28 19
0.0789205 0.0340234 -0.0865183 136 51 43
0.0811346 0.0331243 -0.0930025 149 114 104
0.068986 0.0152531 -0.0961766 118 51 42
0.0708838 0.0144567 -0.0947389 157 93 81
0.0763497 0.0135764 -0.0813876 139 64 61
0.0693081 0.0140602 -0.0948367 185 105 92
0.0697299 0.0127216 -0.0943128 234 139 124
0.068947 0.0114641 -0.0919414 181 115 108
0.0753357 0.0124452 -0.0823066 140 66 59
0.0769083 0.0120393 -0.0834654 138 56 49
0.0687414 0.0135559 -0.0947962 156 89 75
0.0699378 0.00996233 -0.0848354 135 72 65
0.0770595 0.0111727 -0.0711652 79 35 31
0.0775078 0.0151419 -0.0814365 138 64 59
0.0767265 0.0223579 -0.0777054 112 32 31
0.0695527 0.0137548 -0.0950974 169 104 84
0.0679617 0.0140263 -0.0935253 135 72 65
0.0699919 0.00996719 -0.0837436 116 58 52
0.0723582 0.00638427 -0.080111 115 116 115
0.0759166 0.00740687 -0.0771558 139 95 98
0.0765026 0.0131734 -0.0725207 96 49 46
0.0785731 0.0366331 -0.0912465 151 62 54
0.0781637 0.036366 -0.0893148 157 101 92
0.0745815 0.0122421 -0.0815214 128 61 52
0.0800705 0.0222009 -0.082913 155 70 66
0.0803604 0.0336928 -0.0900101 169 106 93
0.0695179 0.00996953 -0.0861313 100 37 32
0.0770285 0.00919 -0.0662565 49 0 0
0.0766954 0.0170833 -0.0797756 106 50 43
0.0668474 0.010183 -0.0906982 146 102 93
0.0786998 0.0281277 -0.0806307 188 75 69
0.0802853 0.0321823 -0.0883259 153 84 76
0.0791932 0.0330769 -0.0873135 138 48 40
0.0824656 0.0348886 -0.0962536 136 138 128
0.0680385 0.0102206 -0.0877729 160 101 97
0.0692376 0.0102661 -0.0820365 142 77 72
0.0756478 0.011133 -0.0734529 103 54 52
0.078636 0.0254888 -0.0829597 151 70 64
0.0763854 0.0267231 -0.0799561 191 95 83
0.0786556 0.0252906 -0.0833519 150 73 66
0.0785592 0.0377001 -0.0879249 131 56 49
0.0779588 0.0263386 -0.0815387 173 110 113
0.0797956 0.0301726 -0.0861155 167 82 76
0.0786335 0.0313293 -0.0864231 199 124 117
0.0816989 0.0331632 -0.0943767 162 104 94
0.0699516 0.0144694 -0.0954135 153 85 70
0.0656802 0.0116395 -0.0856919 132 59 54
0.0693429 0.00944248 -0.0830419 143 76 65
0.0775984 0.0224469 -0.0805086 138 63 57
0.0773744 0.0254969 -0.0813638 153 87 84
0.0782073 0.0355809 -0.0863687 140 55 48
0.0682955 0.0136614 -0.0937265 192 130 125
0.0745078 0.00816596 -0.0776431 155 113 106
0.0760235 0.0121659 -0.0732241 101 51 47
0.0770215 0.0102823 -0.0695735 97 61 58
0.0767634 0.0182927 -0.0797912 124 59 53
0.0795038 0.0313431 -0.0865792 168 72 66
0.0693614 0.0132885 -0.0932923 147 83 70
0.0699288 0.0120055 -0.0911024 166 89 85
0.0675308 0.0120188 -0.0897468 137 82 76
0.0736982 0.00957868 -0.0843676 144 52 41
0.0766292 0.0107233 -0.0712715 96 53 50
0.0759347 0.00852387 -0.0729569 115 71 71
0.0795144 0.0278553 -0.0796475 188 109 101
0.0789815 0.0276458 -0.085218 149 74 68
0.0785706 0.0318447 -0.0866005 148 88 77
0.0688194 0.0142718 -0.0949467 163 105 96
0.0667002 0.00995406 -0.0918318 132 85 78
0.0688363 0.00919147 -0.0831191 156 77 66
0.0704327 0.0110722 -0.081159 123 76 68
0.076797 0.00798008 -0.0714189 134 101 98
0.0694997 0.0103057 -0.0796498 150 101 92
0.0733759 0.0108038 -0.0755581 120 68 60
0.0790728 0.0219004 -0.082629 117 42 42
0.0739653 0.00614831 -0.0755443 118 85 82
0.0793778 0.023547 -0.0823975 152 67 63
0.0771586 0.0272698 -0.0806338 155 84 77
0.0803595 0.0365882 -0.0915076 140 127 108
0.0685097 0.0144676 -0.0953148 161 82 71
0.0688636 0.011999 -0.0808651 122 70 60
0.07467 0.0127457 -0.0675583 93 40 39
0.0664586 0.00888127 -0.0890066 128 81 77
0.0702941 0.0067333 -0.0843051 126 55 53
0.0739108 0.00717247 -0.0739478 137 107 92
0.0764006 0.0206621 -0.079124 116 65 58
0.0782968 0.0247023 -0.0795956 128 57 59
0.0671918 0.0146557 -0.0956054 161 87 80
0.0680554 0.0117022 -0.0926769 123 74 64
0.0695719 0.00908824 -0.0834268 151 90 79
0.0779845 0.0244922 -0.0811272 154 82 83
0.0803516 0.0312055 -0.0871865 153 72 66
0.0682672 0.00876676 -0.0854016 140 70 64
0.0710013 0.0112535 -0.081106 118 70 62
0.0782455 0.0336083 -0.0847452 154 74 70
0.0684103 0.0153218 -0.095837 131 49 40
0.0789887 0.0312348 -0.0841387 206 122 122
0.0682441 0.0105449 -0.0899804 163 112 104
0.0712742 0.0105008 -0.083161 133 69 63
0.0675787 0.010231 -0.0820955 128 54 47
0.0713591 0.0111992 -0.0810162 138 81 71
0.0781139 0.0265774 -0.081681 141 63 58
0.0780947 0.0305821 -0.085612 197 82 76
0.0685213 0.00969788 -0.0880151 164 111 103
0.0782521 0.0266877 -0.0818622 134 57 53
0.0794944 0.0270677 -0.0856134 160 77 69
0.0776188 0.032685 -0.0845757 137 122 108
0.0673673 0.0146879 -0.0942385 147 88 82
0.0688451 0.0120179 -0.0950236 142 86 75
0.0697225 0.00963889 -0.0863247 129 60 54
0.0700469 0.010745 -0.0803523 123 76 69
0.0767267 0.0109909 -0.0707887 99 66 60
0.0743476 0.0113783 -0.0735566 100 48 43
0.0778632 0.0192774 -0.0807994 148 69 64
0.0659134 0.0114743 -0.0821473 149 71 68
0.0758464 0.0228513 -0.080656 128 72 63
0.0752863 0.024655 -0.0825639 129 79 68
0.0813319 0.031489 -0.0928496 151 74 67
0.077914 0.0334212 -0.0847507 148 59 54
0.069892 0.00865792 -0.0830903 144 66 58
0.0761337 0.0128441 -0.0676332 115 45 40
0.0779827 0.0318334 -0.0852732 207 168 159
0.0778556 0.0357087 -0.0841827 151 79 76
0.0691312 0.0117483 -0.0819142 140 84 75
0.0693718 0.00692887 -0.0813531 172 110 108
0.0776201 0.0248843 -0.0805243 185 122 122
0.0781529 0.023154 -0.0817785 152 65 62
0.0783737 0.0347634 -0.0858771 137 53 46
0.0678692 0.0109352 -0.0814347 242 189 186
0.0694706 0.0116682 -0.0809555 121 71 62
0.0689935 0.00912205 -0.0779504 154 87 74
0.0704981 0.0110934 -0.0810212 119 73 64
0.0736387 0.0113255 -0.0699135 100 45 41
0.0778126 0.0285105 -0.0795011 130 38 34
0.0764624 0.0329534 -0.083071 144 53 45
0.0784921 0.0132465 -0.0576097 23 0 0
0.0780112 0.0268531 -0.082073 140 63 57
0.0771405 0.032212 -0.0852539 170 86 76
0.0786877 0.0355096 -0.0825805 183 102 94
0.0783176 0.0341215 -0.0840274 176 98 93
0.0690974 0.0107612 -0.0857008 128 67 60
0.0783021 0.025087 -0.0823796 143 63 59
0.0687179 0.00694217 -0.0766814 225 138 126
0.0786101 0.0256944 -0.0824987 150 68 63
0.0792309 0.0340902 -0.0875444 139 59 53
0.0806916 0.0362613 -0.0920981 182 47 40
0.0701781 0.00927258 -0.0839762 149 73 67
0.0667164 0.00722403 -0.0775426 186 93 87
0.0784967 0.0259327 -0.0823375 143 64 60
0.0787938 0.036739 -0.0896742 155 93 83
0.0682879 0.0122853 -0.080836 123 61 55
0.0722723 0.0117506 -0.0677618 103 57 51
0.0752456 0.0130847 -0.0662725 97 49 50
0.0750511 0.015462 -0.0620985 69 31 29
0.0766441 0.0267275 -0.0810481 163 88 81
0.0674425 0.0121989 -0.0897038 140 87 81
0.0672831 0.00922033 -0.0825268 181 102 102
0.0803981 0.0335946 -0.0906429 172 81 71
0.0656421 0.011792 -0.0822476 139 56 52
0.0712867 0.0118899 -0.0642829 75 37 32
0.0792858 0.0269657 -0.0836105 155 87 77
0.0770093 0.0270472 -0.0814441 146 69 62
0.0798048 0.0332588 -0.0858079 182 103 82
0.0704114 0.00805667 -0.0751176 89 43 39
0.0767608 0.0243716 -0.0803311 142 70 63
0.066234 0.00800108 -0.0859926 144 52 50
0.0755179 0.0122172 -0.0702978 95 43 39
0.0770492 0.0264718 -0.0809597 147 68 60
0.076573 0.0334316 -0.0841037 153 72 66
0.0670214 0.0106768 -0.080882 255 232 227
0.0703368 0.0091325 -0.0673435 84 37 34
0.0756907 0.0140649 -0.0649544 82 38 35
0.0661303 0.015052 -0.0947008 138 79 73
0.0685934 0.0109138 -0.0810073 152 70 59
0.0712911 0.0115233 -0.0658224 64 24 20
0.077482 0.0228943 -0.0804657 142 70 63
0.0675502 0.0117912 -0.0800224 152 74 65
0.0763018 0.0309693 -0.0853123 154 87 79
0.0656062 0.0140903 -0.0936244 110 36 32
0.06785 0.0105341 -0.0819237 145 69 69
0.0755637 0.0164485 -0.058727 98 43 44
0.0760568 0.0172368 -0.0597417 67 29 26
0.0777568 0.0301615 -0.085657 164 84 76
0.0808583 0.0371898 -0.0873062 186 112 93
0.0763075 0.0354619 -0.0841646 157 72 68
0.0651326 0.0105767 -0.0849265 114 39 34
0.0666197 0.0124356 -0.0820463 127 57 54
0.0675355 0.0126237 -0.0818277 132 60 57
0.0781393 0.0149139 -0.0660106 53 3 0
0.0668853 0.011714 -0.0822694 132 57 55
0.0656964 0.0117775 -0.0823523 139 59 56
0.0772146 0.0147606 -0.0657458 71 32 26
0.0793727 0.0192747 -0.0601542 37 27 23
0.0715025 0.0119498 -0.0634188 89 51 46
0.0767789 0.0316864 -0.0856567 187 113 99
0.0770177 0.0333372 -0.0843598 165 80 72
0.0674395 0.0111278 -0.0803799 219 159 160
0.0762321 0.0320052 -0.0842402 164 109 94
0.0700772 0.0105538 -0.0810502 135 74 62
0.0777191 0.018326 -0.0574499 40 67 72
0.0667292 0.0136928 -0.0817854 123 59 54
0.0652697 0.0103796 -0.0811613 115 0 0
0.0777916 0.0266855 -0.0775797 181 91 63
0.067933 0.0121022 -0.0808039 128 58 53
0.0668821 0.0124316 -0.0791669 113 54 48
0.0645418 0.00884968 -0.0845066 163 102 93
0.0653294 0.00658434 -0.0839947 154 102 96
0.0658292 0.0124589 -0.0821155 138 54 54
0.0676764 0.0127681 -0.0806627 110 52 45
0.0680291 0.012351 -0.0806683 103 54 48
0.0756175 0.0296517 -0.0845396 158 88 80
0.0755642 0.0301687 -0.0844678 170 110 99
0.0761642 0.0354074 -0.0840444 154 60 55
0.0829978 0.0340839 -0.0903403 134 138 127
0.075548 0.0178439 -0.0531474 82 46 46
0.0757473 0.0295565 -0.0846285 146 96 82
0.0751005 0.0282644 -0.0804698 131 65 59
0.0791866 0.0358372 -0.0877441 155 81 72
0.0678237 0.00700151 -0.0590605 60 17 14
0.0697133 0.00876332 -0.0586063 45 26 23
0.0754007 0.019614 -0.0564928 55 22 17
0.0660429 0.0103796 -0.0812354 176 116 106
0.0637758 0.0103186 -0.0829762 141 62 70
0.0642009 0.00634204 -0.0661899 75 37 35
0.0757435 0.0155697 -0.0634279 76 41 39
0.0782015 0.0337407 -0.0851419 148 59 55
0.0784979 0.035075 -0.0856305 143 71 67
0.0653999 0.00849177 -0.0833118 163 66 64
0.0666909 0.0113841 -0.0811502 255 242 235
0.0709727 0.0100757 -0.0614727 63 28 25
0.0651879 0.0171393 -0.0948204 140 65 58
0.0660242 0.0151649 -0.0931899 146 80 76
0.0662794 0.0108353 -0.080317 255 230 223
0.0657187 0.00987045 -0.0792026 233 157 148
0.0662853 0.010587 -0.0802117 249 245 234
0.0764458 0.0305204 -0.0852926 171 86 81
0.0661416 0.00781429 -0.0825938 171 84 77
0.0652019 0.0125635 -0.081582 148 70 64
0.0664587 0.0137537 -0.0809783 133 60 56
0.0695152 0.00703193 -0.0619117 103 52 52
0.0759363 0.0186967 -0.0584767 60 22 18
0.0730522 0.0172463 -0.0551936 74 28 26
0.0665468 0.0118147 -0.0797551 191 111 102
0.0694987 0.00787298 -0.066384 51 18 15
0.066027 0.00364987 -0.0607962 83 35 32
0.0743148 0.0157563 -0.0549518 62 38 39
0.0712892 0.0148185 -0.056225 71 33 30
0.0736979 0.0140098 -0.0624381 79 38 34
0.078374 0.0136328 -0.049279 0 0 0
0.0765556 0.0322261 -0.0845734 131 49 39
0.0758399 0.0348272 -0.0837879 138 63 60
0.0684384 0.00742733 -0.0586259 67 30 26
0.0699375 0.0143831 -0.051714 99 50 45
0.0745492 0.0123541 -0.0648759 110 46 44
0.0705474 0.0115663 -0.0594381 72 38 33
0.0676266 0.0117902 -0.0553549 82 47 37
0.0758419 0.0294026 -0.0847693 149 85 78
0.0615492 0.0100061 -0.0862113 158 116 108
0.0641212 0.00979182 -0.081809 197 127 129
0.0790319 0.0324873 -0.0858135 167 72 66
0.0671779 0.0120226 -0.0817545 150 89 91
0.0681857 0.012356 -0.0549794 60 26 25
0.0683763 0.00952729 -0.0553669 87 42 40
0.0742407 0.031411 -0.0806222 135 89 72
0.0661605 0.0119762 -0.0801143 255 255 255
0.0779123 0.0364952 -0.0861105 150 64 57
0.0661361 0.0105075 -0.0817859 173 93 91
0.064815 0.0148863 -0.0810204 118 56 49
0.0730114 0.0157933 -0.0556748 82 36 33
0.0773116 0.0268689 -0.0808898 145 69 62
0.0780644 0.0344123 -0.0844995 166 91 85
0.0637997 0.01043 -0.0831973 153 75 78
0.0657505 0.0124467 -0.0805847 224 184 167
0.0751964 0.0186051 -0.0529305 81 32 36
0.0655157 0.0123087 -0.0799199 130 63 54
0.0631426 0.00734839 -0.063061 96 41 40
0.073694 0.0135562 -0.0567336 94 49 47
0.0771314 0.0339412 -0.0841966 148 80 71
0.0649429 0.016146 -0.093525 146 89 84
0.0623448 0.0124093 -0.0802656 162 95 90
0.0659044 0.0128013 -0.0802763 255 244 228
0.0622303 0.00869015 -0.0750011 143 112 115
0.0680735 0.00573666 -0.0710227 108 57 50
0.0715807 0.00712226 -0.0580926 36 0 0
0.0696378 0.013843 -0.05487 99 58 49
0.0739718 0.0161442 -0.0550198 71 41 43
0.0754305 0.0379583 -0.0872163 173 76 74
0.0695337 0.00356106 -0.0639575 110 39 38
0.0724457 0.014481 -0.0564869 71 34 32
0.0698853 0.0149137 -0.0552014 95 51 47
0.0776359 0.0326396 -0.0847262 166 112 101
0.0752079 0.0360204 -0.0835681 145 56 48
0.0632422 0.0112666 -0.080859 142 73 71
0.0669786 0.012392 -0.0800103 135 60 55
0.0679959 0.00858329 -0.056926 66 29 26
0.0670084 0.00928401 -0.0545888 82 30 27
0.0693043 0.012776 -0.0557037 98 47 43
0.0657278 0.00699561 -0.0680147 125 63 57
0.0680468 0.00891682 -0.0555217 71 32 32
0.0719338 0.0173575 -0.054923 88 48 45
0.0780776 0.0313348 -0.0861064 168 104 96
0.0649706 0.0130036 -0.0813641 137 58 57
0.0672928 0.0124185 -0.0801029 102 45 34
0.0657139 0.00856003 -0.0612381 61 24 21
0.0623764 0.00592363 -0.06728 93 37 35
0.0691927 0.0107016 -0.0562885 77 38 35
0.073867 0.0318785 -0.0820249 105 46 41
0.0752936 0.0374613 -0.0834786 159 81 75
0.0796561 0.0367956 -0.0846036 192 70 59
0.0598003 0.015538 -0.0801192 137 78 75
0.0658048 0.00794299 -0.0753629 227 111 111
0.067842 0.00958919 -0.0553351 99 53 51
0.0738352 0.0143239 -0.0564343 58 30 29
0.0773832 0.0307544 -0.0858082 175 116 106
0.0656963 0.0139733 -0.0807076 158 55 45
0.0631611 0.0108105 -0.0744838 126 70 63
0.0659459 0.00578915 -0.0647222 108 64 58
0.0711874 0.0156824 -0.0554005 87 42 41
0.0747396 0.0314873 -0.0807984 141 70 62
0.0776292 0.0318847 -0.0859812 119 45 40
0.0766231 0.0343011 -0.0840704 154 84 74
0.0782053 0.0368569 -0.0862134 151 83 73
0.0704549 0.0161748 -0.0549797 90 51 44
0.0779036 0.0297843 -0.0854959 172 87 77
0.0610972 0.0159103 -0.0903896 118 57 53
0.0718754 0.013631 -0.0600494 80 42 38
0.0703366 0.0153088 -0.0541798 104 58 51
0.0727587 0.0171206 -0.0549746 92 51 50
0.0730648 0.0190007 -0.0547671 94 43 39
0.0665571 0.00623758 -0.0622836 120 50 44
0.0664993 0.00706433 -0.0645748 93 50 46
0.0680467 0.0127508 -0.055507 91 49 43
0.0689434 0.0116687 -0.0560084 102 51 50
0.0691528 0.0135483 -0.0555182 93 53 47
0.0776184 0.0339975 -0.0843437 157 83 77
0.0618495 0.0153266 -0.0892473 172 120 116
0.0658573 0.0110005 -0.0769011 169 98 89
0.0669784 0.011851 -0.0563158 80 40 36
0.0685467 0.0126718 -0.0543305 121 70 68
0.0719757 0.0169914 -0.0545013 87 49 41
0.0741536 0.0200217 -0.0530295 82 55 48
0.075581 0.0298723 -0.0801669 182 108 94
0.0793556 0.0345937 -0.0817399 167 93 87
0.0673518 0.00854744 -0.0591525 65 29 27
0.070714 0.0138682 -0.0560889 65 31 29
0.0725679 0.0202356 -0.0480393 49 24 23
0.0678716 0.0127888 -0.0555109 88 50 42
0.0680217 0.0126924 -0.0555355 91 48 43
0.0711136 0.0168812 -0.0548733 87 50 44
0.0736145 0.0170918 -0.0553428 74 34 33
0.0766408 0.0348722 -0.0840457 152 70 60
0.0634386 0.00997786 -0.0783414 255 236 234
0.0619639 0.0101547 -0.0633759 50 21 16
0.0766305 0.0345987 -0.0842184 147 68 59
0.0652223 0.0140483 -0.0806451 123 50 43
0.06727 0.00839979 -0.0605703 66 27 25
0.0669001 0.0120982 -0.055481 56 28 21
0.0648314 0.010392 -0.0567183 157 125 113
0.0748222 0.0279534 -0.0801132 131 68 63
0.0778576 0.0330758 -0.0848381 156 64 58
0.063254 0.013519 -0.0808682 129 51 45
0.0655689 0.00728254 -0.0644097 90 48 44
0.0668765 0.00779507 -0.0562746 101 43 41
0.072128 0.0135959 -0.0573814 74 39 37
0.0737959 0.0320654 -0.0819802 108 52 47
0.0659207 0.0144703 -0.0810279 125 62 57
0.0695035 0.0166612 -0.053425 59 27 20
0.0726519 0.0193139 -0.0525136 13 9 0
0.0653084 0.0119694 -0.0806326 180 84 78
0.0622061 0.0100806 -0.0578464 69 24 22
0.0692894 0.0120872 -0.0545367 81 41 38
0.0676256 0.0162756 -0.0500825 64 34 30
0.0700433 0.0164382 -0.0529117 65 43 38
0.0640285 0.0114397 -0.080728 155 81 83
0.069862 0.0170744 -0.0534524 53 26 22
0.0653308 0.0129299 -0.0515492 43 21 18
0.0678508 0.0155014 -0.0515654 70 35 30
0.062881 0.0129006 -0.080466 151 64 63
0.0643499 0.0120481 -0.0765675 140 74 68
0.0633482 0.00874334 -0.0666568 58 21 19
0.0690678 0.00537443 -0.0642362 74 39 29
0.0603282 0.0153316 -0.0893005 182 124 121
0.0692674 0.00755852 -0.0676976 75 39 36
0.0748912 0.0358321 -0.0837981 148 76 69
0.0777388 0.0375904 -0.0860743 177 58 52
0.063713 0.00973542 -0.0788409 210 142 151
0.064361 0.0148875 -0.0797165 114 48 41
0.0671356 0.0112185 -0.0561351 96 49 46
0.067448 0.0136576 -0.0528229 63 28 26
0.0652165 0.0144215 -0.0803746 122 64 59
0.0702828 0.0144573 -0.0558462 88 40 38
0.0714926 0.0155808 -0.0525179 61 34 33
0.0727327 0.0368752 -0.0827354 141 81 76
0.066642 0.0129451 -0.0819131 117 49 46
0.0624662 0.0111621 -0.0822068 160 107 104
0.062593 0.013308 -0.0823967 134 55 37
0.0661249 0.0146122 -0.0821296 120 60 55
0.0677232 0.0177326 -0.0482958 74 39 33
0.0707713 0.0176573 -0.0500114 50 28 25
0.0764499 0.0323736 -0.0839727 124 34 28
0.0744493 0.0375385 -0.0834825 150 69 62
0.0641972 0.0121241 -0.0764984 133 72 64
0.0624444 0.0094731 -0.068478 84 33 31
0.0664636 0.0181059 -0.0474742 67 37 32
0.0661599 0.0258684 -0.0387474 64 28 41
0.0618057 0.00917707 -0.0677014 90 33 33
0.0669967 0.00941902 -0.0561611 75 28 27
0.0672375 0.0175562 -0.049159 68 40 33
0.0736842 0.0301414 -0.0586005 26 0 0
0.0743052 0.0357206 -0.0833985 141 68 60
0.0785562 0.0367247 -0.090647 156 58 52
0.0770177 0.0377026 -0.085877 142 66 59
0.064044 0.0134388 -0.0809112 140 25 15
0.063444 0.00949335 -0.0832927 131 45 42
0.0641352 0.00549865 -0.0681013 95 37 35
0.0673192 0.0199945 -0.047153 49 24 22
0.0748013 0.0386852 -0.0867134 158 77 73
0.0747904 0.0375484 -0.0829599 167 98 91
0.063364 0.0134948 -0.0812771 112 39 36
0.0754001 0.0359723 -0.0832451 146 74 67
0.0748263 0.038289 -0.0866575 165 67 61
0.0740803 0.0381556 -0.0839474 173 62 51
0.0636764 0.0161243 -0.0812068 119 45 41
0.0642252 0.013679 -0.0785975 127 53 48
0.0731318 0.0354239 -0.0831408 126 59 52
0.0747942 0.0366931 -0.084728 135 55 48
0.0643856 0.0108709 -0.0527436 54 33 30
0.070169 0.0172189 -0.0503108 58 32 29
0.0682027 0.0140365 -0.0550529 55 24 19
0.0720257 0.0217406 -0.0469797 55 33 31
0.0758497 0.0375906 -0.0876658 175 79 76
0.0633903 0.00860756 -0.0632299 81 48 42
0.0688426 0.00807537 -0.0557886 22 11 5
0.0705509 0.0128829 -0.0564949 81 39 36
0.0608969 0.0203158 -0.0406522 63 20 21
0.064243 0.00799972 -0.0637962 80 36 34
0.0673082 0.00818351 -0.0591242 64 27 25
0.0759925 0.0338611 -0.0837311 135 52 45
0.0629145 0.0135481 -0.0814783 138 58 66
0.0683176 0.0152187 -0.052029 68 36 29
0.0664159 0.0220636 -0.0417478 54 32 33
0.0612237 0.0107712 -0.0737285 244 84 73
0.0651688 0.00999372 -0.0570952 103 73 65
0.0628137 0.0128722 -0.0450185 48 18 18
0.0637128 0.0153216 -0.044403 54 27 28
0.0680105 0.018972 -0.0473446 54 26 24
0.0690834 0.0216889 -0.0426785 56 34 31
0.0731121 0.0376008 -0.0925935 180 135 117
0.0643641 0.0157615 -0.0812633 103 52 49
0.060889 0.00770195 -0.0636422 94 0 0
0.0623931 0.0126197 -0.0443963 43 5 6
0.0586535 0.0112209 -0.0453483 63 19 20
0.0646419 0.016259 -0.0925059 110 40 35
0.0625793 0.00951482 -0.0635352 78 38 35
0.0674309 0.00838366 -0.0577212 47 16 14
0.0640062 0.0136974 -0.0445085 46 17 16
0.063862 0.0280084 -0.0331095 22 0 22
0.0620398 0.0127854 -0.0441134 52 11 10
0.0746793 0.0349821 -0.0836262 142 55 50
0.0633409 0.00852874 -0.0679868 83 38 34
0.0582335 0.011535 -0.0453627 67 19 17
0.0655633 0.0091354 -0.0553103 35 26 26
0.0665004 0.00640152 -0.0527427 47 29 29
0.0640059 0.0116903 -0.0448358 44 18 17
0.0646939 0.0195487 -0.0452565 59 30 28
0.0631582 0.0149849 -0.0780498 105 37 32
0.0579705 0.0133728 -0.0469663 67 25 24
0.0606515 0.0157666 -0.0433867 55 6 8
0.0699745 0.0220934 -0.0411958 67 32 29
0.0731021 0.0337081 -0.0814414 130 92 78
0.0624613 0.0186464 -0.0911115 124 49 35
0.0625053 0.014064 -0.0781349 167 120 140
0.0632464 0.0116218 -0.0474405 51 30 27
0.0602129 0.0154941 -0.0442016 49 2 4
0.0597729 0.017089 -0.0418688 52 11 11
0.0666505 0.0138918 -0.0515125 53 25 22
0.072703 0.0287873 -0.0417219 100 60 54
0.0752177 0.0356934 -0.0840075 150 83 77
0.0633352 0.013356 -0.0780071 177 50 41
0.0674776 0.00760165 -0.0636384 92 44 41
0.0645031 0.0108038 -0.0481969 30 12 14
0.0635147 0.0257702 -0.0400978 59 23 36
0.0624231 0.0180271 -0.0795406 126 49 47
0.0605533 0.00909768 -0.0696884 180 75 59
0.0644542 0.0104405 -0.0576077 95 54 49
0.0587682 0.0137044 -0.0458567 69 30 29
0.0578684 0.0150903 -0.0453569 56 14 12
0.0603239 0.0199541 -0.0420648 63 31 27
0.065798 0.0171836 -0.0468791 64 29 25
0.0751425 0.0317053 -0.0811845 133 60 53
0.0713042 0.0381843 -0.0829717 146 57 51
0.0626269 0.0158513 -0.078216 98 42 38
0.0623754 0.0194175 -0.0793622 115 44 42
0.0599665 0.0117247 -0.0528394 45 25 22
0.0599657 0.0116014 -0.0495626 52 24 22
0.0659218 0.0236679 -0.038242 59 17 26
0.0736256 0.0393877 -0.09001 138 65 62
0.074836 0.0390298 -0.0876999 155 67 59
0.059847 0.0111033 -0.0480803 45 21 19
0.0666022 0.0150467 -0.0500463 62 29 24
0.0629146 0.0174695 -0.0802283 91 41 40
0.0614518 0.0156269 -0.0806262 147 65 60
0.0595783 0.0165486 -0.0429108 43 0 0
0.0618913 0.0193313 -0.0426076 53 3 0
0.0644423 0.0191125 -0.044387 63 42 37
0.0715206 0.0366483 -0.0828557 103 31 23
0.0626036 0.0149844 -0.0814769 124 38 30
0.0597692 0.0140203 -0.0629099 81 32 29
0.0614001 0.0228238 -0.0420315 59 27 20
0.0743212 0.0364539 -0.0831738 147 78 69
0.0735988 0.0369123 -0.0826205 143 64 57
0.059552 0.0186108 -0.0408072 59 23 26
0.0644159 0.0146014 -0.0444376 57 31 31
0.071006 0.0200179 -0.0469525 45 19 18
0.0725052 0.0355116 -0.0816576 123 57 45
0.0751399 0.0286799 -0.110426 255 178 162
0.0775595 0.0339835 -0.107612 255 221 207
0.0778459 0.035144 -0.108272 255 252 241
0.0769986 0.0308171 -0.109174 248 244 220
0.077204 0.0313984 -0.108458 255 231 232
0.0778075 0.0325959 -0.108842 247 223 201
0.076963 0.0314215 -0.107963 255 221 196
0.0779074 0.0332594 -0.107818 255 244 225
0.0751427 0.0280587 -0.109887 255 246 237
0.0778696 0.0349149 -0.108221 205 255 255
0.0758247 0.028635 -0.109583 255 255 253
0.078294 0.032754 -0.109371 246 221 212
0.0751138 0.0280784 -0.11 255 240 222
0.0773919 0.0319327 -0.108332 249 234 214
0.0779387 0.0340155 -0.108339 255 189 162
0.0758736 0.0284788 -0.109624 255 252 235
0.0758559 0.028314 -0.109341 255 255 252
0.0790119 0.0343257 -0.109701 247 222 199
0.0760479 0.0294564 -0.109242 255 234 210
0.0762827 0.0296329 -0.109154 245 243 232
0.0777408 0.0338885 -0.107993 255 236 222
0.0756696 0.0287644 -0.109834 255 247 229
0.0778509 0.03377 -0.107993 255 222 195
0.0756064 0.0283012 -0.109753 255 255 255
0.0765052 0.0292691 -0.11036 255 252 235
0.0759958 0.028485 -0.10962 255 208 189
0.0760152 0.0294713 -0.109237 255 255 241
0.0765592 0.0297296 -0.109289 255 255 237
0.0777694 0.0336966 -0.108173 255 237 232
0.0776748 0.0340478 -0.107665 255 217 184
0.0778745 0.034087 -0.108532 234 252 248
0.0753503 0.0285896 -0.109916 255 234 214
0.0752749 0.0284818 -0.110255 255 226 213
0.0755531 0.0285042 -0.109643 255 246 226
0.0770186 0.0302207 -0.108001 255 227 214
0.0771621 0.0316066 -0.108478 255 217 183
0.0770018 0.0321149 -0.107321 255 227 204
0.0768004 0.0307602 -0.108529 244 249 226
0.0781007 0.0355775 -0.106564 255 244 235
0.0777754 0.0333915 -0.108345 255 240 226
0.0741822 0.0268035 -0.10983 255 165 149
0.0756103 0.0296482 -0.109043 255 210 190
0.0779069 0.0349535 -0.107943 225 245 219
0.0761184 0.0279977 -0.109504 255 255 244
0.0763591 0.0296134 -0.108095 255 217 199
0.0758291 0.0283588 -0.109586 255 244 221
0.0754246 0.0285555 -0.109215 255 236 219
0.0755441 0.0293498 -0.109353 255 228 207
0.0758616 0.0304005 -0.108472 255 197 177
0.0767069 0.0297074 -0.108491 255 207 189
0.0763222 0.0289939 -0.109082 255 234 216
0.0762966 0.0254591 -0.109571 218 255 255
0.0759481 0.0292888 -0.109326 255 251 223
0.0754559 0.0285336 -0.109562 255 253 236
0.0750172 0.0277203 -0.109791 255 244 240
0.0758298 0.0290795 -0.109248 255 250 241
0.0761351 0.0289935 -0.109406 255 242 221
0.0751052 0.0285838 -0.109696 255 211 194
0.0767721 0.0303628 -0.108729 255 210 189
0.0757365 0.0284239 -0.109495 255 255 255
0.0760358 0.0291334 -0.109012 255 173 158
0.0751923 0.0281962 -0.10957 255 232 213
0.0766665 0.0293276 -0.107645 255 255 255
0.0758564 0.0278248 -0.109422 255 247 222
0.0767429 0.0318709 -0.107508 242 225 199
0.0760962 0.0284319 -0.109648 255 248 246
0.0766128 0.0265546 -0.107951 255 255 255
0.0774236 0.0306092 -0.108394 255 201 180
0.0764977 0.0296825 -0.109064 255 241 216
0.0768382 0.0297479 -0.109428 248 85 69
0.0761378 0.0294495 -0.108965 218 143 125
0.0770367 0.0310086 -0.108899 255 183 169
0.0772682 0.0330552 -0.107025 255 201 181
0.0763155 0.0298683 -0.109219 249 218 197
0.0761257 0.0293152 -0.108754 255 129 101
0.0761747 0.0292538 -0.110101 255 178 161
0.0769251 0.0293616 -0.110687 213 108 97
0.0771788 0.0327932 -0.107474 255 228 202
0.076145 0.0304544 -0.108503 255 209 187
0.0765885 0.0254248 -0.107593 255 149 131
0.0775395 0.0270101 -0.107475 194 105 93
0.0783111 0.0332323 -0.109466 255 184 172
0.075693 0.0284253 -0.110333 239 65 59
0.0766663 0.0308358 -0.108254 255 159 136
0.0770054 0.0269168 -0.109022 245 101 86
0.077059 0.0308824 -0.107919 255 250 233
0.0763635 0.0304819 -0.108288 240 113 99
0.0764508 0.0297541 -0.109205 255 142 126
0.0771193 0.0322926 -0.107457 255 227 205
0.0764979 0.0304712 -0.108789 249 141 121
0.0776653 0.0324548 -0.106035 255 228 203
0.0782521 0.0245585 -0.108647 188 61 52
0.076677 0.0315896 -0.107657 255 141 122
0.0768941 0.0320672 -0.107522 255 168 144
0.0780062 0.0297267 -0.106022 222 140 109
0.0767045 0.0297684 -0.109122 255 200 178
0.0784451 0.0350327 -0.107927 255 240 221
0.0777989 0.0339708 -0.106603 255 174 150
0.0775939 0.0261261 -0.107896 234 137 123
0.0777113 0.0347389 -0.107085 255 229 211
0.0789511 0.0247523 -0.104737 255 184 156
0.0756805 0.0214127 -0.107658 211 122 114
0.0781216 0.0339112 -0.108534 255 182 164
0.0774729 0.034366 -0.107615 255 203 181
0.0776948 0.0324983 -0.108226 255 219 199
0.0781488 0.0335162 -0.107516 255 222 198
0.0778229 0.0312872 -0.10799 225 195 176
0.0776308 0.0343315 -0.106951 255 190 169
0.0788397 0.0235271 -0.106428 165 27 13
0.0777885 0.0331349 -0.108056 255 235 210
0.0773019 0.0343266 -0.10579 255 220 192
0.0773375 0.0341244 -0.105882 255 217 190
0.0747891 0.0237496 -0.10679 234 125 121
0.074563 0.0230637 -0.106356 234 123 115
0.0803307 0.022059 -0.0994193 203 137 121
0.077682 0.0343 -0.106894 255 216 195
0.0785726 0.0355263 -0.106876 238 120 96
0.0773359 0.0347508 -0.105918 255 216 188
0.0773337 0.0351382 -0.105834 255 217 193
0.077728 0.033915 -0.106907 255 219 199
0.0763557 0.0184646 -0.104391 255 166 160
0.077461 0.0183834 -0.10271 234 133 130
0.0778159 0.0359451 -0.106666 255 204 178
0.0778958 0.034484 -0.106904 255 216 190
0.0779337 0.0343897 -0.104817 255 208 181
0.0774316 0.0185098 -0.103035 239 150 147
0.0773731 0.0338206 -0.106856 255 210 187
0.0761939 0.0193407 -0.102192 208 149 138
0.0778455 0.0340934 -0.10642 255 207 185
0.0774008 0.03595 -0.105827 255 163 145
0.0768617 0.033212 -0.10671 255 197 175
0.0774949 0.0339023 -0.106272 231 115 93
0.0773173 0.0353913 -0.106386 246 169 147
0.0743589 0.0198046 -0.102782 218 126 116
0.077215 0.0358037 -0.106237 190 96 82
0.0760346 0.0215837 -0.106008 217 141 143
0.0815018 0.0237298 -0.098317 169 125 115
0.0774114 0.0358108 -0.105758 221 107 94
0.0758399 0.0192304 -0.102158 158 90 75
0.0751146 0.0189695 -0.102409 255 161 156
0.0760465 0.0182198 -0.101376 214 177 160
0.0785856 0.0349182 -0.103731 255 222 197
0.0774228 0.0354291 -0.105956 202 96 82
0.0777309 0.0353858 -0.106166 255 147 123
0.0771824 0.0354843 -0.105917 255 176 154
0.0743574 0.0205345 -0.10379 255 157 155
0.0758914 0.0177911 -0.101455 255 191 169
0.0742486 0.0192755 -0.102469 237 146 135
0.0750858 0.0186245 -0.102856 243 106 103
0.0740804 0.0207623 -0.104216 233 127 119
0.0773029 0.016641 -0.10149 255 148 161
0.0771799 0.0351693 -0.106322 255 159 137
0.0770461 0.0122347 -0.0969978 168 82 73
0.0745863 0.0167968 -0.0998496 225 131 111
0.0734842 0.0202584 -0.103356 194 86 79
0.0808721 0.0349812 -0.0935502 119 104 91
0.0781326 0.0163883 -0.0966659 203 149 127
0.0737153 0.0188764 -0.102854 204 109 101
0.0733109 0.0194731 -0.102225 214 119 109
0.0763255 0.0136173 -0.0971733 201 112 112
0.0737652 0.0189895 -0.102271 214 124 116
0.0733143 0.0188155 -0.101567 199 105 96
0.0787753 0.0186613 -0.0934169 120 56 49
0.0749529 0.0146379 -0.0967869 237 140 137
0.0799945 0.0326653 -0.0926999 151 99 86
0.0760221 0.014896 -0.094869 152 74 65
0.0782491 0.0152951 -0.0955848 173 97 86
0.0755136 0.0184607 -0.101146 195 101 91
0.0745179 0.0154802 -0.0951005 169 81 74
0.0774068 0.0139244 -0.0912946 148 80 72
0.0733196 0.0152884 -0.0968065 223 139 128
0.081431 0.0283313 -0.0953823 156 76 67
0.0808506 0.0236833 -0.088604 147 57 52
0.0769064 0.0141256 -0.0903843 148 81 73
0.0780785 0.0114747 -0.0895742 154 67 55
0.0732218 0.0148962 -0.0954279 180 117 120
0.0812703 0.0221878 -0.0869594 153 80 72
0.0719113 0.0172436 -0.0999515 174 65 55
0.0736065 0.0153398 -0.0946155 165 88 80
0.07946 0.0198792 -0.0834174 146 65 62
0.0732769 0.0130332 -0.0919936 149 66 58
0.0794012 0.0173009 -0.0849385 129 58 55
0.0708582 0.0162052 -0.0983825 164 67 63
0.0718185 0.0166748 -0.0987006 203 99 90
0.0747009 0.0106528 -0.0880705 193 108 108
0.0713736 0.0167166 -0.0991223 169 71 63
0.0720477 0.0158086 -0.0964303 177 110 96
0.0803896 0.0187023 -0.081916 162 81 76
0.0792911 0.0279 -0.0855751 160 75 68
0.0812963 0.0325746 -0.093398 140 111 100
0.0805988 0.0357842 -0.0934717 162 105 106
0.0709555 0.0158831 -0.0969012 178 86 79
0.0706482 0.015708 -0.0971222 179 77 73
0.0777614 0.0169692 -0.0808756 131 65 59
0.0706576 0.0155369 -0.096537 194 105 96
0.0821837 0.034056 -0.0903585 152 121 110
0.0702353 0.0146761 -0.0954253 171 95 89
0.070206 0.0128606 -0.0925708 111 43 33
0.0813706 0.0358599 -0.090606 231 111 87
0.0691207 0.0144988 -0.0944736 139 81 72
0.0692348 0.0159032 -0.0978688 173 85 79
0.0800709 0.0225295 -0.08506 122 44 38
0.0772028 0.015695 -0.0801786 122 48 45
0.0789205 0.0268556 -0.0842744 122 44 37
0.0789904 0.0358214 -0.0933195 189 101 95
0.0690747 0.0139486 -0.0945515 162 92 88
0.0694747 0.0121262 -0.0927793 167 126 123
0.077709 0.0324173 -0.0850446 165 80 71
0.0738016 0.0107286 -0.0761687 112 74 65
0.079591 0.03324 -0.0881936 153 77 68
0.0840057 0.0295789 -0.0884921 165 95 87
0.0790754 0.0309519 -0.0861637 165 74 68
0.0686959 0.0139503 -0.0941476 153 102 87
0.0690957 0.0128594 -0.0924226 108 46 39
0.0784656 0.0275575 -0.0828149 109 33 26
0.0773729 0.0318865 -0.0857011 217 153 141
0.0815414 0.03573 -0.0926538 135 135 137
0.0767939 0.018808 -0.0797422 129 64 58
0.0678428 0.0155458 -0.0957859 137 60 54
0.076886 0.0253241 -0.0806847 145 67 62
0.0787994 0.0362905 -0.089627 156 99 88
0.0774573 0.0296834 -0.0854459 168 82 75
0.0685193 0.0143826 -0.0940852 145 79 70
0.0776212 0.0239944 -0.0814564 136 57 53
0.0777113 0.0249633 -0.0790501 120 49 43
0.0801875 0.0363814 -0.0933443 173 98 90
0.0680058 0.0137051 -0.0939633 167 108 97
0.0664889 0.0140387 -0.0932314 143 79 79
0.0775068 0.032212 -0.0851034 145 117 111
0.0784659 0.0258984 -0.0817679 151 86 89
0.0660721 0.0150606 -0.0936056 151 85 85
0.064984 0.0122091 -0.0885435 159 102 92
0.0684942 0.00717238 -0.0643287 98 57 54
0.0704147 0.00889078 -0.0624394 64 28 27
0.0641563 0.0158238 -0.0926266 157 97 91
0.0779934 0.01554 -0.0450993 19 0 0
0.0678319 0.0047198 -0.0691862 124 46 41
0.0706928 0.0173092 -0.0534024 47 19 17
0.0713106 0.0138989 -0.0567307 82 39 35
0.0786092 0.03746 -0.0863493 171 79 72
0.0774535 0.0380653 -0.0834286 201 71 69
0.063156 0.0158209 -0.0910523 157 99 90
0.0735365 0.0234233 -0.0475372 49 26 23
0.0800448 0.0364906 -0.086455 146 69 62
0.0665029 0.0123341 -0.0814772 144 58 54
0.0688155 0.0115185 -0.0556371 86 41 38
0.0637222 0.0139106 -0.0778526 107 39 34
0.0767318 0.0355358 -0.0840289 155 72 68
0.074581 0.0379493 -0.0847254 175 88 80
0.0740919 0.0360959 -0.083442 147 81 71
0.0613573 0.0118303 -0.0469496 53 25 23
0.0625566 0.0121547 -0.0585902 75 42 38
0.0755193 0.0361149 -0.0832881 157 97 92
0.0630721 0.0164617 -0.0803959 119 56 56
0.0734637 0.0326964 -0.0814518 127 78 71
0.0733035 0.0356444 -0.0836692 137 64 58
0.061949 0.0110075 -0.0531697 46 25 23
0.0625658 0.0240952 -0.0412996 62 30 23
0.0638489 0.0163661 -0.0808304 83 33 30
0.0627785 0.00941844 -0.0603174 67 26 23
0.0599928 0.0164338 -0.0427884 49 0 0
0.0775259 0.0354295 -0.108238 253 224 208
0.0769774 0.0299874 -0.108891 255 207 187
0.0776045 0.0317076 -0.108961 255 204 182
0.077361 0.0341006 -0.106724 255 230 209
0.0760672 0.0288299 -0.108942 255 230 208
0.0768571 0.0308974 -0.10833 255 213 193
0.077606 0.0313427 -0.109728 255 240 222
0.0767304 0.0305785 -0.108517 255 227 209
0.0778929 0.0316036 -0.108952 255 208 185
0.0772393 0.0259861 -0.109409 255 227 207
0.0769348 0.0323057 -0.107212 255 253 240
0.0760395 0.0300444 -0.108978 248 226 204
0.0776759 0.0269379 -0.106137 255 153 135
0.0762258 0.029007 -0.109246 255 244 220
0.0778564 0.0341053 -0.107524 255 241 216
0.0749786 0.0278162 -0.109649 255 234 213
0.0779562 0.0345004 -0.108101 230 239 222
0.0778875 0.0278923 -0.10851 255 244 222
0.0768203 0.0306634 -0.108526 255 219 202
0.0758032 0.028756 -0.10948 255 255 229
0.0771929 0.0336058 -0.106393 255 200 178
0.077073 0.0295182 -0.108872 255 255 236
0.0753079 0.0293517 -0.10936 255 191 174
0.0787067 0.0339209 -0.108638 255 255 245
0.0763505 0.0299519 -0.109088 255 255 243
0.0747229 0.0281758 -0.109534 255 175 152
0.0771244 0.0305101 -0.107203 242 231 208
0.0776955 0.0341371 -0.107628 255 255 244
0.0768355 0.0311326 -0.108548 255 210 188
0.0766179 0.0300148 -0.107897 255 216 194
0.0777403 0.0340242 -0.106831 255 255 255
0.0774188 0.0300941 -0.109256 255 211 195
0.0772576 0.0309775 -0.10943 255 208 186
0.0773659 0.0310642 -0.108438 255 214 195
0.0772378 0.0327291 -0.107694 255 224 185
0.0778895 0.0337771 -0.107505 255 228 212
0.0771367 0.0307895 -0.10868 255 217 199
0.0776017 0.0328673 -0.107467 255 255 231
0.0779511 0.0368639 -0.106372 255 232 209
0.0764008 0.0247799 -0.108091 255 229 208
0.0754878 0.0303585 -0.110856 255 176 161
0.0764218 0.0307204 -0.108549 255 227 202
0.0775055 0.0328344 -0.108338 255 226 209
0.0764179 0.0304128 -0.108342 255 174 154
0.0772098 0.0283839 -0.107517 255 173 156
0.0765352 0.0298526 -0.107843 255 179 160
0.0772876 0.0292576 -0.106756 255 192 171
0.0782645 0.033986 -0.10825 255 255 245
0.0766656 0.0315285 -0.10759 255 255 226
0.0772494 0.0332852 -0.106838 255 236 213
0.0800412 0.0262814 -0.103799 184 135 129
0.0774955 0.0322839 -0.108052 255 242 216
0.0780187 0.0242521 -0.107636 255 192 170
0.0774355 0.0294625 -0.10736 255 228 207
0.0784126 0.0344352 -0.107877 255 237 220
0.0772936 0.0282027 -0.111216 242 116 106
0.0785426 0.0346723 -0.108281 254 255 255
0.077209 0.0305197 -0.108697 255 228 200
0.0775369 0.0284698 -0.111534 217 90 81
0.0771366 0.032706 -0.107432 255 240 209
0.0809114 0.0316306 -0.107049 255 158 145
0.0777253 0.0348387 -0.107402 246 210 192
0.0777964 0.0351148 -0.108157 213 252 232
0.0778428 0.0355537 -0.106455 255 224 196
0.0769951 0.0316675 -0.10789 255 205 183
0.0779128 0.0320982 -0.108024 255 201 184
0.0775245 0.0338934 -0.105747 255 212 182
0.0767985 0.0314958 -0.1078 255 165 145
0.0776448 0.0293856 -0.108736 255 217 191
0.078056 0.0339151 -0.10879 220 213 194
0.0814557 0.0200625 -0.102518 188 133 130
0.0757782 0.0200172 -0.105028 243 112 103
0.0798529 0.0208428 -0.105202 255 218 210
0.0783801 0.0333285 -0.108231 255 217 194
0.0771872 0.0351618 -0.10655 255 240 219
0.077748 0.0347637 -0.106903 255 221 193
0.0778867 0.0357907 -0.107198 255 226 209
0.0782247 0.0341612 -0.107353 255 244 212
0.0768751 0.0356735 -0.106168 255 225 203
0.0775643 0.0342086 -0.106345 255 185 162
0.0819942 0.0204879 -0.0973994 212 152 132
0.0764814 0.017322 -0.102763 238 169 140
0.0781008 0.0357966 -0.107512 166 68 54
0.0792083 0.0178979 -0.106495 190 249 238
0.0836386 0.0249915 -0.100565 201 79 71
0.0757441 0.016801 -0.100784 215 144 117
0.0767374 0.0170099 -0.0989086 153 71 62
0.074642 0.0192136 -0.104033 255 231 235
0.0831756 0.026905 -0.0976993 134 128 121
0.0763222 0.0166998 -0.102516 239 158 152
0.0797584 0.015676 -0.0961578 163 104 97
0.081174 0.0181836 -0.093432 155 83 75
0.0743329 0.0198619 -0.103013 221 125 120
0.0821707 0.0331777 -0.0949259 129 154 144
0.0765105 0.0202292 -0.105115 214 102 100
0.0736682 0.0191938 -0.102166 216 121 110
0.0746724 0.0179794 -0.10107 185 128 114
0.0815676 0.0220981 -0.0902994 183 86 60
0.0739686 0.0204738 -0.103582 227 110 106
0.0731482 0.0181732 -0.10094 255 146 136
0.0766233 0.0154462 -0.0973586 255 175 168
0.0728036 0.0188428 -0.101508 209 106 98
0.0757822 0.0140435 -0.0973505 214 132 130
0.0803979 0.0214261 -0.0895542 148 78 71
0.0825591 0.0344272 -0.0980777 218 116 106
0.0786324 0.0166551 -0.0885368 148 90 81
0.0803817 0.0252373 -0.0947489 190 121 107
0.0741947 0.0161284 -0.0972515 190 96 86
0.0738495 0.0143437 -0.0955202 211 138 121
0.080118 0.0201201 -0.0866547 141 64 59
0.0798781 0.0254664 -0.0927089 135 55 48
0.0813927 0.028389 -0.0950339 141 77 67
0.0721707 0.0162897 -0.0979852 175 80 73
0.081893 0.0339701 -0.094627 131 159 149
0.0820482 0.0294259 -0.0955977 147 93 81
0.0716979 0.0155241 -0.0973265 189 106 91
0.0790609 0.0367705 -0.0909947 161 104 93
0.0696579 0.0130208 -0.0931978 182 135 128
0.0694873 0.0146467 -0.096017 162 98 89
0.077078 0.024905 -0.0808874 139 64 59
0.0736257 0.0357595 -0.0800104 208 158 156
0.0778187 0.0358275 -0.107 244 207 211
0.0776915 0.0332289 -0.107548 255 223 196
0.0758724 0.0278807 -0.110972 255 230 216
0.0772243 0.030958 -0.109474 247 222 200
0.0765048 0.0302357 -0.1092 249 227 209
0.0770438 0.0293049 -0.108523 255 212 196
0.076918 0.0291583 -0.108604 223 233 211
0.0763864 0.030248 -0.108333 240 221 199
0.075407 0.0282409 -0.109166 255 253 233
0.0777715 0.0318472 -0.108717 255 237 202
0.0780081 0.0344892 -0.106588 255 213 191
0.0768802 0.0312771 -0.108025 255 202 184
0.0775521 0.0325568 -0.107962 255 248 217
0.0767818 0.032292 -0.107271 255 205 182
0.0762393 0.0295419 -0.109149 248 228 208
0.0768226 0.0286113 -0.108117 255 163 144
0.078169 0.0277428 -0.106042 255 226 209
0.0769575 0.0294286 -0.107302 255 211 191
0.0771727 0.0325183 -0.10756 255 133 114
0.0780696 0.0285912 -0.107241 220 97 75
0.076709 0.0312522 -0.10751 255 222 196
0.0770597 0.032105 -0.108036 175 73 55
0.076929 0.0315912 -0.11067 238 158 138
0.077383 0.0330119 -0.107258 255 216 197
0.0785786 0.0255162 -0.107125 241 120 103
0.0776469 0.0305009 -0.106218 255 227 201
0.0776691 0.0331502 -0.106069 255 221 194
0.0778845 0.0260683 -0.106553 191 204 188
0.0776939 0.0339262 -0.108091 255 224 205
0.0760255 0.0272333 -0.111346 235 105 94
0.0766193 0.0315683 -0.107409 255 217 191
0.0777573 0.0334173 -0.107821 255 232 204
0.0773369 0.0326729 -0.108049 253 217 203
0.0776019 0.0310341 -0.108456 255 210 187
0.0774957 0.0336791 -0.107836 255 229 209
0.078385 0.0352911 -0.108203 255 179 153
0.0782894 0.0275906 -0.105958 223 227 204
0.0774809 0.0296797 -0.106436 255 226 196
0.0780324 0.0343446 -0.108882 252 220 205
0.0777221 0.0341264 -0.107863 255 224 202
0.0779637 0.0346408 -0.109426 255 122 107
0.0777124 0.0358559 -0.107684 250 220 200
0.0747997 0.0207792 -0.104745 255 137 132
0.0783891 0.0349191 -0.108835 226 130 124
0.0771053 0.0364303 -0.10579 255 210 187
0.0741442 0.017646 -0.101554 244 139 130
0.0729426 0.020543 -0.104055 190 84 73
0.0756355 0.0213982 -0.105312 228 125 119
0.0805977 0.0195825 -0.0934314 152 54 47
0.0800436 0.0186324 -0.0930246 145 89 81
0.0774641 0.0181831 -0.0983295 176 99 87
0.080147 0.0294031 -0.0934205 157 75 66
0.0790209 0.0366214 -0.0933175 181 90 83
0.0716307 0.0154988 -0.0961556 188 127 110
0.0796233 0.031966 -0.0900888 143 57 48
0.0679345 0.0153793 -0.0957869 155 76 69
0.0727381 0.0337202 -0.0807582 127 98 87
0.0777189 0.0318115 -0.108793 207 229 205
0.0773891 0.029547 -0.109627 255 211 187
0.0774364 0.0338018 -0.107604 255 246 221
0.0769624 0.0323092 -0.107819 255 233 208
0.0772152 0.0320143 -0.108622 242 226 206
0.0771082 0.0322039 -0.107346 255 238 212
0.0774203 0.0309315 -0.109666 247 221 199
0.0781603 0.0270063 -0.106206 248 233 214
0.0777549 0.0345694 -0.106516 255 217 194
