ply
format ascii 1.0
comment Created by Open3D
element vertex 1189
property double x
property double y
property double z
property uchar red
property uchar green
property uchar blue
end_header
0.0572242 0.085947 -0.0776479 29 0 0
0.0586036 0.0847886 -0.0859401 79 35 16
0.0668519 0.0877264 -0.0916547 108 38 7
0.0644377 0.0902136 -0.101237 117 71 48
0.0586194 0.0848697 -0.0814007 79 26 0
0.0572695 0.0857887 -0.0800721 39 0 0
0.0576739 0.0860203 -0.0849013 81 24 10
0.0587375 0.0846482 -0.0840556 77 22 7
0.0605558 0.0842532 -0.0885663 80 23 7
0.0577211 0.0859421 -0.0841295 69 19 0
0.0667192 0.08452 -0.0879595 101 39 13
0.0651555 0.0843204 -0.0814755 79 29 13
0.0600858 0.0835601 -0.0707767 0 0 0
0.0666131 0.0853193 -0.0845551 106 45 27
0.0664651 0.0967644 -0.100729 116 62 42
0.0671189 0.0881156 -0.086682 92 41 23
0.0590036 0.0901065 -0.0926537 142 72 48
0.0648942 0.0832222 -0.0850906 96 34 14
0.0660393 0.085523 -0.0835346 93 38 15
0.0681418 0.0950925 -0.0990757 122 61 44
0.0595977 0.0931491 -0.0975662 153 92 70
0.0577013 0.0859282 -0.0834667 79 29 16
0.058828 0.0848003 -0.0808468 38 0 0
0.0592876 0.0841081 -0.086123 81 26 12
0.0579731 0.0857203 -0.0810412 43 0 0
0.0681285 0.0856237 -0.0862604 165 62 0
0.0643846 0.0891905 -0.101313 40 0 0
0.0658727 0.0974545 -0.10012 119 61 45
0.0650158 0.0895997 -0.101979 159 144 62
0.0598627 0.0836452 -0.074206 0 0 0
0.0593719 0.0836759 -0.0789566 43 0 0
0.0593968 0.0841498 -0.0806428 45 7 0
0.0642496 0.0827651 -0.0845069 95 34 17
0.0582487 0.0946709 -0.0968506 158 91 73
0.0570338 0.0855389 -0.0797131 16 0 0
0.0593581 0.0837296 -0.08001 50 0 0
0.0599946 0.0976501 -0.100259 143 77 52
0.0621758 0.0869831 -0.0967341 103 62 48
0.0661613 0.0862118 -0.0832714 56 10 0
0.0596107 0.0824308 -0.0717367 0 0 0
0.0650147 0.0951816 -0.10251 131 68 60
0.06353 0.0930513 -0.102044 119 25 0
0.0607626 0.0828338 -0.0871136 90 29 17
0.0666374 0.0962921 -0.102184 129 91 47
0.0641409 0.0927302 -0.102312 159 111 80
0.0601226 0.0836611 -0.075464 0 0 0
0.0697554 0.0933128 -0.0988067 100 0 0
0.0642601 0.0840638 -0.0824293 81 31 15
0.063966 0.092906 -0.102632 150 89 48
0.0585743 0.0948631 -0.0974812 163 95 76
0.0670061 0.0824187 -0.089887 139 80 179
0.0668662 0.0881249 -0.0908115 102 38 18
0.0636918 0.0950822 -0.10202 116 60 40
0.0642192 0.0947464 -0.102475 127 68 41
0.0673272 0.0856798 -0.101635 112 120 79
0.0681692 0.0948979 -0.0966194 118 64 44
0.0641727 0.0918879 -0.10232 206 148 107
0.0586968 0.0906998 -0.0934889 140 74 52
0.0609234 0.095518 -0.100759 107 63 48
0.0628327 0.0830004 -0.0943013 25 14 11
0.0660837 0.0971019 -0.0960407 130 76 59
0.0640384 0.0905966 -0.101111 98 50 32
0.065381 0.0975443 -0.0957531 128 66 48
0.0680805 0.0945337 -0.096725 110 58 37
0.0639149 0.0952748 -0.10238 107 53 34
0.0642851 0.0948567 -0.102567 159 100 64
0.0656277 0.0927567 -0.102931 120 67 50
0.0723921 0.088993 -0.0989251 171 93 124
0.0592441 0.092915 -0.0959784 118 63 45
0.0587367 0.0969463 -0.0978886 186 109 78
0.0581032 0.0963269 -0.0974954 160 116 70
0.0586876 0.0969525 -0.0978433 183 115 89
0.0591281 0.0929982 -0.0964999 131 85 68
0.0668027 0.094792 -0.0949469 109 51 37
0.0576964 0.0954161 -0.0966367 168 91 75
0.0613265 0.0931572 -0.0994822 255 255 255
0.0592917 0.093084 -0.0966883 136 79 60
0.058568 0.0937864 -0.0940767 126 75 54
0.0588735 0.0932518 -0.0953009 128 73 56
0.0609682 0.0895192 -0.0984955 78 40 30
0.0652907 0.098181 -0.0956646 134 79 41
0.0598308 0.0932122 -0.0972531 140 87 69
0.0619173 0.0922895 -0.0999095 137 89 64
0.0656132 0.0872557 -0.104636 255 255 255
0.0586457 0.0967084 -0.0978591 163 101 69
0.0589159 0.0965932 -0.0979236 143 75 53
0.0582611 0.0971023 -0.0974905 192 138 105
0.0581715 0.0963569 -0.0974732 173 112 69
0.0580713 0.095792 -0.0971374 196 82 57
0.0643484 0.0839445 -0.0946342 45 18 15
0.0602285 0.0919089 -0.0979669 238 171 143
0.0596234 0.0955172 -0.0985612 150 86 68
0.0585235 0.0977294 -0.0978113 177 91 59
0.0608153 0.0934461 -0.0986145 53 5 0
0.0568777 0.09636 -0.0961259 213 138 101
0.0608052 0.0937064 -0.0986561 141 79 69
0.0569375 0.0960238 -0.0960123 214 134 108
0.0576244 0.0961684 -0.0967307 199 129 95
0.058822 0.095414 -0.0979515 141 68 46
0.0573564 0.0962616 -0.0966762 207 127 96
0.0576491 0.0968283 -0.0971304 209 147 114
0.0575103 0.0954611 -0.0960889 201 119 94
0.0579419 0.0948876 -0.0965369 146 80 56
0.0586884 0.0974344 -0.0979383 190 119 88
0.060063 0.0958652 -0.0992232 132 71 51
0.0592661 0.0930754 -0.0967482 133 83 67
0.0594403 0.0977836 -0.0997951 125 65 47
0.0662795 0.0968843 -0.0963486 134 74 48
0.0596593 0.097696 -0.100126 110 64 44
0.0563157 0.097102 -0.0958798 252 156 129
0.0591843 0.0928164 -0.0957662 120 67 48
0.0595244 0.093097 -0.0969448 128 82 59
0.0629818 0.0922232 -0.101809 112 59 39
0.0667629 0.0958312 -0.0954935 105 50 38
0.0610648 0.0932791 -0.098687 116 69 61
0.0667714 0.09517 -0.0949563 104 47 34
0.0584565 0.0962616 -0.0975384 155 80 58
0.0668574 0.0944803 -0.0947662 110 52 37
0.057729 0.0960987 -0.0967298 214 124 93
0.0590951 0.0948703 -0.0982468 204 130 116
0.0576388 0.0959258 -0.0966458 195 118 88
0.0652892 0.0978534 -0.0960291 117 56 35
0.0599826 0.0937061 -0.0979355 140 83 68
0.0630381 0.0937066 -0.101459 102 39 21
0.0587839 0.097114 -0.0979659 203 106 65
0.063468 0.0911948 -0.100706 105 54 37
0.0655844 0.0967897 -0.0953469 98 41 26
0.0657338 0.0977905 -0.096647 129 67 50
0.0627525 0.0937998 -0.101615 125 80 63
0.0607507 0.0934188 -0.0985073 40 0 0
0.0587558 0.0973276 -0.0979129 173 99 73
0.0607181 0.0942304 -0.0988458 149 109 86
0.0600224 0.0935403 -0.0981049 152 88 65
0.0682338 0.0950698 -0.096651 117 65 48
0.0657225 0.0842523 -0.0955654 5 0 0
0.0653066 0.0899209 -0.102349 197 161 34
0.0660595 0.0866887 -0.105059 255 255 255
0.0668368 0.0914288 -0.102328 112 49 41
0.0564419 0.0959913 -0.0959587 218 118 102
0.0627693 0.083358 -0.094476 21 18 16
0.0582716 0.0982957 -0.098499 190 129 111
0.0586243 0.0941679 -0.096845 159 90 71
0.0633632 0.0913485 -0.101571 140 123 81
0.0634397 0.0836636 -0.0948849 55 17 13
0.0625505 0.0888303 -0.0996153 80 38 18
0.059546 0.0934479 -0.0977161 160 106 83
0.0658033 0.090549 -0.102156 129 94 60
0.0579802 0.0953337 -0.097044 142 77 52
0.058183 0.0941834 -0.0966177 117 50 28
0.0564261 0.0975711 -0.0957194 255 159 127
0.0675486 0.0947621 -0.0954968 113 62 50
0.067975 0.0874569 -0.0998523 91 55 40
0.0644604 0.0929723 -0.102479 255 194 126
0.0696555 0.0876712 -0.0932133 21 28 0
0.0655525 0.0939782 -0.102539 106 50 32
0.0674755 0.0886802 -0.0968389 146 78 55
0.0653433 0.0820891 -0.0941075 0 16 11
0.0630092 0.0939849 -0.101403 130 61 37
0.0663978 0.0958621 -0.0953303 101 49 33
0.065958 0.0965883 -0.104007 177 173 135
0.0687012 0.0937844 -0.0968423 104 74 58
0.0642329 0.0927088 -0.102335 170 101 77
0.0621554 0.0885597 -0.0996589 64 34 28
0.0643261 0.0859426 -0.0965362 79 37 19
0.0640786 0.0926087 -0.101813 104 47 35
0.0624235 0.094428 -0.10172 172 176 128
0.0640727 0.0925242 -0.102221 201 142 96
0.0594708 0.0927573 -0.0979337 202 126 109
0.0617749 0.0942427 -0.101268 138 69 60
0.0603833 0.0950899 -0.100085 202 100 80
0.0595155 0.093675 -0.0978759 184 123 105
0.0623534 0.0939268 -0.101176 139 81 54
0.0631052 0.0871205 -0.0974449 112 90 63
0.0636874 0.0958565 -0.101685 110 51 38
0.0625975 0.0883688 -0.0985593 104 62 43
0.0629539 0.095812 -0.10213 117 59 38
0.0622037 0.0938296 -0.101231 174 94 62
0.0701194 0.0887572 -0.0928866 97 59 63
0.0610556 0.0955236 -0.100825 77 57 46
0.0662798 0.0908753 -0.103134 88 41 45
0.0692403 0.088161 -0.0969561 201 83 62
0.068563 0.0946467 -0.096855 133 95 63
0.0641681 0.0889711 -0.101075 0 0 0
0.0657048 0.0961044 -0.101939 105 50 32
0.0607356 0.0937371 -0.0988495 184 120 106
0.0637968 0.0967009 -0.101793 120 62 38
0.0592202 0.0933953 -0.0970605 151 94 74
0.0686211 0.0815808 -0.102697 255 0 0
0.0629094 0.0947201 -0.101553 125 74 51
0.0635874 0.0936777 -0.102032 134 58 33
0.0688955 0.0943523 -0.0968738 176 141 83
0.0670192 0.0780049 -0.0929704 0 0 0
0.0580764 0.0952187 -0.0972628 128 60 40
0.0661522 0.0868755 -0.105666 255 255 255
0.0570336 0.0959574 -0.0960593 215 126 98
0.0624385 0.0832496 -0.0941114 26 18 14
0.0575822 0.0957681 -0.0965204 190 114 88
0.0588569 0.093727 -0.0966114 151 84 69
0.0633507 0.0913266 -0.101552 143 130 89
0.067038 0.0977837 -0.0969441 131 70 55
0.0675682 0.0919419 -0.102343 88 18 0
0.0607044 0.0955134 -0.100388 90 59 45
0.0602962 0.0952318 -0.0989028 151 91 67
0.0582267 0.0951433 -0.0970642 152 71 48
0.0666575 0.0874301 -0.100285 73 20 0
0.0578476 0.0946986 -0.0964928 129 87 62
0.0650998 0.0944066 -0.102947 182 153 124
0.0689143 0.0882371 -0.0928208 61 31 0
0.0689024 0.0856639 -0.0931499 0 0 0
0.0670279 0.0971432 -0.0979457 127 67 54
0.0661484 0.0961722 -0.0952011 108 52 44
0.0620063 0.0888456 -0.0995164 51 24 24
0.067573 0.0870049 -0.0993829 161 157 134
0.0625685 0.0942759 -0.101896 153 157 90
0.0640781 0.0921208 -0.102399 225 166 140
0.0652433 0.0979487 -0.0962237 127 66 48
0.0625082 0.0932875 -0.101685 153 91 63
0.062346 0.093884 -0.101005 149 84 60
0.0591829 0.0938455 -0.0980257 184 109 86
0.0643166 0.0899789 -0.102335 199 140 127
0.0627753 0.0934763 -0.101587 161 103 70
0.0658029 0.0840799 -0.0949971 51 25 22
0.0635927 0.0924203 -0.102007 166 127 101
0.0641887 0.0934694 -0.102612 171 94 54
0.0631047 0.0963405 -0.101626 115 58 38
0.0642131 0.0888646 -0.10114 28 0 0
0.0623376 0.0945671 -0.101332 143 51 32
0.0588487 0.0959255 -0.0985161 143 120 82
0.0645424 0.0941946 -0.102773 199 119 75
0.0616801 0.0964137 -0.101094 193 86 61
0.0663965 0.0964068 -0.101892 140 91 28
0.0637848 0.0962885 -0.102086 149 82 52
0.0593059 0.0934417 -0.0978702 166 101 79
0.0632095 0.0914745 -0.100844 108 59 42
0.0643178 0.0937714 -0.10246 135 90 53
0.0636285 0.0949567 -0.101896 106 54 41
0.0639284 0.0936231 -0.102218 177 103 52
0.0689806 0.0945209 -0.0972 151 122 92
0.0658629 0.0792239 -0.0933501 0 0 0
0.0618475 0.0938487 -0.100594 122 80 62
0.0593075 0.0930189 -0.0963538 131 78 58
0.0581752 0.096262 -0.097349 174 105 64
0.0593147 0.0928732 -0.096254 108 63 46
0.0595147 0.0930312 -0.0969625 120 75 54
0.0563896 0.0930752 -0.086848 183 110 80
0.0624639 0.0936659 -0.100677 58 0 0
0.0595628 0.0934586 -0.0928568 188 115 96
0.0584629 0.0967477 -0.0977531 184 115 72
0.0585942 0.0981136 -0.0983661 189 103 76
0.0612509 0.0930606 -0.0993816 222 255 234
0.0593305 0.0929439 -0.0964095 131 81 59
0.0578681 0.094458 -0.0952467 196 113 89
0.0584974 0.0984333 -0.0981887 180 118 88
0.0580041 0.0962152 -0.0971946 189 113 85
0.0583039 0.0967471 -0.097623 200 136 94
0.0598126 0.0931178 -0.0971882 133 82 64
0.0607836 0.0934158 -0.0988094 143 121 105
0.0660127 0.087063 -0.104773 255 255 255
0.0607807 0.0934023 -0.0988043 129 139 107
0.05995 0.09533 -0.0986905 151 96 80
0.0594115 0.0904189 -0.0962373 155 78 42
0.0584257 0.0973291 -0.0977731 199 120 86
0.0586375 0.0965667 -0.0977772 171 93 67
0.0585042 0.098288 -0.098078 163 93 65
0.0574712 0.094852 -0.0951174 208 125 98
0.0583983 0.0970361 -0.0976415 202 143 105
0.0581467 0.09638 -0.0974063 190 119 87
0.0578971 0.095796 -0.0969801 184 89 68
0.0586196 0.0968388 -0.0977755 182 106 76
0.0622797 0.093563 -0.100923 138 68 36
0.0600304 0.0954586 -0.0988009 172 97 83
0.0607512 0.0934308 -0.0985256 63 8 0
0.057402 0.0954724 -0.0959278 206 126 100
0.0584784 0.0940285 -0.0964393 160 91 71
0.0598858 0.0932327 -0.0978985 149 90 79
0.0570391 0.0953253 -0.095418 209 125 96
0.0580063 0.097044 -0.0973616 218 145 111
0.0606505 0.0946742 -0.0988485 149 85 67
0.0576419 0.0962197 -0.0967436 202 133 100
0.0582721 0.0964462 -0.0975527 178 100 76
0.0662814 0.0835032 -0.0922202 187 55 0
0.0597453 0.0905752 -0.0959803 76 32 24
0.0681503 0.0934947 -0.095576 104 44 31
0.0578918 0.0984388 -0.0972736 255 173 125
0.0576878 0.0967253 -0.0970302 220 144 111
0.0614559 0.0874416 -0.096169 87 42 26
0.0576835 0.0953706 -0.0961619 183 109 85
0.0577624 0.0964553 -0.0969068 205 144 116
0.057852 0.0950654 -0.096627 146 82 53
0.0664337 0.0824043 -0.0918179 190 57 0
0.0602019 0.0926785 -0.0976138 135 83 60
0.0662438 0.0975384 -0.0962434 129 91 58
0.0614377 0.0873563 -0.0960736 86 39 22
0.0596792 0.0976126 -0.100222 128 81 60
0.0683785 0.0960496 -0.0967438 255 255 208
0.0583281 0.0982408 -0.0978753 200 121 89
0.0581636 0.0824174 -0.0939134 0 0 0
0.066153 0.0967052 -0.0958057 139 86 50
0.065937 0.0971072 -0.0960313 132 74 55
0.058322 0.0981997 -0.0979574 200 114 80
0.0575513 0.0957273 -0.0966295 182 110 83
0.0591723 0.0974562 -0.0994951 156 79 64
0.0584803 0.0977225 -0.0977916 200 106 71
0.0576681 0.0959798 -0.0966945 202 118 88
0.0600461 0.0956142 -0.0994836 189 102 90
0.0664214 0.0969063 -0.0966731 123 61 41
0.057631 0.0959581 -0.0966056 199 123 94
0.0587134 0.0944411 -0.0974754 150 81 58
0.0601228 0.0934566 -0.0980089 129 96 72
0.0614841 0.0900927 -0.0997779 255 255 255
0.0593815 0.090346 -0.0943588 66 24 17
0.0656336 0.0968988 -0.0955786 125 69 50
0.0588596 0.0827469 -0.0951892 0 0 0
0.0605297 0.0945877 -0.0988887 116 96 58
0.063054 0.0949438 -0.101403 102 59 48
0.066931 0.0880622 -0.0916128 103 42 20
0.0578114 0.0977996 -0.0937299 208 129 106
0.0563502 0.0964603 -0.0961907 255 255 255
0.0619003 0.0921309 -0.0998865 140 86 59
0.0580286 0.0949147 -0.0970133 137 79 59
0.0662368 0.0968041 -0.0960532 140 89 72
0.063992 0.0936105 -0.101944 120 62 42
0.0622873 0.0943695 -0.100809 113 55 39
0.0640054 0.0925907 -0.102285 197 138 91
0.0585354 0.093918 -0.0963057 167 102 83
0.0601216 0.0953146 -0.0989441 124 72 40
0.0690338 0.08537 -0.0932164 0 0 0
0.0631514 0.0940835 -0.101707 134 69 45
0.067188 0.0836008 -0.0912904 169 57 0
0.0670266 0.0870909 -0.0917257 114 35 9
0.069219 0.0949113 -0.105189 177 101 63
0.0587879 0.093889 -0.0968149 154 86 70
0.0610722 0.0971541 -0.101252 120 69 49
0.0604587 0.0940774 -0.0986177 143 107 90
0.0627836 0.0870705 -0.0972981 106 75 55
0.0566137 0.0961553 -0.095357 228 139 113
0.0658504 0.088967 -0.101002 77 54 28
0.067644 0.0907181 -0.101718 83 0 24
0.0600228 0.0933571 -0.0989424 16 0 0
0.0645975 0.0897402 -0.10294 118 85 48
0.0690607 0.0957346 -0.0998232 209 191 193
0.0613404 0.0963007 -0.100966 132 72 54
0.0656763 0.0818774 -0.0929066 0 4 7
0.064413 0.0930164 -0.102414 156 97 73
0.0644812 0.0938664 -0.102759 209 133 82
0.0596377 0.0938844 -0.0975934 170 103 83
0.0651234 0.0981102 -0.0959259 132 66 49
0.0685488 0.0922601 -0.101333 187 107 63
0.0631106 0.0939373 -0.10176 167 108 72
0.0675581 0.0938345 -0.10156 111 56 35
0.0640664 0.0953917 -0.101873 100 43 27
0.0641034 0.0929176 -0.1023 183 118 78
0.062613 0.0942702 -0.101404 155 74 50
0.0670669 0.0955632 -0.102092 135 86 50
0.0687534 0.0965338 -0.098458 139 111 75
0.0589505 0.0936314 -0.0969366 155 88 73
0.0659329 0.0982982 -0.0969399 117 49 50
0.06609 0.0925978 -0.103356 145 78 39
0.0611512 0.0949046 -0.100244 124 70 50
0.063229 0.0920982 -0.10107 106 53 35
0.0642203 0.0948171 -0.102209 111 59 40
0.0609047 0.0958382 -0.100691 107 68 49
0.0665352 0.0856833 -0.0957323 73 33 26
0.0621164 0.0945136 -0.101438 128 81 45
0.0692975 0.0950876 -0.0986954 143 95 75
0.0632406 0.0864564 -0.0967273 57 24 19
0.0696812 0.0938499 -0.0999048 138 81 63
0.0614032 0.0962821 -0.100892 133 73 56
0.0625255 0.0885768 -0.0993098 76 10 0
0.0672696 0.0834831 -0.0908323 125 41 0
0.0593196 0.0885978 -0.0943039 138 66 38
0.0684898 0.0939712 -0.101033 149 94 81
0.0665368 0.0869599 -0.0919544 101 40 26
0.0580082 0.0955202 -0.0967746 178 99 76
0.0602264 0.0936549 -0.0984644 152 121 99
0.0628846 0.0870628 -0.0974669 106 70 53
0.0608305 0.0934707 -0.0986537 12 0 0
0.0567642 0.0958659 -0.0955364 229 135 109
0.0576872 0.0959008 -0.0974046 79 67 38
0.0661512 0.0905545 -0.102326 91 49 18
0.0647003 0.0896208 -0.101412 70 17 0
0.0604807 0.0931242 -0.0988759 31 0 0
0.0645546 0.0929847 -0.102446 148 86 63
0.06088 0.0968408 -0.100817 127 73 51
0.0646975 0.093984 -0.102648 246 163 107
0.0635627 0.0930426 -0.102173 126 61 36
0.0676954 0.0953791 -0.102601 143 145 11
0.0632518 0.0956254 -0.101624 107 59 42
0.0660762 0.0851824 -0.0920429 115 42 20
0.0649633 0.0980375 -0.0958107 137 79 56
0.0661752 0.0966711 -0.0961332 97 41 23
0.0654931 0.0953469 -0.103366 176 158 118
0.0606699 0.0932228 -0.0985367 63 11 0
0.0597703 0.0964591 -0.100161 152 90 65
0.0636668 0.0934843 -0.102154 171 87 58
0.0641827 0.0921573 -0.10233 180 116 85
0.0628429 0.0937851 -0.101593 166 85 54
0.0591389 0.0949676 -0.0982578 121 74 48
0.0609434 0.0951978 -0.100447 93 44 34
0.0677974 0.0971586 -0.0975554 130 58 54
0.0679192 0.0957982 -0.0989705 132 102 67
0.0645932 0.0940602 -0.102919 188 115 67
0.0635777 0.0940315 -0.10176 99 43 23
0.0691079 0.0946367 -0.097119 129 88 65
0.061013 0.0958968 -0.100881 114 58 47
0.0636346 0.0958886 -0.101729 111 54 38
0.0668551 0.0922287 -0.0937524 92 47 27
0.0663231 0.0953662 -0.102613 109 55 36
0.0599236 0.093063 -0.0979152 201 112 82
0.0626274 0.087588 -0.0974034 100 54 39
0.0651269 0.0981229 -0.0954214 125 64 47
0.0620392 0.0967784 -0.101623 130 27 21
0.0618427 0.0871307 -0.0923315 209 133 111
0.0588685 0.092694 -0.0953222 142 68 51
0.059571 0.0936509 -0.0928487 184 110 90
0.0586687 0.0978886 -0.0978067 167 89 62
0.0593026 0.0928776 -0.096189 115 66 45
0.0577417 0.0953615 -0.0965331 169 108 85
0.0591357 0.0930504 -0.0960117 122 74 56
0.0586704 0.0969183 -0.0978057 190 122 95
0.0587585 0.0985754 -0.0983775 159 100 75
0.0595661 0.0929306 -0.0969242 121 77 57
0.0594527 0.0927324 -0.0966055 140 83 68
0.0584273 0.0964089 -0.0976979 180 101 67
0.0584565 0.0967287 -0.0976831 187 113 76
0.0621697 0.0846967 -0.0926372 80 16 0
0.0592506 0.0927463 -0.0959838 148 59 25
0.0619359 0.0844556 -0.0944318 29 16 10
0.0589859 0.0929896 -0.095746 113 60 41
0.0616692 0.0869778 -0.0961289 101 45 22
0.0594534 0.092882 -0.0965787 121 72 56
0.059342 0.0947563 -0.0930379 183 112 89
0.0589275 0.0928144 -0.0951621 130 66 42
0.0584589 0.0984485 -0.0981821 181 117 85
0.0617462 0.0847791 -0.094588 51 25 18
0.0580507 0.0961898 -0.0971466 190 111 83
0.0615587 0.0917618 -0.0993591 255 255 255
0.0576508 0.0975204 -0.097301 237 176 133
0.0616898 0.0927104 -0.0994501 106 51 37
0.0588158 0.098321 -0.0982958 164 100 74
0.0583109 0.0981784 -0.0981774 255 197 142
0.0584305 0.0974058 -0.0976814 200 118 84
0.0585777 0.0966653 -0.0978366 172 100 72
0.0592128 0.096298 -0.0986186 170 94 67
0.0577109 0.0946735 -0.0949388 196 112 88
0.0583432 0.0969445 -0.0974054 202 132 100
0.0588839 0.0929324 -0.0951517 112 49 35
0.0602892 0.093521 -0.098384 135 83 70
0.0581254 0.0963727 -0.0974 189 115 81
0.0584822 0.0973215 -0.0978385 184 110 73
0.0582806 0.0967797 -0.0976073 192 135 95
0.0578706 0.0957929 -0.0969651 184 88 66
0.0570517 0.0953642 -0.095026 222 133 101
0.0584669 0.0968285 -0.0976107 198 123 89
0.0586125 0.0969382 -0.0978479 186 113 78
0.0646094 0.0839574 -0.0944796 39 20 17
0.0575105 0.098104 -0.0970402 251 180 142
0.0597181 0.0955341 -0.0986518 161 91 79
0.0574581 0.0953444 -0.0959296 200 121 95
0.060736 0.0934064 -0.0985122 63 10 0
0.0602908 0.0935275 -0.0984321 130 74 65
0.0608045 0.0935614 -0.0986693 140 80 58
0.0587932 0.0976099 -0.097935 149 76 53
0.0573948 0.0970533 -0.0968486 238 161 124
0.0576592 0.0949512 -0.0958463 183 97 69
0.0575319 0.0969455 -0.096905 235 153 121
0.0570253 0.0970979 -0.096646 249 177 143
0.0574628 0.0963217 -0.0967383 211 143 108
0.0664534 0.0835468 -0.0923008 203 68 0
0.0601082 0.0914364 -0.0980016 255 255 255
0.0599688 0.0903226 -0.096434 82 40 29
0.0583809 0.0823878 -0.0941959 0 0 0
0.0613869 0.0925058 -0.0991324 255 255 255
0.0576553 0.0972885 -0.0968841 240 163 126
0.0565006 0.0963457 -0.0951795 227 141 115
0.058269 0.0967022 -0.0974021 204 122 92
0.0619691 0.0861587 -0.0960224 56 24 16
0.0577191 0.0967181 -0.0970035 219 147 113
0.0576595 0.0953155 -0.096076 192 114 86
0.0579858 0.0948132 -0.09666 139 66 44
0.0669749 0.0823959 -0.0916546 182 62 0
0.0598638 0.089276 -0.0946231 72 37 29
0.0585049 0.0975394 -0.0975831 197 120 90
0.0592469 0.0930913 -0.0967484 143 79 59
0.057793 0.0966665 -0.0970903 211 140 106
0.0579285 0.0976654 -0.0973986 248 196 149
0.0575411 0.0958934 -0.0964103 199 127 97
0.0672907 0.0958353 -0.0962826 107 48 35
0.0611657 0.0894147 -0.0984557 103 45 35
0.0583506 0.0979844 -0.0974961 200 125 92
0.0592464 0.096787 -0.0989722 147 81 61
0.0575586 0.0954458 -0.096458 172 102 77
0.061976 0.087024 -0.096651 96 58 38
0.0659992 0.0969295 -0.096039 112 63 41
0.0660884 0.0971387 -0.0962931 131 79 56
0.063182 0.0945318 -0.101489 103 51 34
0.0580089 0.0964723 -0.0972313 198 131 94
0.0575683 0.0954264 -0.0963887 173 97 73
0.0572154 0.0972022 -0.0968699 246 172 139
0.0573171 0.0964914 -0.096554 227 141 105
0.0588139 0.0971343 -0.0979137 181 103 72
0.0605632 0.0934785 -0.0984552 60 30 0
0.0621748 0.0845748 -0.0948135 49 26 20
0.0577894 0.0935181 -0.093592 176 95 66
0.0595638 0.0967432 -0.0999814 182 110 102
0.0662963 0.0969093 -0.0963612 120 55 28
0.0674695 0.093918 -0.0951768 103 47 31
0.0585221 0.0946431 -0.097361 155 93 72
0.0599706 0.0904864 -0.0930999 178 105 85
0.0583236 0.0981475 -0.0981579 255 195 142
0.0602149 0.0935555 -0.0982265 121 66 49
0.0629683 0.093727 -0.101365 107 39 17
0.0605725 0.0933609 -0.0983895 130 53 45
0.062093 0.0935283 -0.100493 46 0 0
0.0643898 0.0895939 -0.10127 70 34 11
0.0643315 0.0905125 -0.10162 117 81 40
0.0595616 0.0934459 -0.0928564 186 112 94
0.0607757 0.0933981 -0.0984478 79 0 0
0.0600299 0.0956598 -0.0990465 143 78 60
0.0600513 0.0949693 -0.0984194 147 93 72
0.0656378 0.0969495 -0.0952749 119 65 47
0.0588194 0.0947108 -0.0977544 184 108 86
0.0588394 0.0961799 -0.0981399 160 99 74
0.0608005 0.0934931 -0.0985958 117 71 60
0.0600744 0.0937344 -0.0980075 136 86 68
0.060414 0.094614 -0.098778 137 103 84
0.0639212 0.0924727 -0.102316 190 131 83
0.0647389 0.0926349 -0.102257 177 125 87
0.063507 0.0937146 -0.101983 131 51 9
0.0594769 0.0935205 -0.0929521 181 105 82
0.066511 0.0835867 -0.0923365 255 103 0
0.0666085 0.0821035 -0.0914888 135 38 0
0.0566911 0.0959826 -0.0955236 224 135 110
0.0649514 0.0894771 -0.101678 75 13 0
0.0649174 0.0982282 -0.095847 123 64 48
0.058058 0.0960857 -0.0972884 193 123 80
0.0634153 0.0827386 -0.0916741 91 23 10
0.0600904 0.0894763 -0.095795 84 40 29
0.061848 0.0855397 -0.0949073 47 23 18
0.0682178 0.0958839 -0.0971897 70 0 0
0.0675442 0.092059 -0.102102 92 42 23
0.0640092 0.0862434 -0.0990321 87 0 0
0.0601983 0.0898868 -0.0963221 86 40 27
0.0590812 0.0930331 -0.0972577 132 48 13
0.0578269 0.0950447 -0.0963863 158 90 65
0.0645894 0.0921911 -0.102741 131 77 41
0.0674126 0.0953449 -0.0959643 113 57 42
0.067466 0.0922654 -0.102377 72 60 0
0.0574305 0.0958 -0.0962559 204 126 96
0.0578155 0.0946398 -0.0962561 149 63 33
0.0660059 0.0974677 -0.0995648 122 65 45
0.0581965 0.0953665 -0.0976125 95 91 73
0.0639632 0.0822033 -0.0949622 88 0 0
0.0658343 0.0965492 -0.101845 125 57 40
0.0661297 0.0945072 -0.104126 189 225 217
0.062253 0.0965897 -0.101561 142 35 30
0.0640649 0.0902705 -0.100938 94 41 32
0.0644388 0.0929217 -0.102301 183 119 85
0.0582419 0.0953722 -0.0977661 69 56 44
0.0668564 0.0960058 -0.095722 107 48 39
0.0619048 0.0965707 -0.10109 151 70 59
0.0639794 0.0876733 -0.104801 255 255 255
0.0585126 0.0940439 -0.0973875 99 45 13
0.0643882 0.0784158 -0.0936375 0 0 0
0.0638537 0.0812365 -0.0878725 120 53 0
0.0625882 0.0827841 -0.0938492 14 14 12
0.0653703 0.0955568 -0.103028 145 124 75
0.0668407 0.0888914 -0.100132 103 62 27
0.0656829 0.0961508 -0.101979 105 50 34
0.0630657 0.096559 -0.101899 77 72 37
0.0614728 0.0959449 -0.1011 152 53 79
0.0612851 0.0887157 -0.0971617 89 45 33
0.0582094 0.0948838 -0.0969017 152 89 67
0.0674259 0.0955737 -0.096169 112 60 47
0.0642341 0.0925281 -0.102477 105 48 32
0.0657692 0.0973572 -0.0960493 126 65 48
0.0641128 0.081196 -0.0936713 18 16 11
0.0677744 0.0966891 -0.0978658 134 73 49
0.0680719 0.0922036 -0.101713 117 49 39
0.060104 0.0931469 -0.0983257 54 0 0
0.06186 0.0948536 -0.101395 192 156 97
0.0644129 0.0952202 -0.102017 104 49 33
0.068578 0.0950598 -0.0933437 125 60 51
0.0598474 0.0905706 -0.0968416 84 37 26
0.0645759 0.0882632 -0.104622 255 255 255
0.0684784 0.094432 -0.101225 153 70 77
0.0606151 0.0965202 -0.100457 122 70 50
0.0673424 0.0929833 -0.102675 85 48 52
0.0656195 0.0844903 -0.0951037 54 24 17
0.0635024 0.0946944 -0.101669 100 43 24
0.0630811 0.0860249 -0.0969 98 60 34
0.067978 0.0960437 -0.0984888 139 107 56
0.0592011 0.0941521 -0.0975877 142 77 59
0.0700048 0.0929124 -0.100571 193 164 115
0.0596018 0.0935047 -0.0975455 210 141 119
0.0628979 0.0938828 -0.10136 134 85 56
0.061881 0.0877783 -0.0973871 91 41 32
0.0660712 0.0940991 -0.103332 99 126 115
0.0600645 0.0930784 -0.0983728 0 0 0
0.0677564 0.0899529 -0.0972104 100 48 38
0.0638151 0.0953919 -0.102041 152 89 70
0.0661121 0.0844806 -0.0954843 31 0 0
0.0660241 0.0922031 -0.0903045 80 26 0
0.0651068 0.0811939 -0.0904541 130 44 0
0.0580989 0.0962119 -0.0973426 163 121 75
0.0698114 0.0913455 -0.0985855 130 57 22
0.0624064 0.0848601 -0.0949835 48 23 17
0.0609477 0.0842766 -0.0741351 0 0 0
0.0581582 0.0964736 -0.0973316 209 112 80
0.0625887 0.0862334 -0.096491 84 37 0
0.0677594 0.0926878 -0.101989 105 49 34
0.0600223 0.0897583 -0.0959075 82 42 31
0.0578371 0.0948668 -0.0961714 152 89 67
0.0573582 0.0962903 -0.0966617 208 132 102
0.0635279 0.0962056 -0.102023 137 81 51
0.0680216 0.0948583 -0.0961943 118 61 45
0.0580245 0.0948536 -0.0961804 169 89 69
0.0593286 0.0833367 -0.0783752 57 22 0
0.0661875 0.0974444 -0.0992576 120 65 43
0.0633256 0.0838319 -0.0944894 23 20 16
0.0613094 0.0900019 -0.0995695 255 255 255
0.0648818 0.088828 -0.101126 71 47 33
0.0673489 0.0930064 -0.102754 67 41 32
0.0602941 0.0944653 -0.098503 144 97 74
0.068074 0.0907944 -0.101022 67 0 14
0.0685362 0.0902284 -0.0956118 128 43 16
0.0655742 0.0964284 -0.101859 113 57 38
0.0652891 0.0946111 -0.104252 189 198 180
0.0656721 0.0895731 -0.101565 85 43 0
0.0665167 0.0941036 -0.103454 92 67 38
0.0644582 0.0930644 -0.10249 213 133 96
0.0589132 0.0939426 -0.0971091 154 92 73
0.0582146 0.0953074 -0.0977489 71 57 39
0.0660215 0.089084 -0.101341 62 41 0
0.0671697 0.0956158 -0.0954718 110 51 43
0.0629647 0.0970012 -0.101633 123 66 49
0.064426 0.0926418 -0.102226 188 151 112
0.0674046 0.0932957 -0.103577 6 5 18
0.0627373 0.0805803 -0.095774 82 0 0
0.064984 0.0973129 -0.10175 122 56 41
0.065428 0.0955063 -0.103073 134 105 71
0.063342 0.0968344 -0.101655 121 63 43
0.0628429 0.0946475 -0.101056 100 42 25
0.0610177 0.0958405 -0.100978 104 66 45
0.0607449 0.0888463 -0.0963525 76 34 23
0.0604011 0.0903119 -0.0978903 69 35 28
0.0680602 0.0960158 -0.0972519 82 15 15
0.0661284 0.0969802 -0.0963323 123 69 48
0.0683074 0.095813 -0.0990723 129 118 76
0.0693829 0.089706 -0.0953458 212 124 94
0.0683151 0.0961441 -0.0986422 117 80 36
0.0640546 0.093762 -0.102911 184 131 104
0.0684771 0.0942655 -0.0999186 118 68 39
0.0652458 0.0951141 -0.102419 107 42 20
0.0658462 0.0797244 -0.0927935 0 0 0
0.0664028 0.0857286 -0.0968866 189 125 92
0.0680252 0.0922545 -0.101533 124 50 41
0.0668048 0.0954046 -0.101115 118 65 44
0.0689337 0.0924884 -0.0971507 122 66 55
0.0599111 0.0908634 -0.0969975 81 39 27
0.0603612 0.0929566 -0.0982974 61 0 0
0.0647262 0.0883426 -0.10464 255 255 255
0.060269 0.097289 -0.100224 118 62 43
0.0678928 0.095516 -0.0988289 110 49 33
0.0642653 0.0939334 -0.10377 122 95 60
0.0613809 0.0971356 -0.101637 141 72 52
0.063988 0.0950603 -0.101984 100 45 29
0.0677268 0.0961359 -0.0981296 132 97 62
0.0701177 0.0928656 -0.100449 174 153 112
0.0651732 0.0915708 -0.102413 146 52 8
0.0588023 0.0938569 -0.0992194 30 0 0
0.0623724 0.0943285 -0.100986 134 75 56
0.0662468 0.0976441 -0.0966583 112 50 40
0.06565 0.0946409 -0.10308 112 110 74
0.064795 0.0941552 -0.102935 170 112 77
0.0676982 0.0881126 -0.0974836 110 62 19
0.0700618 0.0932426 -0.0985066 174 139 89
0.0562248 0.0956639 -0.0956589 255 255 255
0.0603752 0.0929864 -0.092949 80 17 0
0.0617171 0.0795614 -0.0911731 0 0 0
0.0609026 0.0908433 -0.0927758 190 115 92
0.0657699 0.0926345 -0.0906251 110 47 25
0.057584 0.090044 -0.0887842 154 89 58
0.0591477 0.0920016 -0.0954041 127 74 54
0.0595183 0.0936145 -0.0929023 191 117 97
0.0567298 0.0928674 -0.092029 114 43 0
0.0598766 0.0927501 -0.0974826 160 111 94
0.0659773 0.0923246 -0.0905462 119 46 23
0.0630814 0.0825788 -0.0922676 98 34 0
0.0586632 0.0979486 -0.0978775 170 92 67
0.0595535 0.0928627 -0.096951 116 74 51
0.0663133 0.0820871 -0.0916913 143 32 0
0.0587538 0.0970184 -0.0979833 192 118 90
0.0591933 0.0930004 -0.0959335 125 73 54
0.0586713 0.096956 -0.0978697 193 121 97
0.0598864 0.0884763 -0.0909893 81 22 0
0.0595498 0.0929021 -0.0969791 118 74 53
0.0580172 0.096473 -0.0974048 180 145 97
0.062291 0.0934777 -0.100933 63 0 0
0.0591453 0.0930046 -0.0964499 154 86 68
0.0599782 0.0917285 -0.0979915 255 255 255
0.0592778 0.0927844 -0.0965298 144 88 73
0.0615396 0.0857507 -0.0926771 102 45 23
0.0584014 0.096407 -0.0976959 170 104 70
0.0583823 0.0967048 -0.0976724 193 120 86
0.0593291 0.0928799 -0.0966629 155 108 80
0.0571958 0.0913357 -0.0884399 114 52 32
0.0661216 0.0919268 -0.0909276 136 73 39
0.060842 0.0902978 -0.0928859 163 104 85
0.0592086 0.0929065 -0.0960228 115 62 46
0.059521 0.0923119 -0.0967393 147 106 54
0.0592526 0.0926584 -0.0959429 151 78 53
0.0671828 0.0874056 -0.0874888 91 33 16
0.0618902 0.0844637 -0.0943663 50 30 22
0.0594362 0.0889255 -0.090915 129 64 46
0.0587617 0.0906163 -0.0933867 134 65 45
0.0660149 0.0921697 -0.0903359 72 14 0
0.0585705 0.098397 -0.0982055 180 108 82
0.0624907 0.0929687 -0.100948 69 20 0
0.0595175 0.0905885 -0.0952205 84 41 30
0.0580047 0.0962264 -0.097202 187 115 86
0.061465 0.0917734 -0.0994255 255 255 255
0.0592765 0.0926917 -0.0960328 121 60 32
0.0626235 0.0860412 -0.100349 82 76 80
0.057723 0.0973705 -0.0974111 233 186 151
0.0590397 0.0922142 -0.0951667 137 78 55
0.0615405 0.0925618 -0.0991642 103 51 36
0.067258 0.0890181 -0.0877771 93 31 14
0.0605978 0.0936245 -0.0986175 148 83 63
0.0583655 0.098113 -0.0981763 255 198 141
0.0591244 0.0905094 -0.0957779 134 54 22
0.0586218 0.0981441 -0.0983205 158 93 65
0.061393 0.0923294 -0.0992248 255 255 255
0.0592726 0.0963329 -0.0987834 173 98 73
0.0599527 0.0935268 -0.0977467 154 100 70
0.059032 0.0971388 -0.0988446 255 154 93
0.0581477 0.0963786 -0.0973986 186 118 86
0.0583291 0.0967406 -0.0976598 180 137 86
0.0590929 0.0969992 -0.0990638 152 70 61
0.0577761 0.0958282 -0.0969549 183 94 72
0.058502 0.0967167 -0.0975937 199 132 100
0.0586292 0.0968374 -0.097772 170 108 78
0.0601236 0.0920833 -0.0979415 212 137 114
0.0603466 0.0936207 -0.0983816 148 97 95
0.0606818 0.0940425 -0.0986575 149 91 72
0.0607327 0.0935458 -0.0984684 139 74 67
0.0587052 0.0978887 -0.0979416 148 81 55
0.0603318 0.0931952 -0.0979148 177 135 121
0.057531 0.0948346 -0.0957367 171 101 79
0.0603321 0.093485 -0.0984102 142 91 89
0.0574921 0.0959934 -0.0967521 153 103 80
0.0606122 0.0945985 -0.0987907 142 83 61
0.0659151 0.0922559 -0.0907694 113 50 29
0.0658827 0.0919574 -0.0911805 109 46 41
0.0576138 0.096278 -0.0967642 206 136 102
0.0663448 0.0835088 -0.0922256 182 58 0
0.0574746 0.0851054 -0.0771688 25 0 0
0.0563019 0.0965855 -0.0951474 226 131 105
0.060324 0.0910884 -0.0979904 212 147 126
0.058275 0.0967114 -0.0974176 202 121 92
0.0579615 0.0963788 -0.0970997 201 137 100
0.0576064 0.0964729 -0.0968283 213 149 119
0.0579687 0.0948127 -0.0966487 137 68 45
0.0664739 0.082358 -0.0918275 200 57 0
0.0600294 0.0849099 -0.0718974 0 0 0
0.0587218 0.097403 -0.0979897 190 101 69
0.057597 0.09538 -0.0965027 168 98 75
0.0595183 0.0975925 -0.0998541 139 81 61
0.0671815 0.0958873 -0.095874 94 27 14
0.056537 0.0959818 -0.0952393 222 130 107
0.0594883 0.0934011 -0.0929329 188 114 94
0.0586356 0.09685 -0.0977833 179 107 75
0.0575806 0.0954469 -0.0964889 172 101 75
0.061957 0.0870711 -0.0968173 99 58 38
0.0607945 0.0935488 -0.098657 126 71 43
0.06574 0.0973132 -0.0956291 125 78 66
0.0583231 0.0981872 -0.0979879 191 111 86
0.0580124 0.0964892 -0.0972534 197 132 96
0.057634 0.0954596 -0.0964912 176 98 75
0.0626791 0.0823221 -0.0831255 79 30 8
0.0588297 0.0972222 -0.0980231 172 93 61
0.0593477 0.0976266 -0.0994344 131 62 41
0.0662712 0.0912885 -0.0909094 83 21 0
0.058737 0.0979948 -0.0980848 144 82 58
0.0577688 0.0935169 -0.0935029 170 92 62
0.0606502 0.0940532 -0.0987161 135 83 65
0.0665633 0.0970126 -0.0969578 132 66 49
0.0599633 0.0936588 -0.0978728 103 59 69
0.0661198 0.0965875 -0.0958121 100 46 27
0.0672937 0.0861488 -0.0908678 109 41 0
0.0642538 0.0896178 -0.101347 80 31 17
0.0587998 0.0966403 -0.0981255 156 84 55
0.059191 0.0931062 -0.0969664 136 76 56
0.0607656 0.0941686 -0.0987062 141 96 77
0.062303 0.0833969 -0.0944271 118 58 51
0.0626575 0.0944499 -0.101494 122 69 49
0.0582681 0.0922417 -0.0946741 48 0 0
0.0594831 0.09044 -0.0963702 171 90 55
0.0664105 0.0823653 -0.0918345 169 37 0
0.0665544 0.0847286 -0.0920308 0 0 0
0.0666616 0.097297 -0.0975617 124 69 49
0.0615341 0.084968 -0.0944508 55 29 22
0.0577421 0.0976184 -0.0974128 241 174 131
0.0605625 0.0936054 -0.0986247 146 91 75
0.0589361 0.0822746 -0.0947773 0 0 0
0.0606804 0.0936072 -0.0986025 141 73 52
0.0671293 0.0850955 -0.0918296 0 0 0
0.0643898 0.0928677 -0.10243 188 115 78
0.0609173 0.0890965 -0.0972088 82 34 23
0.0578191 0.094822 -0.0962929 137 79 56
0.0590644 0.0977096 -0.0986626 118 62 44
0.0606598 0.0891261 -0.0966958 67 23 12
0.0602837 0.0931117 -0.0982153 0 0 0
0.0598416 0.0975097 -0.100313 136 72 52
0.0558165 0.0956207 -0.0923269 221 128 90
0.0573173 0.0872674 -0.0845574 66 14 0
0.0670514 0.087424 -0.0904032 100 38 17
0.0671759 0.0864379 -0.0873667 89 32 13
0.0621316 0.0844609 -0.074608 9 0 0
0.0669331 0.0895808 -0.0884519 96 35 18
0.0622232 0.0757351 -0.091154 0 0 0
0.0637517 0.0825776 -0.0816121 80 0 0
0.0670106 0.0892815 -0.0881638 92 36 16
0.0614202 0.083545 -0.0721651 0 0 0
0.0659183 0.0881719 -0.100285 111 46 38
0.0666885 0.0857192 -0.0854847 93 33 17
0.0640888 0.0821083 -0.0847793 97 38 16
0.0668516 0.0867596 -0.0908319 102 35 16
0.0614056 0.0823775 -0.0800974 77 32 0
0.0597739 0.0965864 -0.099996 182 112 93
0.0661926 0.0973775 -0.096743 126 66 51
0.0586245 0.0976463 -0.0985068 175 95 76
0.0647809 0.0815615 -0.0863879 91 55 0
0.0674106 0.0887752 -0.0990543 112 36 25
0.0666892 0.090607 -0.102438 95 42 51
0.0631156 0.0841563 -0.0948494 50 24 19
0.0589669 0.084243 -0.0867576 92 30 25
0.0626428 0.0869254 -0.0991298 121 99 83
0.065578 0.0828277 -0.0864963 102 41 23
0.0669418 0.0847546 -0.0866251 98 43 29
0.0597989 0.0823408 -0.0725934 0 0 0
0.057431 0.085441 -0.0792865 36 18 0
0.0572846 0.0838359 -0.0749276 0 0 0
0.0589903 0.0842108 -0.079748 50 11 0
0.063897 0.0924223 -0.10253 152 99 74
0.0637309 0.0966912 -0.101722 119 60 41
0.0600485 0.0821652 -0.0719207 0 0 0
0.0650493 0.0923409 -0.102692 255 196 154
0.0622351 0.0892794 -0.0991351 92 39 34
0.0598523 0.0835222 -0.0747643 0 0 0
0.060429 0.0829788 -0.0704723 0 0 0
0.0647084 0.0821666 -0.0859321 95 38 16
0.059842 0.0828798 -0.0702587 0 0 0
0.0592478 0.0928826 -0.0982014 179 127 108
0.0599955 0.0829201 -0.0718236 0 0 0
0.0588197 0.094395 -0.0973511 156 99 82
0.0657337 0.0842749 -0.0813485 71 27 0
0.0630047 0.0806299 -0.0861545 82 35 24
0.0594872 0.0968646 -0.0996264 143 81 65
0.0606607 0.0838601 -0.0740189 22 0 0
0.067141 0.0872227 -0.0860492 93 35 17
0.0664244 0.0842771 -0.0859787 97 39 23
0.0663897 0.0840611 -0.0863417 102 41 26
0.0602325 0.0832295 -0.0726351 0 0 0
0.0596646 0.0822457 -0.0714117 0 0 0
0.0607186 0.0833354 -0.0764939 45 18 0
0.066688 0.0846113 -0.0861611 101 40 25
0.0605778 0.0841359 -0.0755894 0 0 0
0.065088 0.0921029 -0.102515 246 188 126
0.0617963 0.0848379 -0.0744824 22 0 0
0.0668824 0.085629 -0.0862099 90 34 19
0.0613478 0.0847914 -0.0753775 28 0 0
0.0619188 0.0844646 -0.0735713 0 0 0
0.0605133 0.083451 -0.0705092 0 0 0
0.0636952 0.083327 -0.0816405 75 26 0
0.0607555 0.095173 -0.100013 104 57 41
0.0693243 0.0934144 -0.0982527 148 113 129
0.0587553 0.0954786 -0.0982789 150 89 65
0.0649396 0.092289 -0.102508 176 118 88
0.0689001 0.0865383 -0.0972474 97 59 30
0.0592662 0.0936245 -0.0977131 172 90 74
0.0637336 0.0919474 -0.101832 86 51 26
0.0680056 0.0951931 -0.100929 136 74 56
0.0599281 0.0904107 -0.096538 89 43 30
0.0645802 0.0864778 -0.0973386 104 55 34
0.0611392 0.0836617 -0.0740604 0 0 0
0.0599466 0.0874026 -0.0925499 107 46 25
0.0628694 0.079747 -0.0865794 90 49 0
0.0635958 0.0796483 -0.0857531 140 70 0
0.063375 0.0805972 -0.0873695 99 44 20
0.0670466 0.0960533 -0.10105 117 64 50
0.0636618 0.0816286 -0.0888933 106 58 37
0.0608267 0.0833988 -0.0759438 31 0 0
0.0618712 0.0840992 -0.0750227 38 0 0
0.059999 0.0951296 -0.09863 136 91 62
0.0626676 0.0963633 -0.101269 122 64 45
0.0651233 0.0946208 -0.102882 162 91 52
0.0647999 0.0934772 -0.102243 91 34 25
0.060359 0.0937595 -0.0984611 114 64 47
0.0669995 0.0967416 -0.0960982 155 98 75
0.0616326 0.0832259 -0.0774992 53 39 0
0.0599913 0.08157 -0.0702888 0 0 0
0.0592525 0.0936922 -0.0978767 159 82 64
0.0670452 0.0892734 -0.100313 110 58 31
0.0626101 0.0842237 -0.0962837 119 55 14
0.0630527 0.0806994 -0.087937 118 39 26
0.0650234 0.0947716 -0.102899 165 106 85
0.0629493 0.0879961 -0.104336 255 255 255
0.0608576 0.0843338 -0.0750273 23 0 0
0.0659255 0.0965412 -0.0955052 106 42 25
0.0654566 0.0936432 -0.102763 172 109 72
0.0674151 0.091976 -0.102806 33 22 0
0.0676264 0.0894384 -0.0996191 172 112 76
0.0636128 0.0874418 -0.0974056 87 39 21
0.0680462 0.090869 -0.100274 109 58 42
0.055773 0.095743 -0.0921038 216 123 94
0.0571109 0.0874542 -0.0847692 60 11 0
0.0669705 0.0869647 -0.0905004 101 37 18
0.066734 0.0864823 -0.0905868 104 41 15
0.0672365 0.0867048 -0.0876626 90 32 13
0.0622777 0.0847862 -0.0746239 17 0 0
0.0669598 0.0894367 -0.0885681 90 35 16
0.058512 0.0838123 -0.0821542 94 22 0
0.0603491 0.083716 -0.076703 39 0 0
0.0618388 0.0757141 -0.0910097 0 0 0
0.0639022 0.0824479 -0.0818871 96 0 0
0.0670347 0.0896308 -0.0882514 96 27 14
0.0580555 0.0841322 -0.0772146 20 0 0
0.0606915 0.0831572 -0.0772585 22 8 0
0.0622703 0.0895669 -0.0993264 113 60 47
0.0557153 0.0959797 -0.0924368 219 128 98
0.0669075 0.0855119 -0.0855755 128 73 66
0.0644536 0.0817865 -0.0856021 92 39 12
0.0675237 0.0872436 -0.0875539 86 28 0
0.0666541 0.0869929 -0.0914064 100 36 19
0.0661087 0.0975683 -0.0959363 103 54 62
0.0590932 0.0984043 -0.0985748 117 60 37
0.0630989 0.0954735 -0.101813 230 151 121
0.0657483 0.081369 -0.0860956 78 0 0
0.0635025 0.0845697 -0.0950986 46 25 20
0.058702 0.0844318 -0.086331 87 35 21
0.061344 0.0863651 -0.0950563 49 24 18
0.0656383 0.0830842 -0.0860714 103 47 29
0.0669077 0.0852271 -0.0864793 100 39 16
0.06689 0.093524 -0.094653 92 41 27
0.0636519 0.0922344 -0.10207 148 85 41
0.060263 0.0828215 -0.0726434 0 0 0
0.0573362 0.0857215 -0.0791903 41 16 0
0.0597277 0.0818241 -0.0849927 115 0 0
0.0588261 0.0837077 -0.0791273 56 0 0
0.0631614 0.0961834 -0.101466 103 51 28
0.0606622 0.0808881 -0.0711221 0 0 0
0.0642257 0.0926776 -0.102433 217 158 136
0.0606432 0.0824197 -0.0703942 0 0 0
0.0585793 0.08375 -0.0747668 0 0 0
0.065024 0.0822703 -0.0861837 110 51 35
0.0599735 0.0827679 -0.0707499 0 0 0
0.0602775 0.0832416 -0.0712446 0 0 0
0.0689566 0.094199 -0.100769 192 166 90
0.0623197 0.0881104 -0.0979419 93 49 37
0.0661799 0.084975 -0.0816141 70 21 0
0.0622468 0.0805914 -0.0862083 101 47 29
0.0593619 0.0968991 -0.099521 165 83 64
0.0602453 0.0838065 -0.0738325 20 0 0
0.0670848 0.0868778 -0.0862805 95 40 22
0.0668694 0.0848467 -0.0857083 110 47 33
0.0607864 0.0842748 -0.0738052 34 0 0
0.0660281 0.0835845 -0.0859906 101 41 28
0.0604078 0.0837459 -0.073335 0 0 0
0.0615614 0.0845092 -0.0744164 0 0 0
0.0601328 0.0828171 -0.0713821 0 0 0
0.060536 0.0839156 -0.076149 40 0 0
0.0571689 0.0815006 -0.0716883 0 0 0
0.0666138 0.0846985 -0.08586 100 41 27
0.060575 0.0839849 -0.0748096 0 0 0
0.0644282 0.0922981 -0.102485 191 146 90
0.0614984 0.0847687 -0.0741193 23 0 0
0.0666326 0.0853461 -0.0856262 93 33 22
0.060313 0.0839177 -0.0709302 0 0 0
0.0688122 0.0945916 -0.0983895 130 86 60
0.0649704 0.0925307 -0.102702 193 150 115
0.0684272 0.0912362 -0.100848 134 54 0
0.0664466 0.0972401 -0.0954896 120 59 48
0.0587268 0.094118 -0.0971695 150 86 66
0.0622812 0.0901782 -0.100503 99 47 42
0.0595182 0.0935005 -0.097389 161 104 83
0.0591182 0.0945288 -0.0983775 75 35 0
0.0613737 0.0842319 -0.0738292 0 0 0
0.0637292 0.0792523 -0.0862645 123 59 0
0.0669595 0.0964312 -0.100642 121 71 52
0.0634561 0.0812138 -0.0878321 140 66 37
0.0610798 0.0841036 -0.0756311 0 0 0
0.0690923 0.0930206 -0.100881 182 117 53
0.062751 0.0844651 -0.0748045 45 0 0
0.0665329 0.0795154 -0.091541 0 0 0
0.0646381 0.0951908 -0.102447 119 66 55
0.0661509 0.0889923 -0.101357 133 74 49
0.0655218 0.0893408 -0.102193 206 185 74
0.059845 0.0935864 -0.097781 0 0 0
0.0650106 0.0944858 -0.102764 152 76 51
0.0668704 0.0970112 -0.0969143 150 95 62
0.0615255 0.0835431 -0.0764765 55 0 0
0.0616992 0.0843934 -0.0747867 43 0 0
0.0604672 0.0822212 -0.0704814 0 0 0
0.059124 0.0932224 -0.0971291 140 61 35
0.0626687 0.0811449 -0.0877112 107 38 26
0.062384 0.0861053 -0.095921 61 32 26
0.0662427 0.0895918 -0.100961 108 67 45
0.0609217 0.0844466 -0.0762345 46 0 0
0.0619569 0.0938552 -0.100433 134 88 67
0.0588447 0.0946429 -0.0976409 166 100 78
0.0654502 0.0943871 -0.103155 162 110 82
0.0668427 0.0926049 -0.103009 81 0 37
0.0629963 0.0869228 -0.0973381 99 35 35
0.0679827 0.0946421 -0.100328 116 61 36
0.0635079 0.0917139 -0.101748 138 105 74
0.0569101 0.0917473 -0.0883417 121 57 31
0.0595763 0.0926042 -0.0967981 128 91 65
0.0595862 0.0928645 -0.0969671 119 75 51
0.0587556 0.0985713 -0.098381 163 99 75
0.0595563 0.092885 -0.0969539 119 75 54
0.0627562 0.0931374 -0.101144 51 0 0
0.059218 0.0927721 -0.096489 147 93 80
0.061276 0.0855849 -0.0928602 120 63 39
0.0584025 0.0964041 -0.0976877 172 103 69
0.0584374 0.096699 -0.097715 175 113 78
0.0594896 0.0932002 -0.0969262 148 90 68
0.0585836 0.0981054 -0.0983647 184 98 68
0.0593093 0.092982 -0.0963559 115 69 48
0.0591823 0.0928641 -0.0960668 138 76 49
0.05943 0.0929368 -0.0967554 137 65 47
0.0660837 0.0917593 -0.0907371 70 7 0
0.0577585 0.0954376 -0.0966472 174 101 77
0.0616802 0.0869895 -0.0961649 96 47 34
0.0592104 0.0929835 -0.0964353 130 92 71
0.0586305 0.0981293 -0.0985632 156 89 64
0.0620458 0.0833242 -0.0942993 100 55 41
0.0581304 0.0944714 -0.0967696 132 50 28
0.0624167 0.0930944 -0.100851 67 22 0
0.0580132 0.0962242 -0.0972395 180 112 85
0.0591836 0.0930656 -0.0963779 141 87 64
0.0576174 0.0974084 -0.0973438 230 181 143
0.0588161 0.0984076 -0.0983035 152 90 67
0.0583281 0.0981902 -0.0981849 255 195 137
0.0584703 0.096737 -0.0977973 167 103 78
0.0578635 0.0946042 -0.0959014 163 90 70
0.0583542 0.0949934 -0.0976464 129 50 34
0.0597124 0.0935841 -0.097492 161 92 67
0.060383 0.0948588 -0.0986904 147 96 72
0.0581372 0.0963882 -0.0974233 183 117 86
0.0592702 0.0968357 -0.0992289 135 76 62
0.0577805 0.0958261 -0.0969516 182 96 74
0.0584599 0.0968217 -0.097607 195 123 93
0.0574728 0.0952278 -0.095726 194 114 88
0.065642 0.0826818 -0.0916401 152 42 0
0.0582899 0.0943044 -0.0964517 165 92 73
0.0604957 0.0929161 -0.0980736 156 131 124
0.0570744 0.0967138 -0.0964232 240 151 115
0.0581911 0.0896005 -0.0935797 172 28 0
0.0605553 0.0947699 -0.0989273 137 70 50
0.0659022 0.0921898 -0.0910954 111 52 17
0.0575726 0.096287 -0.0967868 207 140 109
0.0630824 0.0939107 -0.101458 89 32 14
0.0582564 0.096459 -0.0975473 171 102 80
0.0662152 0.0834741 -0.0922014 207 71 0
0.0599242 0.0931278 -0.0974971 167 123 107
0.0562351 0.0965879 -0.0952347 226 137 117
0.0614279 0.0903132 -0.0999677 255 255 255
0.0579626 0.0963327 -0.0970696 202 128 97
0.0577989 0.0965687 -0.097161 206 131 101
0.0572169 0.0960728 -0.0961611 221 137 106
0.0570125 0.0856737 -0.0771174 0 0 0
0.05677 0.0965581 -0.0961253 231 143 115
0.0664542 0.0969037 -0.0965657 138 83 57
0.0583554 0.0977505 -0.0975305 195 119 88
0.0576805 0.0955028 -0.0965488 177 103 78
0.0595152 0.0959528 -0.0986271 142 78 58
0.0593091 0.0978707 -0.0996441 135 70 51
0.056819 0.0968622 -0.0964578 230 155 129
0.0615669 0.0908279 -0.0999474 255 255 255
0.0585983 0.096974 -0.0978192 185 108 81
0.0625937 0.0937403 -0.10103 88 35 17
0.0665864 0.0969512 -0.0967976 134 74 47
0.0577223 0.0944708 -0.095478 167 92 70
0.0662703 0.096924 -0.0965063 118 64 45
0.0659215 0.0969536 -0.0955888 128 78 57
0.0583709 0.0981042 -0.0979198 189 107 76
0.0576786 0.0959009 -0.0969333 192 105 79
0.0600606 0.0922647 -0.09788 187 137 111
0.0574029 0.0964741 -0.0966182 219 136 106
0.0583476 0.0943411 -0.0965876 165 97 77
0.0587402 0.0979507 -0.0980553 143 73 51
0.060111 0.0932962 -0.0973959 129 77 62
0.0608213 0.0904661 -0.0992632 255 255 255
0.0573778 0.0961627 -0.0965882 210 131 104
0.0678941 0.0963013 -0.097045 255 230 143
0.0607089 0.0859833 -0.0949259 255 255 197
0.0607129 0.0939761 -0.0986128 141 79 65
0.06658 0.0964696 -0.0962851 111 57 44
0.0658757 0.0967028 -0.0955385 120 66 48
0.0588212 0.0971305 -0.0978829 187 101 74
0.0603007 0.0946821 -0.0984998 143 99 78
0.0607216 0.0940397 -0.0986294 124 60 41
0.0587647 0.0965876 -0.0980694 152 77 51
0.0604523 0.0946317 -0.0989197 121 96 71
0.0630051 0.0948402 -0.101277 101 43 24
0.0589032 0.0936584 -0.0968342 153 91 75
0.0601056 0.0952547 -0.0989297 124 74 47
0.0620237 0.0938507 -0.100563 75 0 0
0.0661626 0.0967344 -0.0963178 98 38 22
0.0590464 0.094481 -0.0981561 49 61 0
0.0598761 0.0893291 -0.0944964 53 21 17
0.0669939 0.084978 -0.091991 0 0 0
0.0577833 0.0946102 -0.0959376 151 82 60
0.0579594 0.095054 -0.0964003 179 104 77
0.0601315 0.0940713 -0.0982077 157 101 83
0.0678588 0.0956937 -0.0966515 100 29 24
0.059957 0.0972819 -0.100058 125 65 43
0.0634754 0.0827442 -0.0921162 94 33 0
0.0613268 0.0856426 -0.0928245 110 54 33
0.0586211 0.0984956 -0.0983864 176 115 87
0.0663612 0.0856397 -0.0919382 109 44 19
0.0602824 0.0931061 -0.0982328 0 0 0
0.0610891 0.0833673 -0.0763008 31 0 0
0.0659762 0.0963964 -0.0953561 102 52 35
0.0596565 0.0937082 -0.0977811 0 0 0
0.0560259 0.094544 -0.0931247 238 150 96
0.062245 0.0904495 -0.0995574 92 40 24
0.066932 0.0873463 -0.0896179 97 39 16
0.0565229 0.0923691 -0.090771 156 80 55
0.0571267 0.0856195 -0.0838929 80 0 0
0.0601425 0.0835818 -0.0760782 49 15 0
0.0673126 0.0863267 -0.086912 95 37 17
0.0668385 0.0836274 -0.091142 133 51 20
0.0644125 0.0842236 -0.0947759 54 26 20
0.0586903 0.0942616 -0.0971347 155 88 69
0.0651641 0.0939678 -0.102849 170 113 75
0.0624628 0.0956426 -0.101184 115 58 41
0.0662652 0.0933818 -0.103036 54 47 49
0.0661689 0.0817576 -0.0883187 113 67 38
0.0621408 0.0932149 -0.101188 178 112 61
0.0663163 0.096717 -0.0952106 104 43 33
0.0676808 0.0954297 -0.100692 164 130 105
0.062861 0.0943571 -0.101211 116 61 48
0.0617417 0.094144 -0.101084 238 137 47
0.0634073 0.0938717 -0.101741 131 61 43
0.0648436 0.0926541 -0.102025 100 43 26
0.0595974 0.0893299 -0.0960652 223 109 61
0.0624194 0.0856645 -0.0757241 46 0 0
0.0603442 0.0827206 -0.0698162 0 0 0
0.0674307 0.0897925 -0.100454 205 123 51
0.0661621 0.0961759 -0.102629 135 109 63
0.0617935 0.0944908 -0.101057 133 63 48
0.066914 0.0965128 -0.0996461 120 59 41
0.067141 0.0874629 -0.0994245 162 107 104
0.0591141 0.0967668 -0.100012 208 118 89
0.0656817 0.0853513 -0.0833557 78 23 0
0.0619644 0.0891638 -0.0987638 109 62 44
0.0661433 0.0895486 -0.101074 105 55 28
0.0625439 0.0962101 -0.101334 142 73 53
0.0666214 0.0872398 -0.100269 255 143 138
0.0650767 0.0937791 -0.102878 222 176 123
0.0603525 0.0953218 -0.100205 145 81 56
0.0661444 0.0969076 -0.0957088 143 109 81
0.0634762 0.0819609 -0.0941511 24 18 0
0.0646989 0.0849103 -0.0959964 58 28 21
0.0614275 0.0955321 -0.10092 160 116 87
0.0676829 0.091528 -0.0942046 93 48 34
0.0652616 0.0939129 -0.102984 206 128 98
0.0604127 0.0938296 -0.0985702 90 61 44
0.0608534 0.0881124 -0.0980301 121 50 29
0.0620715 0.0946244 -0.100856 139 68 44
0.0609142 0.0934245 -0.0986189 64 0 0
0.0639173 0.0877629 -0.104641 255 255 255
0.0707994 0.0950777 -0.0946536 116 51 49
0.0649605 0.094332 -0.102643 179 106 78
0.0605338 0.0939103 -0.0984726 151 84 66
0.066398 0.0971475 -0.0967732 135 83 55
0.0624481 0.0902651 -0.0997289 88 42 26
0.0668683 0.0871377 -0.0894023 98 38 14
0.0566611 0.0922516 -0.0908577 158 77 59
0.0613781 0.0836377 -0.0737221 0 0 0
0.0625065 0.0850171 -0.0758547 55 24 0
0.0621917 0.0857286 -0.0954876 58 29 22
0.0620325 0.0850319 -0.0956227 68 30 22
0.0593555 0.0980869 -0.0994393 136 75 56
0.0617586 0.0964992 -0.100953 124 69 51
0.0660934 0.0933734 -0.104414 106 62 30
0.0636 0.083489 -0.0948041 64 29 31
