ply
format ascii 1.0
comment Created by Open3D
element vertex 1217
property double x
property double y
property double z
property uchar red
property uchar green
property uchar blue
end_header
0.0479358 0.108001 -0.0789345 144 77 48
0.0479933 0.0998574 -0.0834232 186 97 49
0.048144 0.11397 -0.0805041 119 62 41
0.0483828 0.115822 -0.0809145 136 66 37
0.0482977 0.11741 -0.0886881 188 90 61
0.0484965 0.117994 -0.0876834 178 81 55
0.0469263 0.113208 -0.0842978 162 77 55
0.0487926 0.117005 -0.0807745 129 64 46
0.0470361 0.114088 -0.0858673 164 82 55
0.0473672 0.114658 -0.0880505 162 62 35
0.0492323 0.0995212 -0.0778038 72 0 0
0.0473065 0.114266 -0.0830162 161 77 53
0.0468407 0.113105 -0.0833692 151 71 58
0.0472689 0.114112 -0.0892075 152 62 32
0.046663 0.112283 -0.0873859 168 84 58
0.0495928 0.102933 -0.0796304 142 62 41
0.0490288 0.103412 -0.077663 131 70 0
0.0486923 0.116728 -0.0803926 109 42 0
0.0485921 0.104988 -0.0779173 84 42 17
0.0477659 0.11612 -0.0873062 175 76 51
0.0471939 0.114839 -0.0866683 177 86 55
0.0476674 0.115844 -0.0849774 169 99 64
0.0477894 0.116193 -0.0887039 161 78 51
0.0546134 0.122038 -0.056687 0 0 0
0.0479661 0.116228 -0.0919651 200 102 71
0.0476043 0.110854 -0.0900869 131 48 0
0.0470544 0.113723 -0.0867503 166 75 50
0.0485565 0.11825 -0.086715 177 89 72
0.0477143 0.115901 -0.085957 179 88 65
0.047494 0.114671 -0.0838801 149 67 35
0.0470236 0.113865 -0.0847092 174 82 69
0.0478384 0.112586 -0.0797571 124 47 7
0.0482797 0.117347 -0.0860304 172 82 59
0.0479556 0.107186 -0.0894972 134 48 0
0.0510124 0.10906 -0.0971252 251 156 104
0.0471741 0.112207 -0.0891752 150 55 29
0.0478448 0.115979 -0.0898631 194 97 72
0.0481214 0.117203 -0.0870304 176 78 54
0.0477801 0.105657 -0.0877833 159 79 48
0.047589 0.115397 -0.0851885 203 90 68
0.0470381 0.113651 -0.0837065 169 68 50
0.0493932 0.102879 -0.0774549 105 44 0
0.046712 0.108583 -0.0850657 154 70 44
0.0488958 0.117698 -0.0805146 89 0 0
0.047778 0.115632 -0.083965 159 74 47
0.047926 0.116495 -0.0854476 179 87 62
0.0472371 0.104571 -0.075362 0 0 0
0.0481042 0.113919 -0.0802995 136 76 50
0.0484109 0.10518 -0.0780478 105 50 0
0.0479011 0.108146 -0.0788728 123 69 32
0.0483873 0.114311 -0.0798812 65 0 0
0.0498976 0.100473 -0.0797467 135 61 0
0.04803 0.107121 -0.0784209 134 73 32
0.0466107 0.111568 -0.0872584 160 75 46
0.0481898 0.105771 -0.0891012 152 62 29
0.0466192 0.117669 -0.0716178 70 31 0
0.0490307 0.103553 -0.0770993 102 39 0
0.0474845 0.115014 -0.0833051 164 78 59
0.0463741 0.118841 -0.0649795 0 0 0
0.0464826 0.118004 -0.0650224 47 0 0
0.0465754 0.111908 -0.0861707 149 73 47
0.0481199 0.115802 -0.0823539 143 72 49
0.048569 0.111826 -0.0928111 219 126 77
0.051537 0.0789879 -0.062607 0 0 0
0.0478191 0.116537 -0.0787776 72 0 0
0.0476474 0.115581 -0.091115 201 112 82
0.0474773 0.114419 -0.0888798 184 107 80
0.0498818 0.101313 -0.0790286 134 76 0
0.0480125 0.112962 -0.0921047 214 110 86
0.0479037 0.107864 -0.0781266 70 0 0
0.0468801 0.119035 -0.0682355 58 0 0
0.0469529 0.113147 -0.0872686 157 81 48
0.0476895 0.113514 -0.0901031 180 93 71
0.0475813 0.116605 -0.0412816 0 0 0
0.0521808 0.122068 -0.0368821 0 0 0
0.0467902 0.11904 -0.0664682 49 0 0
0.0467218 0.118947 -0.0698063 57 0 0
0.0518351 0.108586 -0.104551 245 165 133
0.047607 0.112616 -0.0898753 176 107 82
0.0452453 0.116232 -0.0624551 35 0 0
0.0495496 0.100094 -0.0801288 47 20 0
0.0536231 0.104233 -0.0886487 59 6 0
0.0477585 0.110945 -0.0798773 149 83 38
0.0457123 0.116524 -0.0691059 60 12 0
0.0478266 0.108828 -0.090001 136 60 72
0.0466284 0.119316 -0.0639695 66 0 0
0.0440907 0.108051 -0.0680588 68 0 0
0.0454924 0.101313 -0.0695673 70 14 0
0.0480171 0.107132 -0.0542269 64 0 0
0.0481019 0.114506 -0.0932074 255 166 120
0.0459122 0.117402 -0.0679175 61 7 0
0.0459177 0.117455 -0.0656541 42 0 0
0.0451415 0.112806 -0.0702066 80 22 0
0.046705 0.119043 -0.0679232 53 25 0
0.0511155 0.120951 -0.0317218 0 0 0
0.0451361 0.118557 -0.0502485 15 0 0
0.0458501 0.11269 -0.0576721 21 0 0
0.0449601 0.113428 -0.0667068 74 19 0
0.0453557 0.112513 -0.0716735 88 29 0
0.0468646 0.118703 -0.0725383 77 17 0
0.0465406 0.0987987 -0.0697895 66 2 0
0.0452748 0.117116 -0.0630132 0 0 0
0.0453722 0.119602 -0.0516481 19 0 0
0.0463855 0.118204 -0.068412 56 0 0
0.0459893 0.115735 -0.0702691 68 23 0
0.0460043 0.0993318 -0.0676136 78 16 0
0.046146 0.117352 -0.0694554 66 0 0
0.0521162 0.121043 -0.0339632 0 0 0
0.0490227 0.0963296 -0.0772005 93 31 0
0.0466669 0.117842 -0.0707927 51 0 0
0.047956 0.117259 -0.0368372 0 0 0
0.0498823 0.120783 -0.0326157 0 0 0
0.0537102 0.105005 -0.0892269 140 90 62
0.0480651 0.113604 -0.0932666 233 148 112
0.0541641 0.107601 -0.0912485 225 143 122
0.0547195 0.111886 -0.0445433 34 0 0
0.0487522 0.116254 -0.081098 108 46 0
0.0484253 0.103931 -0.0877732 174 86 59
0.0481041 0.11425 -0.0804779 105 45 0
0.0542805 0.108305 -0.091685 195 122 103
0.0458528 0.108115 -0.0595351 92 32 0
0.0449796 0.120054 -0.0442809 0 0 0
0.0473527 0.0958413 -0.0689745 80 15 0
0.0450144 0.118979 -0.0420706 0 0 0
0.0459431 0.117908 -0.0427564 0 0 0
0.0455611 0.117719 -0.0473388 0 0 0
0.0508038 0.101188 -0.053179 88 0 0
0.0482248 0.10599 -0.0777306 81 0 0
0.0535548 0.104403 -0.103601 183 87 60
0.0465462 0.116419 -0.0439235 0 0 0
0.044169 0.105872 -0.0674202 87 20 0
0.0484021 0.116572 -0.0392743 0 0 0
0.0546281 0.104291 -0.104345 139 82 54
0.0535546 0.113984 -0.0438142 33 0 0
0.0445857 0.107452 -0.0705334 76 9 0
0.0528147 0.102982 -0.0871405 255 227 230
0.0638828 0.101915 -0.0526428 69 20 0
0.0415839 0.0764627 -0.0607781 0 0 0
0.0531305 0.105684 -0.09029 170 102 83
0.0535939 0.106771 -0.0912251 136 79 55
0.0485423 0.102946 -0.0868506 165 93 57
0.0505201 0.081939 -0.0678328 18 16 16
0.0481014 0.113664 -0.0804645 110 64 40
0.0388282 0.0763672 -0.0632577 0 0 0
0.0523378 0.104073 -0.0892211 139 98 85
0.0540138 0.107732 -0.0909422 180 102 88
0.0519491 0.103096 -0.0881537 131 68 0
0.0469809 0.120472 -0.0334163 0 0 0
0.0487692 0.0723007 -0.0546355 0 0 0
0.0531086 0.105424 -0.103416 213 117 86
0.0481909 0.0973193 -0.0792555 82 0 0
0.0479197 0.114037 -0.0950231 243 145 103
0.0415431 0.0752616 -0.0589637 0 0 0
0.0484596 0.112731 -0.095419 255 174 131
0.0487621 0.112008 -0.0953225 255 154 107
0.0485021 0.112008 -0.0939582 231 143 96
0.0490432 0.11135 -0.0955101 254 164 115
0.0485087 0.112405 -0.0949356 246 150 108
0.0497757 0.109834 -0.0957058 244 153 112
0.0488832 0.111112 -0.0944019 233 144 89
0.048954 0.103161 -0.0888001 135 61 18
0.0478468 0.109393 -0.0900224 161 60 0
0.0481966 0.0666661 -0.053329 0 0 0
0.0480016 0.0959975 -0.0841392 0 0 0
0.0497567 0.110666 -0.102635 226 119 97
0.0473459 0.0986706 -0.0832553 187 93 79
0.0493561 0.11058 -0.101048 223 131 105
0.0607727 0.0967484 -0.109904 124 69 51
0.0692089 0.0974422 -0.0863196 81 34 16
0.050761 0.0665113 -0.0515209 0 0 0
0.0502695 0.116941 -0.0302847 0 0 0
0.0530734 0.106144 -0.10374 251 135 96
0.0449811 0.0935609 -0.078852 74 0 0
0.0472892 0.118982 -0.0339119 0 0 0
0.0455133 0.103147 -0.0626699 115 50 33
0.0481987 0.101775 -0.087284 174 79 49
0.0467638 0.0985326 -0.0848667 199 123 88
0.0486718 0.117099 -0.079337 0 0 0
0.0466195 0.0950316 -0.079499 139 0 0
0.0543769 0.104391 -0.104251 173 87 58
0.0545918 0.104549 -0.104581 196 122 89
0.0513021 0.0876314 -0.0707143 101 23 0
0.068476 0.0911936 -0.0823049 75 24 12
0.0534675 0.105473 -0.10385 216 118 90
0.0496145 0.101599 -0.0797694 110 58 47
0.0529821 0.107024 -0.0920217 146 98 91
0.0567723 0.101223 -0.108502 196 72 49
0.045136 0.0710163 -0.0562089 0 0 0
0.0540921 0.100945 -0.10303 141 68 39
0.0525228 0.105715 -0.102931 213 115 86
0.0545828 0.102328 -0.103731 142 89 60
0.0472093 0.108016 -0.0874454 163 78 50
0.0512389 0.109341 -0.0973362 235 142 98
0.0488244 0.102059 -0.0882118 156 59 17
0.0552137 0.10508 -0.104963 196 114 90
0.0529198 0.0921275 -0.095733 255 255 243
0.0537125 0.104868 -0.103669 214 112 85
0.0497892 0.0938911 -0.0878022 75 35 27
0.0537435 0.104677 -0.103998 175 92 68
0.0542634 0.104819 -0.104092 186 112 78
0.0538116 0.105189 -0.103998 190 97 74
0.0506275 0.109001 -0.103777 245 160 131
0.0657675 0.0956737 -0.0633177 101 35 11
0.0505431 0.107841 -0.101762 234 137 109
0.0527848 0.104876 -0.0896828 63 0 0
0.0494281 0.0942674 -0.085323 58 33 78
0.0557134 0.104564 -0.105517 202 120 91
0.0501511 0.108989 -0.103226 222 130 111
0.0547495 0.100738 -0.103363 148 97 64
0.053418 0.106391 -0.104593 223 131 93
0.0540926 0.0981664 -0.098085 204 139 108
0.0503067 0.0796814 -0.0642816 0 0 0
0.0463585 0.0956374 -0.0802541 255 186 103
0.0511373 0.0838381 -0.0671502 9 0 0
0.0528223 0.104999 -0.0895596 176 107 102
0.0470041 0.0988368 -0.0849447 139 55 42
0.0538429 0.107406 -0.105574 233 148 112
0.0552804 0.100097 -0.103585 136 60 58
0.049718 0.109192 -0.0988906 213 127 95
0.0563564 0.106268 -0.10656 177 98 69
0.0499418 0.0902893 -0.0742046 85 36 57
0.0494308 0.095959 -0.0861278 66 30 27
0.0732078 0.0923594 -0.0991284 120 61 39
0.0707397 0.097082 -0.0881772 89 33 15
0.0722758 0.0953843 -0.101843 135 64 45
0.0528221 0.0826132 -0.0674666 4 10 16
0.0582919 0.102255 -0.109369 134 76 59
0.0471583 0.11887 -0.0343379 0 0 0
0.0563943 0.100761 -0.107075 184 85 71
0.0468766 0.100165 -0.0867252 87 0 0
0.0494646 0.0957953 -0.0863741 69 32 21
0.0561099 0.0847168 -0.0667925 31 7 0
0.0546857 0.106643 -0.105505 213 133 98
0.0531307 0.106585 -0.104537 234 134 107
0.0545856 0.105276 -0.104625 194 114 85
0.0493223 0.095793 -0.086507 81 40 31
0.0512608 0.109098 -0.096909 230 136 99
0.0456914 0.0709873 -0.0558654 0 0 0
0.0520352 0.105745 -0.102503 203 114 86
0.0600948 0.0973762 -0.110175 127 73 56
0.0542603 0.105562 -0.104705 199 132 96
0.0493626 0.0950369 -0.0870426 67 32 23
0.0703449 0.0931481 -0.0855812 89 39 25
0.061395 0.0832455 -0.0990862 102 47 24
0.0499799 0.0919849 -0.0861262 80 38 24
0.0558947 0.105099 -0.105717 171 95 64
0.051158 0.108597 -0.10405 244 161 126
0.0552052 0.10462 -0.104896 178 103 72
0.0612496 0.0832662 -0.0986669 104 55 38
0.0521561 0.086758 -0.0687122 109 37 11
0.0481923 0.110831 -0.0914554 150 57 0
0.0473653 0.111689 -0.0890623 178 92 68
0.0479181 0.112098 -0.0905127 190 91 76
0.0490892 0.105006 -0.0910998 137 58 34
0.0447488 0.0961693 -0.0836449 76 0 0
0.0497749 0.109403 -0.101039 225 136 111
0.0558041 0.101457 -0.104108 149 86 63
0.0713155 0.0910603 -0.0862053 99 47 32
0.0567121 0.101351 -0.10771 119 69 51
0.0492019 0.105152 -0.090698 158 80 50
0.049271 0.0954035 -0.0857533 92 38 25
0.0612447 0.0838193 -0.0995808 103 47 31
0.046242 0.0998071 -0.0873318 95 0 0
0.0484887 0.103618 -0.0902426 109 30 0
0.0508383 0.108318 -0.0958619 199 92 51
0.0496805 0.0964874 -0.085085 66 29 22
0.0485454 0.103433 -0.0903745 134 45 0
0.062179 0.0839464 -0.10001 105 51 32
0.0581456 0.094541 -0.104369 116 75 62
0.0514745 0.107937 -0.10347 247 154 118
0.0383634 0.0850179 -0.0780409 0 0 0
0.051999 0.104987 -0.101578 205 128 100
0.0520969 0.104456 -0.101472 201 122 101
0.0592866 0.100202 -0.109542 118 63 44
0.070506 0.0950539 -0.0866218 105 72 27
0.0707209 0.0921899 -0.0839573 50 11 14
0.0503087 0.109719 -0.103336 239 150 117
0.0495413 0.109787 -0.0997044 221 128 104
0.0488284 0.103934 -0.0893145 140 49 18
0.0524042 0.106221 -0.103419 228 132 98
0.0557223 0.104559 -0.105582 205 107 81
0.0585656 0.099805 -0.109375 114 57 37
0.0575774 0.0984478 -0.106719 117 56 37
0.0516896 0.108129 -0.104326 229 150 115
0.0591856 0.087362 -0.0998034 98 47 31
0.0522052 0.106213 -0.103057 227 135 96
0.055831 0.105678 -0.106138 189 102 70
0.050129 0.109718 -0.103027 225 139 114
0.0555295 0.104727 -0.105338 185 113 84
0.0520806 0.107449 -0.103769 234 136 104
0.055017 0.108344 -0.106819 238 159 117
0.0490403 0.10668 -0.0911341 161 65 46
0.0490144 0.107031 -0.0912451 158 77 48
0.0585027 0.100962 -0.109262 111 61 41
0.0491546 0.108252 -0.0916755 167 72 40
0.0420259 0.0754968 -0.0593842 0 0 0
0.0568983 0.106192 -0.107282 159 87 61
0.050902 0.109149 -0.104001 243 171 129
0.0513362 0.104717 -0.0926176 100 37 13
0.0559147 0.104726 -0.105957 135 65 39
0.0560794 0.10493 -0.105574 179 103 77
0.0668423 0.0875454 -0.104919 102 43 26
0.0486842 0.103757 -0.0900785 152 75 49
0.0554131 0.0989095 -0.103399 159 106 74
0.0648184 0.0854661 -0.104039 95 47 32
0.0619224 0.0868454 -0.0727819 40 7 0
0.058864 0.0852052 -0.098428 106 57 30
0.0560918 0.107568 -0.107294 225 145 100
0.0688502 0.0915008 -0.0832179 93 43 27
0.0567379 0.0998627 -0.107701 157 68 52
0.0631115 0.0829479 -0.100372 121 51 25
0.0568492 0.0875719 -0.0681433 0 0 0
0.0495963 0.106441 -0.0926032 152 65 36
0.0491651 0.107809 -0.091968 165 70 46
0.0488639 0.109769 -0.092329 191 94 61
0.0559373 0.109218 -0.108402 207 135 100
0.0554002 0.109142 -0.107967 228 155 116
0.0577157 0.0869046 -0.0978098 103 52 40
0.0527212 0.107636 -0.104604 246 143 103
0.0540756 0.101693 -0.0507031 93 41 32
0.0523337 0.10819 -0.104737 240 160 126
0.0724272 0.0964122 -0.101979 125 55 40
0.0511723 0.10907 -0.104396 236 158 129
0.0506211 0.106329 -0.0990034 184 105 83
0.0608693 0.0874479 -0.101772 123 48 31
0.0562385 0.108023 -0.10721 212 134 95
0.0527707 0.108245 -0.105019 243 163 128
0.056945 0.0966161 -0.102624 141 64 41
0.0503433 0.10793 -0.102412 171 125 101
0.0499765 0.0893242 -0.0734265 104 80 0
0.0488727 0.102955 -0.0884791 155 73 48
0.0467673 0.0984431 -0.0850402 241 140 46
0.0679531 0.0870235 -0.104357 101 45 26
0.0706684 0.0928121 -0.0856403 100 47 29
0.0491608 0.0933537 -0.0855653 44 9 3
0.0507737 0.106725 -0.0965796 171 92 79
0.0711127 0.100552 -0.0942907 105 48 24
0.0489495 0.103573 -0.0888963 160 86 48
0.0496289 0.107218 -0.0927989 159 60 26
0.0494044 0.108829 -0.092873 195 104 72
0.0501593 0.103134 -0.0900773 190 97 80
0.0739353 0.0944403 -0.0963711 125 58 39
0.0503962 0.107643 -0.0977131 212 126 91
0.0527133 0.108728 -0.105525 255 161 125
0.0511971 0.107104 -0.101936 228 141 109
0.0500052 0.108523 -0.0984956 210 121 90
0.0507603 0.109556 -0.104014 241 155 127
0.0524114 0.108712 -0.10512 244 156 118
0.050878 0.105179 -0.0984794 160 84 61
0.0515744 0.106467 -0.101685 215 137 107
0.0516395 0.104582 -0.101628 45 21 0
0.0494571 0.079685 -0.0663845 0 0 0
0.0476734 0.108752 -0.0790089 90 0 0
0.0586065 0.0875007 -0.0992379 117 52 41
0.0474197 0.0938237 -0.0754215 73 0 0
0.0527667 0.0984928 -0.0958994 40 0 0
0.0628419 0.0833993 -0.100399 110 56 27
0.0609493 0.0828696 -0.097438 92 38 24
0.0501608 0.0981698 -0.0888544 68 27 18
0.059379 0.0881061 -0.100198 105 52 35
0.0584997 0.0840597 -0.0977109 123 81 39
0.0495406 0.0973849 -0.0874397 98 63 34
0.0712087 0.100528 -0.0944419 119 49 27
0.0709308 0.102115 -0.0956758 118 63 39
0.0511008 0.107534 -0.0953782 197 121 92
0.0505845 0.107712 -0.0968044 208 124 97
0.051169 0.104437 -0.0991002 166 91 68
0.0518284 0.101789 -0.0986593 179 104 87
0.0514343 0.101944 -0.0986252 151 79 59
0.0513404 0.103535 -0.0978562 167 92 67
0.0494647 0.0974898 -0.0874249 97 62 37
0.0559856 0.0982879 -0.102816 151 95 69
0.0577984 0.0877594 -0.0985507 104 52 41
0.0501536 0.0976387 -0.0886994 65 27 17
0.0499584 0.106654 -0.093372 140 44 0
0.0592423 0.088837 -0.101438 110 55 42
0.0509876 0.0930022 -0.0911129 86 35 30
0.0494134 0.0975305 -0.0874202 105 71 46
0.0510688 0.107807 -0.102243 242 146 111
0.0564632 0.101047 -0.106982 167 78 68
0.0505841 0.108537 -0.102417 246 154 124
0.0508077 0.108591 -0.1032 247 157 115
0.0571439 0.107096 -0.0474856 63 8 0
0.0546072 0.103721 -0.103869 133 63 37
0.0602347 0.0960176 -0.108805 105 62 47
0.0552449 0.103118 -0.104758 139 70 43
0.054231 0.093383 -0.0965495 77 36 0
0.0566657 0.10108 -0.105941 156 82 61
0.0700452 0.0857671 -0.10314 97 40 27
0.0666555 0.0870041 -0.104877 103 46 29
0.0567145 0.0962342 -0.101622 170 97 76
0.0501674 0.0975129 -0.0887921 67 25 18
0.0732807 0.0938958 -0.100352 125 59 39
0.0514138 0.102389 -0.0953768 143 80 60
0.0575454 0.0975553 -0.105495 154 77 66
0.0562362 0.0983285 -0.103382 192 112 110
0.0730414 0.0951821 -0.0995485 113 56 36
0.0497081 0.0960942 -0.0889139 40 3 0
0.0513183 0.103944 -0.0998871 153 67 41
0.0508436 0.105894 -0.0990715 183 101 71
0.0519334 0.10171 -0.0975716 177 108 92
0.0488579 0.0876363 -0.0717002 0 0 0
0.0469353 0.0710422 -0.0559254 0 0 0
0.0511679 0.0843296 -0.0667216 1 5 9
0.0519849 0.0834667 -0.0677155 36 0 0
0.052531 0.0980951 -0.0958536 165 134 91
0.0568028 0.100822 -0.108188 165 95 77
0.0556721 0.103794 -0.105136 169 81 50
0.0715536 0.100126 -0.0934556 116 60 35
0.0519424 0.102545 -0.0946985 158 102 78
0.0508498 0.105301 -0.0980689 166 89 68
0.0512903 0.103959 -0.094296 161 98 81
0.071741 0.0942685 -0.0884172 100 45 28
0.0511694 0.102984 -0.0949646 147 79 62
0.0714652 0.100346 -0.0956403 111 67 48
0.0543865 0.0938086 -0.0968223 91 48 25
0.0499076 0.0960077 -0.088741 87 47 37
0.0682735 0.0883342 -0.105143 92 41 27
0.0703235 0.0948476 -0.0868631 105 33 25
0.0535726 0.0953321 -0.096619 140 88 66
0.0551716 0.088245 -0.0957459 101 56 47
0.0501221 0.108206 -0.0943236 195 109 77
0.0517396 0.104641 -0.100241 170 94 66
0.0607381 0.0868157 -0.101842 110 58 43
0.0512385 0.105211 -0.100747 123 67 49
0.0647648 0.0818032 -0.0999272 89 41 23
0.0508102 0.104512 -0.100025 29 0 0
0.0568046 0.0878647 -0.0971465 96 53 41
0.0723747 0.0997274 -0.0990187 127 62 34
0.051789 0.0817427 -0.0672832 0 8 14
0.0559211 0.0840965 -0.067217 33 9 10
0.057977 0.0955247 -0.104863 134 74 51
0.058355 0.0931897 -0.103308 97 51 47
0.0491074 0.105121 -0.0922422 71 0 0
0.0486413 0.109669 -0.0921829 182 86 55
0.0566465 0.0976398 -0.103281 133 65 42
0.071702 0.100296 -0.0963365 125 70 54
0.0723563 0.0991338 -0.0965886 186 124 81
0.0616241 0.0860362 -0.102401 116 52 29
0.0610444 0.103249 -0.046297 70 0 0
0.0524225 0.104443 -0.101713 211 119 95
0.0514556 0.103943 -0.0994121 167 96 79
0.049498 0.0836851 -0.0744823 8 13 33
0.0493999 0.0831364 -0.0708721 14 14 0
0.0507574 0.105703 -0.0976223 176 104 90
0.0585601 0.0891393 -0.100211 129 64 44
0.0495211 0.094245 -0.0853502 33 13 0
0.0509715 0.107122 -0.0959528 181 98 78
0.0522984 0.0832955 -0.06766 31 0 0
0.0499346 0.0940476 -0.087523 59 24 15
0.0496285 0.0954691 -0.0867175 61 22 14
0.0497837 0.0939396 -0.0876919 65 23 15
0.0490779 0.104589 -0.0912466 156 88 59
0.0577404 0.0981888 -0.107459 113 49 31
0.0491837 0.0930447 -0.085436 33 0 0
0.0529647 0.0984203 -0.0964207 166 110 82
0.0514389 0.104582 -0.0926974 142 62 32
0.0688478 0.0899267 -0.0832238 96 46 29
0.0494455 0.106246 -0.092245 152 65 37
0.0530301 0.0995417 -0.0963837 132 81 60
0.0491381 0.0877742 -0.0786151 37 19 0
0.0527054 0.0979345 -0.0960575 22 0 0
0.0512765 0.104716 -0.0926598 84 28 12
0.0512678 0.105948 -0.0945613 163 93 79
0.0520043 0.0834252 -0.0676648 28 0 0
0.0516744 0.102507 -0.0950567 154 89 69
0.0511785 0.103377 -0.0962013 162 94 74
0.0561472 0.0865023 -0.0954201 99 41 25
0.0533833 0.103948 -0.10234 144 67 48
0.0515361 0.103003 -0.0949055 146 84 65
0.0567392 0.0890831 -0.0974877 99 43 25
0.0573768 0.094791 -0.102606 79 30 16
0.0572193 0.0963473 -0.102058 184 116 89
0.0511982 0.105222 -0.0982473 178 95 77
0.0563919 0.0989784 -0.104075 152 87 61
0.048629 0.083751 -0.0702018 8 12 0
0.0500454 0.0945017 -0.0901014 87 43 33
0.0511158 0.105296 -0.0979311 177 94 73
0.049711 0.0952864 -0.0898701 98 49 33
0.0497812 0.109613 -0.102879 210 112 96
0.0509496 0.106484 -0.0978823 197 113 87
0.0517002 0.102818 -0.098164 172 97 78
0.0568331 0.101016 -0.10636 118 65 42
0.0513512 0.10693 -0.103075 72 72 57
0.0497463 0.0926177 -0.0858406 65 27 22
0.050927 0.0917653 -0.0894115 78 49 37
0.0518196 0.102397 -0.0952378 132 83 63
0.0541897 0.0975993 -0.0993603 218 145 119
0.0613566 0.0871748 -0.102115 99 49 26
0.0514064 0.104362 -0.0974314 162 86 67
0.0511453 0.104388 -0.0975624 167 98 78
0.0573742 0.0990303 -0.10681 113 59 39
0.0505345 0.0897929 -0.0850836 76 27 27
0.049172 0.0870257 -0.0805553 22 14 0
0.0565571 0.0954653 -0.100818 131 103 81
0.0490493 0.0726731 -0.0541509 0 0 0
0.0559632 0.0920995 -0.097882 61 16 0
0.0527411 0.0971769 -0.095704 82 0 0
0.0564241 0.0963559 -0.102345 91 30 13
0.051623 0.0799638 -0.067303 0 30 0
0.0581286 0.0974923 -0.108062 108 53 30
0.0564088 0.097158 -0.102611 116 51 31
0.0495165 0.0951373 -0.089393 92 43 30
0.050055 0.0919382 -0.0863274 77 39 25
0.070735 0.0868474 -0.0843789 120 50 38
0.0513446 0.10304 -0.0963287 156 83 67
0.0627264 0.0850438 -0.102194 80 42 27
0.0512133 0.103257 -0.0962209 160 86 61
0.0566514 0.0958957 -0.100491 143 121 104
0.0493899 0.0942759 -0.0853479 61 30 0
0.0504499 0.0910463 -0.0870967 76 37 22
0.0541341 0.0840076 -0.0772778 45 16 7
0.0490631 0.0932758 -0.0837219 42 23 23
0.0574972 0.100948 -0.108773 137 72 52
0.059217 0.0982031 -0.10971 102 66 43
0.0722884 0.098812 -0.098648 129 69 46
0.0709905 0.0937131 -0.0866467 91 44 39
0.0708494 0.103135 -0.0978519 127 59 39
0.0525063 0.0998746 -0.0975303 160 98 85
0.0662384 0.0859028 -0.104026 101 46 29
0.0507159 0.0907816 -0.0875021 71 31 25
0.0664538 0.0861343 -0.0831842 160 68 33
0.057296 0.0880814 -0.098036 107 59 46
0.0489049 0.0939094 -0.0837437 50 15 0
0.0504704 0.0911772 -0.0866339 79 44 37
0.0488468 0.0946052 -0.0816045 46 27 23
0.0483294 0.0962987 -0.0753973 81 0 0
0.0582344 0.0965222 -0.107005 87 53 36
0.0564611 0.104506 -0.106888 120 65 51
0.0717441 0.0998004 -0.0948202 117 52 12
0.0527739 0.0985933 -0.0959819 42 0 0
0.0580343 0.0967818 -0.106323 122 53 44
0.0617716 0.0865234 -0.0739167 63 19 11
0.0507589 0.104894 -0.0953858 164 90 73
0.0554369 0.0881292 -0.0960662 89 34 17
0.0520435 0.0836434 -0.0673947 58 0 0
0.0528981 0.0996155 -0.0966589 147 95 76
0.0604203 0.090409 -0.103967 117 50 32
0.0490908 0.0955949 -0.0893226 101 55 32
0.0516449 0.101346 -0.0986113 152 79 63
0.0563884 0.0969924 -0.101626 186 113 88
0.0514495 0.0923958 -0.0920253 110 62 51
0.0658215 0.0873745 -0.105162 105 41 22
0.0641205 0.08487 -0.103294 85 41 22
0.0717193 0.0978405 -0.092382 118 54 38
0.0568581 0.0875023 -0.096995 104 38 22
0.0585757 0.0975582 -0.109135 182 95 81
0.0495239 0.0895174 -0.0821805 48 21 14
0.0566994 0.0961164 -0.102002 78 2 0
0.0710184 0.0880876 -0.103474 115 53 30
0.0566475 0.105158 -0.106997 110 50 29
0.0710734 0.100242 -0.0926643 100 42 29
0.0574902 0.101393 -0.108948 131 73 56
0.0712581 0.102109 -0.0984814 130 61 45
0.0569384 0.0926803 -0.0989585 79 30 9
0.0709705 0.102137 -0.0967613 129 66 46
0.0490737 0.0886687 -0.0810106 38 16 0
0.0555968 0.0921038 -0.0971474 35 0 0
0.0536435 0.1068 -0.0914317 122 70 51
0.0459149 0.110722 -0.0597025 84 30 0
0.0621247 0.0872072 -0.103063 96 50 33
0.0509232 0.104934 -0.0953107 167 97 79
0.0712502 0.0901143 -0.0862066 94 44 29
0.0578304 0.0963453 -0.10546 143 66 48
0.0544483 0.0982121 -0.0982703 145 81 66
0.0564566 0.0969086 -0.101328 174 125 110
0.0532487 0.0827768 -0.0756066 50 31 28
0.0523429 0.106278 -0.104055 90 72 55
0.0511433 0.104506 -0.0942524 151 80 63
0.0607905 0.0895284 -0.103166 70 18 0
0.0566767 0.0967867 -0.10157 172 104 73
0.0488727 0.0885589 -0.0790138 55 27 76
0.0531286 0.0987798 -0.0993759 169 92 78
0.0723626 0.0948054 -0.0887243 105 51 38
0.0564257 0.0968832 -0.101232 168 124 99
0.0537198 0.0985139 -0.0988405 224 147 127
0.0494185 0.0999112 -0.0827173 101 27 0
0.04816 0.0969514 -0.079821 136 65 0
0.0492702 0.0997041 -0.0824085 52 0 0
0.0477212 0.0941195 -0.0768618 88 0 0
0.0512381 0.0875701 -0.0707442 96 14 0
0.0535711 0.0979139 -0.0987716 0 0 0
0.0660945 0.086959 -0.1051 106 50 30
0.057659 0.100328 -0.108516 116 55 37
0.0565557 0.0965846 -0.101548 161 98 66
0.0563955 0.0952721 -0.100283 132 95 45
0.0532598 0.0832231 -0.0654867 0 0 0
0.0535666 0.0978237 -0.0997008 155 95 73
0.0718692 0.0976073 -0.0942453 108 55 39
0.0575935 0.0996637 -0.107808 95 49 31
0.0543531 0.0975029 -0.100178 221 130 102
0.0551915 0.0842312 -0.0898086 81 39 30
0.0567433 0.0962438 -0.10098 136 118 85
0.0729775 0.095972 -0.0989587 124 72 54
0.0577941 0.097691 -0.1087 184 97 82
0.0721732 0.0905964 -0.098934 118 59 37
0.0519524 0.104133 -0.10193 0 0 0
0.0511334 0.0879516 -0.0840746 0 6 0
0.0512598 0.121905 -0.0325439 0 0 0
0.0479497 0.113606 -0.0928146 213 127 81
0.0391311 0.0765763 -0.0623458 0 0 0
0.0418588 0.0754395 -0.0592423 0 0 0
0.0666392 0.0943906 -0.0709152 97 35 0
0.0476993 0.11168 -0.0795674 83 0 0
0.0570224 0.0991015 -0.107724 172 73 53
0.0516564 0.106191 -0.102891 57 65 53
0.0547108 0.0967835 -0.100003 248 132 109
0.0507124 0.0896764 -0.0861113 80 37 39
0.0516964 0.105292 -0.0943306 165 96 76
0.0582114 0.0849144 -0.0956924 103 48 31
0.0488598 0.0887384 -0.0809455 38 17 0
0.0533613 0.0827624 -0.0757955 72 61 60
0.0569197 0.0960555 -0.101659 178 103 75
0.0592536 0.0815325 -0.0811642 99 52 40
0.0575442 0.0822457 -0.0845225 92 47 41
0.0530475 0.0991202 -0.0996467 231 126 128
0.0715984 0.0944351 -0.088109 98 47 31
0.0489046 0.0863512 -0.0770334 34 19 44
0.0577664 0.0986573 -0.108272 154 78 62
0.0513518 0.105449 -0.0995057 176 99 71
0.0576039 0.0853829 -0.0962757 89 45 29
0.0742737 0.0943801 -0.0949797 116 57 40
0.051384 0.0842162 -0.0667108 2 0 0
0.0508958 0.100758 -0.0541371 84 24 0
0.0424064 0.0749929 -0.0596378 0 0 0
0.0529928 0.0974217 -0.0973886 41 0 0
0.0548266 0.0993391 -0.102993 156 91 67
0.0520592 0.0833773 -0.0677604 0 20 12
0.05204 0.0835629 -0.0676285 45 20 0
0.0522726 0.100082 -0.095859 54 0 0
0.0516414 0.10218 -0.096788 161 97 78
0.0499892 0.108684 -0.0938761 208 95 57
0.0484995 0.0879492 -0.0726867 0 0 0
0.0693069 0.0914098 -0.0832267 96 48 28
0.0507052 0.0932335 -0.0911968 80 32 22
0.0500236 0.0946904 -0.0899604 82 37 28
0.049935 0.0946332 -0.0903614 70 24 15
0.0508024 0.0921233 -0.0890226 76 35 28
0.0516471 0.102478 -0.0950871 133 84 63
0.0564005 0.104772 -0.107367 111 58 48
0.0501104 0.0919276 -0.086355 86 45 31
0.048887 0.0934185 -0.0837153 36 13 17
0.0514756 0.104674 -0.0940237 133 76 59
0.0506295 0.0908422 -0.0873738 85 44 32
0.0601601 0.0905009 -0.103652 131 68 43
0.0661957 0.0937581 -0.0723636 106 43 16
0.0488757 0.117363 -0.0796624 8 0 0
0.0426107 0.0676752 -0.0569326 0 0 0
0.0532824 0.0982076 -0.0988927 25 0 0
0.0508779 0.0929994 -0.09137 109 55 36
0.0630011 0.0995098 -0.0438307 153 0 0
0.0532567 0.0987113 -0.09867 52 0 0
0.0605928 0.109501 -0.0445031 66 90 0
0.0694572 0.0872965 -0.0838557 116 69 42
0.0530455 0.0997883 -0.0983212 163 91 68
0.0567424 0.0831566 -0.0835274 55 29 32
0.0568932 0.0943388 -0.0994029 82 30 13
0.0566546 0.0930243 -0.098843 75 26 10
0.0533606 0.0993127 -0.0968463 155 99 78
0.0561014 0.095968 -0.100416 151 77 53
0.0512845 0.101814 -0.0536763 84 29 0
0.0618187 0.0890774 -0.103976 120 68 55
0.0671428 0.0843308 -0.102583 104 50 30
0.0626291 0.0849991 -0.102309 109 54 32
0.05709 0.0962422 -0.101274 144 81 50
0.0512825 0.0913825 -0.0906233 92 48 34
0.0654228 0.0844389 -0.102954 90 46 31
0.0622857 0.0879268 -0.105099 149 63 39
0.0558197 0.0979268 -0.0548746 129 61 0
0.0627173 0.100859 -0.0494827 106 0 0
0.0543535 0.0971291 -0.0538824 152 92 94
0.0544028 0.116459 -0.0362566 0 0 0
0.0622324 0.103098 -0.0504323 84 24 0
0.0549538 0.0842518 -0.0941712 168 119 109
0.061267 0.0872201 -0.104136 163 57 71
0.0591782 0.0969163 -0.108824 115 64 52
0.0534373 0.105353 -0.104367 118 118 61
0.0679761 0.089165 -0.0776346 70 30 0
0.0587235 0.0840615 -0.0976244 122 71 39
0.0621072 0.0845216 -0.101322 75 33 27
0.0682375 0.0792177 -0.0956528 99 51 21
0.0608992 0.0896949 -0.103582 99 57 49
0.0652837 0.0880975 -0.105898 68 10 4
0.0573438 0.100653 -0.108852 150 86 66
0.0592788 0.0973599 -0.109263 194 61 38
0.0500058 0.106525 -0.0988151 170 79 70
0.0752318 0.0914917 -0.100207 137 88 64
0.0507891 0.107114 -0.101597 208 125 93
0.0735409 0.0859564 -0.0976359 0 0 61
0.0741256 0.0824299 -0.0868908 80 38 28
0.0511692 0.103786 -0.0996777 102 31 15
0.0722024 0.0993252 -0.0962487 176 124 87
0.0559561 0.106972 -0.0470649 62 0 0
0.0735822 0.093215 -0.100635 137 75 46
0.0731252 0.0924671 -0.0977198 113 47 30
0.0603483 0.0845719 -0.10062 137 75 46
0.049567 0.105435 -0.0991676 149 78 50
0.0638227 0.083099 -0.10119 107 50 29
0.0507612 0.105843 -0.0998773 136 67 63
0.0738303 0.0922702 -0.0925188 114 74 47
0.0543674 0.0990026 -0.102429 146 72 46
0.0702295 0.0853392 -0.102143 116 57 35
0.0603309 0.0817297 -0.0978203 154 113 60
0.055835 0.0958294 -0.0991827 136 102 91
0.0568776 0.0827538 -0.0825756 88 41 33
0.0733319 0.0890671 -0.097764 149 79 45
0.053085 0.0989038 -0.0987618 42 0 0
0.0709409 0.0878571 -0.102892 119 47 27
0.0514622 0.104112 -0.100778 67 29 0
0.0566134 0.0845649 -0.0942657 24 6 0
0.0507225 0.104392 -0.0957078 159 81 57
0.0517075 0.104781 -0.0996004 180 97 71
0.0645998 0.0812403 -0.101157 132 69 32
0.0663443 0.0855429 -0.104814 134 87 63
0.0566695 0.0849217 -0.0946034 76 39 22
0.0728978 0.0888326 -0.0880265 127 60 41
0.070875 0.0859342 -0.103244 115 47 30
0.0532575 0.101067 -0.101782 169 107 87
0.0665879 0.0856759 -0.0824913 129 43 20
0.0657585 0.0807388 -0.0985178 99 45 24
0.0519688 0.0886084 -0.0916393 91 88 52
0.0713991 0.08863 -0.0863658 112 57 42
0.0705396 0.0823577 -0.0980517 139 73 41
0.0706625 0.0842295 -0.0946054 107 47 28
0.0514071 0.104667 -0.0939943 142 79 61
0.0628444 0.0821325 -0.0998694 186 98 42
0.0512938 0.103503 -0.10032 130 74 45
0.0576405 0.0973621 -0.107688 199 88 62
0.0724359 0.0875646 -0.102428 145 83 56
0.0724948 0.0915233 -0.100192 121 64 38
0.0520556 0.105345 -0.104346 163 117 76
0.0574806 0.0959986 -0.106213 244 121 71
0.0600861 0.0885053 -0.103082 160 111 94
0.0694651 0.0927598 -0.0835583 102 47 30
0.0578224 0.0984844 -0.107752 131 81 66
0.0744582 0.0934588 -0.0912352 102 52 35
0.0624728 0.0800789 -0.0960979 85 60 65
0.0563007 0.0835749 -0.0923583 101 37 21
0.0632007 0.0797222 -0.0960057 118 63 33
0.0746362 0.0884462 -0.0963304 50 0 16
0.057266 0.100382 -0.10813 167 89 67
0.0507309 0.106697 -0.101836 37 51 28
0.0566277 0.0862686 -0.095873 91 51 27
0.0512772 0.106063 -0.101887 28 27 13
0.0514635 0.103627 -0.100315 47 0 0
0.0560733 0.0855022 -0.0943989 120 56 36
0.0729814 0.0978032 -0.0948562 83 8 0
0.0542991 0.0843835 -0.089289 85 48 35
0.0490044 0.0848306 -0.0785921 0 0 0
0.0599542 0.0910644 -0.107546 97 46 32
0.0564453 0.0828241 -0.0825594 108 62 78
0.0605256 0.0793742 -0.0950354 55 0 0
0.0678744 0.0827565 -0.091768 104 58 35
0.0554516 0.0860573 -0.0949528 89 44 27
0.0733101 0.0936724 -0.0955839 101 41 28
0.0619021 0.0820637 -0.0818176 99 37 16
0.0547532 0.0981976 -0.101411 170 102 87
0.0539538 0.0985728 -0.100511 205 129 108
0.058173 0.0863691 -0.0976611 101 47 30
0.0539035 0.0986449 -0.100289 203 122 100
0.0555083 0.0933028 -0.106469 25 0 0
0.0601102 0.0931521 -0.105792 105 33 18
0.0487623 0.10026 -0.0538435 69 23 51
0.0755309 0.0968674 -0.0959824 144 68 49
0.073041 0.089576 -0.0890033 123 84 48
0.071037 0.0842735 -0.0883813 127 58 43
0.0664979 0.0844651 -0.104973 126 82 60
0.0544154 0.100386 -0.103287 139 98 62
0.064775 0.0904344 -0.108391 145 79 63
0.0465507 0.0952783 -0.0787661 92 44 0
0.0734236 0.0945382 -0.0922707 126 75 54
0.0632462 0.0832959 -0.101533 166 128 80
0.0669847 0.087754 -0.0772671 68 24 16
0.0524029 0.100965 -0.0992284 195 115 93
0.0585948 0.0844024 -0.0959858 99 40 23
0.0619681 0.0948803 -0.108744 109 57 36
0.0526427 0.101035 -0.100429 172 104 80
0.0546959 0.0867298 -0.0941096 99 50 22
0.06148 0.0918983 -0.105612 114 47 7
0.0519608 0.099456 -0.0537152 100 46 34
0.0604776 0.110212 -0.0454094 58 0 0
0.0590771 0.083223 -0.0955273 88 40 27
0.0548213 0.0837252 -0.0882546 91 50 36
0.0563137 0.104324 -0.0290115 0 0 0
0.0672343 0.0767749 -0.0923319 49 23 0
0.0628036 0.0853336 -0.102983 111 44 25
0.0551294 0.105672 -0.0480987 72 18 0
0.0737388 0.0907807 -0.0941228 128 68 46
0.0602325 0.109233 -0.0433074 101 0 0
0.0729846 0.0893738 -0.0977793 129 63 38
0.0627029 0.0801477 -0.0969819 102 47 43
0.0581307 0.0803255 -0.088388 143 41 28
0.0621157 0.0892126 -0.104518 150 55 31
0.0538759 0.0857628 -0.0849893 69 0 0
0.0710686 0.0845169 -0.0850964 0 0 0
0.0604106 0.109379 -0.0452929 55 0 0
0.0537154 0.0993217 -0.102127 169 108 82
0.06154 0.0927126 -0.106903 118 92 82
0.0569193 0.0884347 -0.0975398 97 46 30
0.0674895 0.0827267 -0.102969 82 39 22
0.0538934 0.0854714 -0.0899812 87 40 22
0.0653174 0.0831131 -0.101868 104 48 26
0.0711686 0.08367 -0.0935444 84 0 0
0.0524098 0.100868 -0.100279 156 89 76
0.0576753 0.092885 -0.100999 139 83 53
0.0728036 0.08774 -0.0882845 129 61 33
0.0579664 0.0908091 -0.102402 136 82 48
0.0562121 0.0834604 -0.0830392 123 55 23
0.0673881 0.0806303 -0.0945291 110 54 35
0.0716393 0.0844173 -0.0940525 87 41 0
0.0609051 0.0959545 -0.108784 111 78 62
0.052734 0.0989216 -0.100023 162 75 92
0.057927 0.0911321 -0.101708 96 56 42
0.054661 0.0971036 -0.0991154 129 84 62
0.0570599 0.096415 -0.101425 154 93 65
0.07281 0.0985821 -0.0956107 109 102 60
0.0707143 0.0862598 -0.101605 121 59 37
0.0622936 0.0879507 -0.105121 81 42 52
0.0584197 0.0918309 -0.101682 78 21 0
0.0605491 0.110183 -0.0430074 35 0 0
0.0632008 0.0851206 -0.103605 151 95 57
0.0720761 0.0872912 -0.100864 160 95 50
0.0729855 0.0874985 -0.0945475 131 75 31
0.0561804 0.0829942 -0.0867973 81 34 16
0.0733955 0.0886906 -0.100642 106 64 45
0.0723801 0.0971259 -0.0934662 93 34 24
0.0651572 0.0944435 -0.110707 123 52 33
0.056316 0.0936065 -0.107754 16 0 19
0.0544789 0.0838506 -0.083359 92 34 39
0.0527526 0.101221 -0.103093 140 82 54
0.0683374 0.0826209 -0.100666 114 47 34
0.0600782 0.0791799 -0.0973667 0 0 0
0.0579894 0.0964035 -0.108879 151 81 64
0.0554133 0.0819823 -0.0931646 39 0 0
0.0600494 0.0902587 -0.103405 141 106 59
0.0735575 0.0978728 -0.0972207 135 73 42
0.0595332 0.0922611 -0.104325 96 45 27
0.0736616 0.0970268 -0.0975478 149 89 69
0.0635459 0.0836108 -0.0849477 80 33 24
0.0462078 0.0965535 -0.0988424 94 41 29
0.0526091 0.0828971 -0.0808047 0 0 0
0.0721837 0.0853593 -0.0906799 58 55 58
0.0724304 0.0841887 -0.10385 41 2 0
0.0587231 0.0828554 -0.0958443 60 8 0
0.0557047 0.0953304 -0.0987028 114 56 57
0.0540629 0.086753 -0.0931833 96 44 29
0.0660265 0.0912766 -0.0757844 31 0 0
0.0637842 0.0822858 -0.0818592 60 25 14
0.0565517 0.0957714 -0.100713 136 119 89
0.0730662 0.0982247 -0.0979454 170 123 74
0.0631944 0.100969 -0.0503859 108 0 0
0.0541547 0.0964491 -0.0545149 153 101 81
0.045422 0.10426 -0.0630173 93 35 0
0.0530812 0.104972 -0.103943 95 103 40
0.0673834 0.089808 -0.0775332 78 32 17
0.0598244 0.0826924 -0.097382 165 120 66
0.0618056 0.0849115 -0.101098 82 40 25
0.0576412 0.100178 -0.108932 161 102 79
0.058951 0.0965555 -0.109189 192 58 48
0.050224 0.106455 -0.0991147 167 78 67
0.0646502 0.0812737 -0.0984111 106 49 26
0.0694675 0.0802829 -0.0980894 94 47 5
0.0613836 0.110466 -0.0461573 38 0 0
0.0513916 0.105813 -0.101913 175 106 79
0.0727477 0.0907021 -0.0983806 118 63 39
0.0739307 0.0835247 -0.0993644 48 12 17
0.0599399 0.0897958 -0.103805 80 27 0
0.050868 0.103146 -0.0916511 39 0 0
0.0513491 0.103371 -0.0998386 66 45 0
0.0512452 0.102832 -0.0950637 153 85 69
0.0717086 0.086449 -0.0997552 143 75 43
0.0505969 0.104392 -0.0980202 104 45 31
0.06138 0.0855576 -0.10225 131 51 28
0.0640323 0.082578 -0.0842809 94 48 42
0.0589417 0.0834629 -0.0979282 137 104 63
0.0726887 0.0979994 -0.0977946 185 130 117
0.0729837 0.0935311 -0.097437 112 53 32
0.0612695 0.0837305 -0.101021 163 112 72
0.0510314 0.104888 -0.100078 121 64 42
0.0635847 0.0845482 -0.102636 115 50 28
0.0499794 0.107798 -0.100204 159 81 76
0.0524162 0.0873704 -0.0940651 127 49 0
0.068864 0.0874644 -0.0834831 123 62 41
0.06223 0.0822822 -0.0834091 95 44 26
0.0712138 0.0862582 -0.102676 100 56 37
0.0604393 0.0824309 -0.0975485 154 113 56
0.0564172 0.0962397 -0.100238 135 94 75
0.0753704 0.0871961 -0.0990097 163 80 48
0.0693358 0.0867605 -0.0841526 137 64 41
0.0531216 0.0985839 -0.0987709 24 0 0
0.0513185 0.103425 -0.099732 67 30 0
0.0501782 0.104304 -0.0995782 167 87 66
0.0625684 0.0866706 -0.103918 147 53 0
0.0569353 0.0857104 -0.0956013 96 43 27
0.0711949 0.0888867 -0.0863124 109 54 34
0.0526502 0.103824 -0.102111 198 114 89
0.0714657 0.0869253 -0.103639 89 42 25
0.0513998 0.106472 -0.101569 210 124 99
0.0723482 0.0990338 -0.0972068 135 96 77
0.0569344 0.104176 -0.107247 95 48 34
0.0532861 0.0994258 -0.101632 176 100 86
0.0685005 0.0874356 -0.0835422 102 51 33
0.0486797 0.0912277 -0.0789515 38 18 18
0.0724401 0.0871513 -0.0879057 96 40 38
0.0635351 0.0849005 -0.102632 84 38 25
0.0744446 0.0891528 -0.0902251 122 48 24
0.0715836 0.0895634 -0.1014 115 58 38
0.0704667 0.0833996 -0.0941653 125 54 50
0.0596387 0.0918402 -0.110518 199 0 0
0.0631125 0.0823749 -0.100091 173 91 44
0.049852 0.101244 -0.0985231 104 52 0
0.0591102 0.0898528 -0.103047 128 101 84
0.0575995 0.0979888 -0.1079 178 87 69
0.0633224 0.0833039 -0.082096 122 54 49
0.0621198 0.0877036 -0.103255 93 35 31
0.0513141 0.106897 -0.102668 168 120 80
0.0579877 0.0954032 -0.106083 255 175 94
0.0591207 0.0962069 -0.108371 145 75 55
0.0600878 0.0899294 -0.103532 123 99 65
0.0583046 0.0966112 -0.108127 151 91 65
0.0637207 0.0888756 -0.106645 135 47 0
0.054019 0.0843651 -0.0865479 124 88 54
0.0712542 0.0863086 -0.102641 103 56 33
0.0615845 0.0787936 -0.0964808 31 8 16
0.0565849 0.100515 -0.10759 173 90 68
0.0728621 0.0972529 -0.0948828 89 20 13
0.0556303 0.0956775 -0.0998547 107 102 125
0.055914 0.0851186 -0.0953614 78 23 0
0.0522515 0.105831 -0.10364 16 54 55
0.0767282 0.0844641 -0.0911022 206 150 69
0.0513726 0.102901 -0.10009 18 0 0
0.0579362 0.0819916 -0.0845086 68 36 36
0.0575611 0.082835 -0.094267 45 23 7
0.070878 0.0900022 -0.084491 103 48 34
0.062852 0.0939293 -0.109613 160 52 28
0.071603 0.0827495 -0.0924855 116 50 49
0.0585398 0.0955402 -0.108592 168 82 52
0.0559038 0.0835949 -0.0827546 49 44 21
0.0605263 0.086035 -0.10165 129 58 35
0.0632341 0.0794327 -0.0957194 145 69 36
0.055508 0.0859829 -0.0939528 87 44 35
0.054808 0.0982042 -0.101363 190 106 97
0.0533336 0.0989529 -0.0998004 181 107 98
0.0489785 0.100417 -0.0555138 89 26 17
0.0543739 0.0814405 -0.089438 36 1 0
0.0647702 0.0904107 -0.108136 125 87 50
0.0731028 0.0950018 -0.0903529 128 77 63
0.0665409 0.087795 -0.0769727 73 30 17
0.0570949 0.0853035 -0.0952447 96 45 29
0.0525007 0.101597 -0.100489 198 116 90
0.0534819 0.0983897 -0.0994425 131 71 59
0.057473 0.0842034 -0.0953564 77 39 29
0.0505545 0.0833336 -0.0719991 0 13 15
0.0522965 0.10591 -0.103643 87 69 53
0.0565078 0.0937802 -0.0999288 139 116 101
0.0547456 0.0867433 -0.0938821 87 39 37
0.0739028 0.0964176 -0.0957817 77 27 0
0.0516925 0.100106 -0.0533272 99 62 87
0.0599199 0.11109 -0.0453907 46 0 0
0.0543991 0.0837307 -0.0878404 73 47 34
0.0631214 0.0836791 -0.102172 144 87 60
0.0605513 0.109569 -0.0431389 117 0 0
0.0632145 0.0781916 -0.0963571 100 41 47
0.0707836 0.0893152 -0.103958 106 53 29
0.0686295 0.0869311 -0.0826031 71 26 0
0.0555016 0.0834449 -0.0846505 70 0 0
0.0721059 0.0869792 -0.0971908 141 82 46
0.0540414 0.0844215 -0.0894819 104 41 13
0.0605762 0.108938 -0.0453662 63 0 0
0.0740409 0.0879686 -0.100601 159 128 96
0.0587614 0.0963878 -0.107238 139 70 47
0.0523166 0.0830988 -0.0825826 0 0 0
0.0722502 0.0977452 -0.0941031 118 65 57
0.0740241 0.0918205 -0.0974361 127 69 47
0.0574346 0.0871826 -0.0976466 114 58 39
0.0552548 0.0850466 -0.0924767 102 48 25
0.0587606 0.0894655 -0.101862 213 96 48
0.0576381 0.0920808 -0.100506 143 92 83
0.0746603 0.0928642 -0.0996687 144 85 45
0.0667567 0.0870672 -0.0757396 117 55 0
0.0620965 0.0892456 -0.104826 110 34 15
0.0746304 0.0959056 -0.0964518 162 64 22
0.0687684 0.0855788 -0.0815628 126 28 0
0.0558273 0.0835811 -0.0839509 91 23 3
0.0752342 0.0789127 -0.0919437 195 119 47
0.0597176 0.0956936 -0.107881 137 71 34
0.0620573 0.0937516 -0.108007 117 64 48
0.0693674 0.0828681 -0.0872648 94 49 33
0.053344 0.098801 -0.100215 160 84 58
0.0710585 0.0844945 -0.0885275 110 55 31
0.0718326 0.0988946 -0.0964699 94 43 22
0.0549576 0.0982275 -0.107257 157 79 60
0.0594996 0.0796636 -0.0890509 108 52 37
0.0613379 0.092194 -0.106758 145 106 79
0.0497474 0.0998467 -0.0514542 0 0 0
0.0493212 0.101192 -0.0529203 131 51 0
0.0538529 0.0840819 -0.0857561 88 0 0
0.056667 0.104269 -0.0469415 85 58 0
0.0661268 0.0835576 -0.102363 94 44 22
0.0716368 0.0838746 -0.0986341 133 69 40
0.0613703 0.080805 -0.0955754 115 58 19
0.0674656 0.082542 -0.100758 99 48 33
0.0614358 0.0924308 -0.107094 119 46 22
0.0589422 0.0916805 -0.109965 164 61 48
0.0747334 0.0882642 -0.10009 50 0 0
0.0831474 0.0772414 -0.0954939 147 87 54
0.0584719 0.0789064 -0.0939445 69 9 0
0.0740653 0.0959769 -0.0964441 126 47 6
0.0584255 0.0923069 -0.102936 67 59 42
0.0556963 0.0888524 -0.0964404 89 36 12
0.0665846 0.0800269 -0.0937073 91 33 27
0.0650284 0.0871818 -0.0721491 40 0 0
0.0739097 0.0962109 -0.09773 145 81 62
0.0705796 0.0886713 -0.105002 118 66 33
0.046999 0.0949269 -0.0995636 98 44 32
0.0557663 0.0873315 -0.0954878 114 63 66
0.0697915 0.0831339 -0.100256 120 56 37
0.0548922 0.0852658 -0.0842566 63 17 29
0.0587492 0.0839328 -0.096309 72 20 0
0.0554276 0.0945574 -0.0984103 113 52 45
0.0590261 0.0939794 -0.108612 128 52 30
0.0593464 0.0957381 -0.107223 120 83 70
0.064411 0.0843067 -0.110866 147 86 55
0.0749284 0.0902294 -0.0975636 105 47 28
0.0677365 0.0902186 -0.107595 115 57 36
0.0557491 0.0957882 -0.0998974 111 98 122
0.0723033 0.09909 -0.0981791 154 96 52
0.0472224 0.110815 -0.0887882 141 62 32
0.0525102 0.0823312 -0.0644753 23 22 0
0.0526529 0.100967 -0.0856434 0 0 0
0.0473697 0.108909 -0.0803454 168 88 61
0.0473333 0.110796 -0.0804428 150 78 50
0.0477691 0.112754 -0.0799924 137 82 61
0.0498001 0.10031 -0.079889 60 0 0
0.0525143 0.100601 -0.0852687 0 0 0
0.0471148 0.113129 -0.0885766 150 60 32
0.0476834 0.110455 -0.0798373 135 62 44
0.044486 0.110265 -0.0666411 61 0 0
0.047598 0.112005 -0.0902628 140 52 0
0.0521731 0.100305 -0.0850719 0 0 0
0.0491631 0.0985997 -0.0785826 123 35 0
0.0495109 0.101948 -0.0784612 103 41 41
0.0491669 0.103283 -0.0779584 121 58 21
0.0479064 0.108133 -0.0789235 143 77 45
0.0477525 0.11588 -0.089011 186 91 62
0.0481504 0.114057 -0.0805197 122 63 42
0.0476129 0.114858 -0.0896278 189 99 67
0.0475651 0.11519 -0.0879354 155 64 39
0.0482877 0.117404 -0.0886529 187 89 60
0.0485308 0.0991017 -0.0825707 127 59 0
0.0498159 0.10193 -0.0814982 140 61 39
0.0475179 0.108278 -0.0796842 138 77 56
0.0482164 0.117148 -0.0893082 182 85 56
0.0484855 0.117988 -0.0876616 190 80 54
0.0469396 0.113205 -0.0843198 162 77 55
0.0487889 0.11701 -0.0807705 129 61 44
0.0478672 0.114345 -0.0935941 224 137 100
0.047357 0.109376 -0.0799836 144 93 59
0.0470448 0.114091 -0.0858904 166 82 56
0.0480756 0.116579 -0.0836252 165 76 50
0.0485881 0.116282 -0.0816616 143 74 54
0.0495129 0.100084 -0.0825063 106 44 0
0.0474109 0.114704 -0.088271 161 63 35
0.0492196 0.0995611 -0.0778011 74 0 0
0.0473053 0.114271 -0.0830311 162 77 54
0.0480113 0.116919 -0.0880978 160 78 50
0.0468708 0.113031 -0.0833709 132 69 43
0.0484805 0.115543 -0.0806635 130 48 0
0.0533972 0.10347 -0.0880527 0 0 0
0.0472826 0.114069 -0.0890621 152 58 24
0.0466867 0.112219 -0.0873653 167 87 58
0.0495896 0.102928 -0.0796217 141 61 40
0.0495511 0.10106 -0.0816018 120 58 36
0.0490621 0.103223 -0.0777427 127 69 0
0.0487054 0.116718 -0.0803834 110 45 0
0.0481634 0.116208 -0.0834307 143 72 47
0.0486663 0.105104 -0.0777087 117 56 45
0.0477773 0.116106 -0.0873187 174 76 51
0.0471941 0.114848 -0.0866807 178 86 56
0.0482792 0.11684 -0.08208 118 53 27
0.0483557 0.117811 -0.0896829 191 97 60
0.0476557 0.115853 -0.085003 169 80 58
0.0496894 0.100842 -0.0813496 151 76 31
0.0477656 0.116099 -0.0884545 153 61 31
0.0546074 0.122034 -0.0566797 0 0 0
0.048271 0.117299 -0.0877288 172 80 57
0.0479127 0.116092 -0.0915652 205 105 68
0.0479746 0.117461 -0.0942667 227 127 90
0.0496585 0.100835 -0.0806297 143 50 18
0.0476157 0.110803 -0.0900909 129 47 0
0.0470808 0.113723 -0.086811 165 75 52
0.0479063 0.116585 -0.0862196 179 80 59
0.0467235 0.106716 -0.0768677 0 0 0
0.0485265 0.118237 -0.0866297 178 87 71
0.0477227 0.1159 -0.0859844 179 88 60
0.0475316 0.114653 -0.0839535 149 67 35
0.0539846 0.122648 -0.0485334 0 0 0
0.0470385 0.113878 -0.0847397 159 81 69
0.0485053 0.117395 -0.086768 168 84 64
0.0478604 0.112605 -0.0796933 126 50 9
0.0482851 0.117338 -0.0860356 171 79 58
0.047951 0.107217 -0.0894857 134 49 0
0.0461738 0.117297 -0.0709846 78 0 0
0.0471741 0.112197 -0.0891418 144 55 30
0.0481842 0.117561 -0.0922615 218 118 88
0.0478906 0.114405 -0.0955279 255 162 132
0.0481704 0.117727 -0.0914886 192 94 62
0.0480076 0.116594 -0.0888513 185 87 53
0.0480103 0.116757 -0.0924537 210 108 86
0.0481414 0.117027 -0.0905202 194 98 68
0.0478393 0.115949 -0.0899644 191 95 70
0.0481319 0.117222 -0.0870465 189 89 62
0.0449781 0.111836 -0.0673512 62 0 0
0.0476877 0.105661 -0.0873827 163 86 55
0.0476107 0.115392 -0.0852666 202 94 71
0.0470385 0.113671 -0.0837192 154 69 50
0.0493222 0.102773 -0.0776005 97 31 0
0.0450377 0.112326 -0.0663776 77 0 0
0.0479781 0.116522 -0.0870799 174 92 66
0.046813 0.108102 -0.0850607 158 68 45
0.0489238 0.117184 -0.0803725 88 0 0
0.0477932 0.115621 -0.0839722 159 72 46
0.0479231 0.11651 -0.085473 174 85 61
0.0459032 0.117277 -0.0695522 0 0 0
0.0471669 0.104551 -0.0754596 0 0 0
0.0481184 0.113896 -0.0803035 137 77 52
0.0482109 0.105241 -0.0774974 84 0 0
0.0478713 0.112418 -0.0803132 154 87 70
0.0478272 0.113045 -0.0803112 139 81 61
0.0486254 0.118058 -0.079174 138 58 0
0.0482552 0.114095 -0.0963113 255 153 108
0.0476672 0.108728 -0.0789475 84 0 0
0.0499048 0.100468 -0.0797366 135 47 0
0.046637 0.111518 -0.0872664 161 77 49
0.0494198 0.102214 -0.0822439 153 67 43
0.0481855 0.105803 -0.0891069 150 62 28
0.0467067 0.117738 -0.0721162 79 20 0
0.0480799 0.117175 -0.0860008 185 91 71
0.0478439 0.112766 -0.0911276 177 73 25
0.0467117 0.111428 -0.0823195 167 86 62
0.0465413 0.11058 -0.0855145 154 70 47
0.0445134 0.108616 -0.0659756 90 0 0
0.0485785 0.118356 -0.0847885 201 96 73
0.0484322 0.117336 -0.0833161 162 78 56
0.0474961 0.114999 -0.0833253 161 76 60
0.0463851 0.118827 -0.0649529 0 0 0
0.0466147 0.109238 -0.0847769 158 69 48
0.0464852 0.11799 -0.0650145 46 0 0
0.0480808 0.116549 -0.0895856 189 93 59
0.0496603 0.10277 -0.0795309 126 65 34
0.0465946 0.111902 -0.0861744 150 73 47
0.0493377 0.102436 -0.0820234 152 83 58
0.0480126 0.114867 -0.0917115 207 125 100
0.0477563 0.114848 -0.0821876 156 81 59
0.0469506 0.113222 -0.0852467 175 87 62
0.0484505 0.117605 -0.0825466 133 62 40
0.0449222 0.112967 -0.0655243 70 0 0
0.04841 0.117283 -0.0847076 183 89 64
0.0481185 0.115788 -0.0823262 142 71 49
0.0465356 0.118578 -0.0655856 48 0 0
0.0486157 0.111628 -0.0928622 201 107 72
0.0516176 0.0790716 -0.0624168 0 0 0
0.0536079 0.0850594 -0.0671526 190 63 0
0.0473503 0.108485 -0.0804115 150 79 56
0.0494907 0.10033 -0.0812129 83 6 0
0.0489159 0.117667 -0.0805142 89 12 0
0.0478242 0.116538 -0.0787698 71 0 0
0.0476547 0.115543 -0.091107 199 110 80
0.0474718 0.114422 -0.0889061 185 106 80
0.0487 0.104785 -0.0775388 90 0 0
0.0480536 0.112759 -0.0920218 215 121 76
0.053211 0.122818 -0.047743 0 0 0
0.0444385 0.109267 -0.0695902 91 32 0
0.0477108 0.114899 -0.0902438 187 108 89
0.0444308 0.109055 -0.0649575 78 0 0
0.0481904 0.117081 -0.0823397 158 80 49
0.0510412 0.0840499 -0.0669657 34 31 21
0.0488011 0.117899 -0.0800538 174 107 0
0.0477055 0.111391 -0.0798111 102 43 11
0.0462292 0.117629 -0.0647421 51 0 0
0.0485504 0.117944 -0.081766 141 61 41
0.0468995 0.119045 -0.0683193 59 0 0
0.048659 0.103431 -0.0818938 171 95 67
0.0485911 0.117797 -0.0836167 164 77 55
0.0469887 0.113171 -0.0874132 158 83 53
0.0476953 0.11353 -0.0900681 181 95 75
0.0444236 0.104757 -0.0651907 79 23 0
0.0475877 0.116616 -0.0413413 0 0 0
0.046728 0.118935 -0.0697755 56 0 0
0.0518218 0.108637 -0.104596 238 165 132
0.0485496 0.118407 -0.0824696 150 72 49
0.0452221 0.10223 -0.0696879 70 37 0
0.0452696 0.11616 -0.0624143 41 0 0
0.0488947 0.102871 -0.0825903 165 84 50
0.04957 0.100077 -0.0801496 48 5 0
0.0477493 0.110964 -0.0797373 148 79 38
0.0534338 0.1037 -0.0882383 0 0 0
0.0457198 0.116542 -0.0691472 72 12 0
0.0485781 0.117626 -0.0852861 160 88 61
0.0478287 0.108825 -0.0900052 132 58 69
0.0466205 0.11931 -0.0639775 40 0 0
0.048359 0.11805 -0.0853262 174 64 44
0.0461439 0.117667 -0.0647595 56 0 0
0.0514853 0.122028 -0.032538 0 0 0
0.0459646 0.116528 -0.0708553 72 0 0
0.0456208 0.113497 -0.0593592 67 0 0
0.0448865 0.10381 -0.0698598 81 1 0
0.0502682 0.116657 -0.036222 0 0 0
0.0455228 0.101271 -0.0696571 72 19 0
0.0480211 0.107123 -0.0541435 60 0 0
0.0482892 0.113699 -0.0957124 247 152 101
0.0447291 0.109974 -0.0646053 60 14 0
0.0459258 0.117379 -0.0679097 60 4 0
0.0459202 0.117425 -0.0656089 42 0 0
0.0446151 0.109568 -0.0636963 79 0 0
0.0454645 0.100772 -0.0678771 107 35 0
0.0472251 0.11863 -0.07452 66 17 0
