ply
format ascii 1.0
comment Created by Open3D
element vertex 1208
property double x
property double y
property double z
property uchar red
property uchar green
property uchar blue
end_header
0.0327245 0.0683191 -0.0282204 43 30 23
0.0644798 0.0311221 -0.0697712 100 67 59
0.0312452 0.0544601 -0.024542 46 30 24
0.068236 0.0103121 -0.00351788 0 0 0
0.0635147 0.0782539 -0.0256476 45 28 21
0.0677151 0.0391101 -0.0413878 50 38 31
0.0427251 0.0259343 -0.0360796 31 21 17
0.0374639 0.0329903 -0.0159336 55 34 34
0.0639743 0.0285136 -0.0412746 49 26 23
0.0339193 0.0633463 -0.0379139 42 28 24
0.0699078 0.0705166 -0.0569816 48 21 5
0.0445238 0.0328368 -0.0108668 56 27 31
0.0521141 0.0224963 -0.0406527 67 58 47
0.0565722 0.025617 -0.0366534 27 8 1
0.0642259 0.0772639 -0.0230611 48 30 23
0.0577625 0.044367 -0.00577329 45 26 22
0.0733791 0.0514272 -0.0431258 45 36 29
0.0704239 0.041283 -0.0737271 139 134 124
0.0343697 0.059496 -0.0230525 68 58 50
0.0399001 0.0281864 -0.02076 114 83 62
0.0726382 0.0508282 -0.0417578 66 56 49
0.0610404 0.0315527 -0.0663345 104 76 63
0.0620294 0.0708731 -0.0132574 41 32 26
0.0655668 0.0492529 -0.0127579 41 24 21
0.0716193 0.074389 -0.036215 169 135 102
0.0729584 0.0816873 -0.0508902 91 56 64
0.0709804 0.0414117 -0.0472201 64 42 34
0.0588165 0.064706 -0.0119822 49 35 22
0.0704195 0.0743647 -0.0266023 46 32 25
0.069181 0.0716958 -0.0173447 53 37 28
0.0371512 0.0502024 -0.0111565 49 35 28
0.0658157 0.051481 -0.0115758 47 34 31
0.0331583 0.0666635 -0.0270381 42 31 27
0.0678026 0.0748916 -0.0202001 47 29 19
0.0708266 0.0735211 -0.0230687 40 26 18
0.0661307 0.0755308 -0.0203095 47 31 24
0.039965 0.079449 -0.0235486 37 21 16
0.0719905 0.0593321 -0.039542 0 0 0
0.0662604 0.0415439 -0.0359345 50 31 26
0.0329404 0.0674414 -0.0276059 44 28 25
0.0696062 0.0396009 -0.0529926 93 81 78
0.0592342 0.0661684 -0.0127468 45 27 21
0.0652001 0.0346725 -0.0768635 105 75 67
0.0559601 0.0239424 -0.038873 48 27 26
0.0655671 0.0492669 -0.0142518 59 42 34
0.0725965 0.0467596 -0.0268973 51 30 23
0.0304048 0.0762644 -0.0114984 85 55 29
0.067116 0.0758356 -0.0427544 55 37 41
0.0705049 0.0330689 -0.0786303 113 89 85
0.0595632 0.0656049 -0.0114954 53 27 25
0.0510383 0.0239947 -0.0205761 0 0 0
0.0617702 0.0501869 -0.0101433 39 20 13
0.0608092 0.0507985 -0.00912295 36 15 15
0.0615278 0.0442366 -0.011793 33 20 16
0.0562207 0.035644 -0.0107134 45 31 21
0.071344 0.0465852 -0.0380687 54 41 46
0.0732327 0.0499596 -0.0708023 134 138 123
0.0690814 0.0661444 -0.0715715 70 50 38
0.0709533 0.0434343 -0.0737452 138 123 115
0.0381509 0.057774 -0.0113691 52 38 30
0.068583 0.0770459 -0.0324307 40 29 25
0.0545123 0.0837723 -0.0252389 41 26 14
0.0339333 0.0373636 -0.0209746 49 34 29
0.0715599 0.0645197 -0.0127132 37 26 26
0.0667902 0.0388112 -0.0418344 55 36 31
0.072141 0.0595618 -0.0478104 54 28 22
0.0548917 0.0302436 -0.0275271 74 61 52
0.0692393 0.0748046 -0.0214875 45 32 26
0.0591565 0.0812334 -0.0192241 47 34 26
0.0607559 0.0307685 -0.0345209 56 37 31
0.0664051 0.0803315 -0.0352556 56 37 30
0.0364258 0.0658457 -0.020734 51 34 28
0.0701214 0.046122 -0.0243508 53 38 35
0.0607034 0.0826433 -0.0294578 43 29 23
0.0615778 0.0784249 -0.0206618 43 27 19
0.063782 0.051013 -0.0126815 39 23 21
0.0387262 0.0334734 -0.0179703 60 43 39
0.0336727 0.0549004 -0.0183511 50 35 24
0.0295657 0.0502013 -0.0194678 51 46 36
0.0546066 0.0839202 -0.0253872 48 34 21
0.0592677 0.0706105 -0.0144621 28 19 21
0.0671612 0.0341978 -0.0680594 190 158 164
0.0705694 0.0592446 -0.0119651 46 33 29
0.0670449 0.0569355 -0.0113697 43 30 26
0.0542554 0.084466 -0.0223777 42 28 20
0.0531105 0.043472 -0.00760059 53 34 29
0.0304047 0.0457814 -0.0222534 45 28 26
0.031707 0.0516768 -0.0214257 47 34 28
0.0344889 0.037592 -0.040719 55 38 32
0.0362924 0.0582209 -0.0185797 51 34 27
0.0737847 0.0540289 -0.024175 41 31 32
0.068868 0.0743181 -0.020142 42 27 22
0.036392 0.0582621 -0.0156272 42 25 19
0.05979 0.033142 -0.0148604 110 88 83
0.0621545 0.0751059 -0.0195837 53 35 25
0.0520552 0.0374147 -0.00845299 42 42 29
0.063036 0.0746418 -0.0186947 33 20 19
0.0615605 0.0795962 -0.0221772 38 23 21
0.0322759 0.0609563 -0.0282526 48 34 29
0.0414297 0.0377155 -0.011052 51 35 29
0.0438671 0.0668572 -0.0132531 54 38 28
0.0628197 0.0403779 -0.0220136 45 27 21
0.0809799 0.111402 0.00201348 0 0 0
0.0665113 0.0473642 -0.0214972 40 27 18
0.0623861 0.043614 -0.0175194 44 30 27
0.0696155 0.0464918 -0.0216734 42 22 18
0.0687905 0.0526437 -0.0161641 43 28 24
0.0343962 0.0547867 -0.01783 48 31 25
0.0662045 0.0387082 -0.0800399 79 50 52
0.0730553 0.0553931 -0.0191736 51 28 21
0.0386446 0.0616526 -0.017096 43 37 32
0.0399425 0.0292855 -0.0335562 0 0 0
0.060876 0.0282881 -0.034179 57 27 19
0.074858 0.0545072 -0.0253653 43 30 32
0.0710362 0.0641866 -0.0361788 0 0 0
0.0323202 0.0683069 -0.028515 54 36 30
0.0691588 0.0620836 -0.0119946 45 32 29
0.0734363 0.0689809 -0.0255241 50 35 28
0.0588428 0.0768835 -0.0146681 51 34 25
0.0718837 0.046575 -0.0482857 49 28 23
0.0691979 0.0123042 -0.00365412 0 0 0
0.0419166 0.0661057 -0.0149842 39 26 23
0.0609305 0.0509254 -0.00906532 34 21 10
0.0584859 0.08505 -0.031397 50 33 28
0.0636989 0.0319862 -0.050323 41 16 13
0.0617247 0.0267167 -0.0384861 32 20 21
0.0597141 0.0494648 -0.00700485 0 0 0
0.0716015 0.0427692 -0.0637982 131 131 128
0.0361433 0.0251027 -0.0287349 81 17 6
0.0616368 0.030225 -0.0654834 103 73 62
0.0443297 0.0860567 -0.0108034 48 32 31
0.0724813 0.0446567 -0.0466744 66 51 43
0.0603488 0.0673498 -0.0104431 35 21 23
0.0672482 0.0350937 -0.07214 183 153 149
0.0310104 0.0720958 -0.0467396 65 48 42
0.0424484 0.0816735 -0.027171 57 31 5
0.0665796 0.0725014 -0.0145959 33 32 27
0.0642714 0.0611633 -0.010252 52 30 25
0.0671404 0.0479224 -0.0205031 27 4 0
0.0613013 0.0325045 -0.00917278 29 29 17
0.0644914 0.0419366 -0.0226024 42 25 16
0.0648325 0.0474611 -0.0179212 53 32 24
0.0588307 0.0699035 -0.0159383 48 31 26
0.0433828 0.0640131 -0.0154256 54 38 31
0.0406604 0.0792934 -0.0244171 46 30 20
0.0625676 0.0435434 -0.0210471 51 32 28
0.0663465 0.040226 -0.0106621 0 0 0
0.0759382 0.0602592 -0.0186842 58 29 31
0.056059 0.0328351 -0.0231215 44 30 26
0.0639051 0.0337306 -0.0419524 48 27 22
0.0658989 0.0784717 -0.0282345 45 29 23
0.033248 0.0441427 -0.038982 64 40 35
0.0511928 0.0227478 -0.0291588 0 0 0
0.0707908 0.051322 -0.0235593 49 34 30
0.0538314 0.0384356 -0.00843565 49 30 23
0.0714363 0.0355651 -0.0717276 173 147 154
0.0601162 0.0758743 -0.0183208 41 23 20
0.074093 0.0515355 -0.0431823 81 89 83
0.0717827 0.0608722 -0.0631692 125 80 64
0.0649414 0.0284803 -0.0656115 87 71 70
0.0672785 0.0389918 -0.0799768 122 91 81
0.0333284 0.0677136 -0.0381445 61 46 37
0.0729764 0.0673677 -0.0066638 29 0 0
0.0333353 0.0649656 -0.0448253 54 32 29
0.0720165 0.0426155 -0.0444078 79 74 64
0.0323575 0.0648685 -0.0347771 8 0 0
0.0656175 0.0373273 -0.0855155 26 0 0
0.0702085 0.0502383 -0.0756641 69 48 41
0.0703116 0.054238 -0.0746215 54 31 0
0.0698315 0.0600546 -0.0737113 54 33 27
0.0686872 0.0613731 -0.0745519 66 46 39
0.0507517 0.030002 -0.0291566 58 39 29
0.0689124 0.0452431 -0.0798621 84 55 49
0.0711072 0.0600907 -0.0642123 63 35 28
0.06892 0.0621918 -0.0733625 70 43 35
0.0662197 0.0653307 -0.0727998 70 40 38
0.0655561 0.0670855 -0.0730818 85 65 57
0.0627049 0.030606 -0.0769033 75 49 39
0.06487 0.0339173 -0.0820615 118 85 76
0.0407453 0.0301797 -0.0621433 85 57 48
0.0699372 0.0469117 -0.0751245 68 49 37
0.0680662 0.062818 -0.0736063 34 25 20
0.0641253 0.0341853 -0.0801646 113 89 78
0.0660858 0.0395124 -0.0874243 117 83 69
0.0617301 0.0734434 -0.061646 49 29 20
0.0404482 0.0295613 -0.0617859 98 70 70
0.0364069 0.0366237 -0.0645407 24 0 0
0.0374831 0.0411581 -0.0647205 0 0 0
0.068515 0.0468382 -0.0815068 104 95 85
0.0688698 0.0446651 -0.0798776 68 41 41
0.0673979 0.063636 -0.0740139 119 93 80
0.0650221 0.0342485 -0.080595 97 68 50
0.0586437 0.0326752 -0.0313588 44 28 22
0.0472301 0.0288883 -0.0307682 60 43 37
0.0711421 0.0542058 -0.0680629 78 49 38
0.0713026 0.0599351 -0.0694465 69 36 27
0.0639589 0.0319093 -0.069546 93 62 56
0.0534561 0.0311118 -0.0290831 42 21 14
0.0648713 0.0721 -0.0660931 61 38 32
0.0335599 0.038347 -0.0375682 17 0 0
0.0697692 0.0591527 -0.058697 0 0 0
0.0654369 0.0687389 -0.0706757 59 40 33
0.0566298 0.0308892 -0.0309464 52 37 27
0.0369482 0.0417782 -0.0640032 3 0 0
0.0696524 0.0575861 -0.0732976 69 49 44
0.0360603 0.0396084 -0.0661864 37 0 0
0.0535787 0.0843557 -0.0340167 40 21 22
0.0367139 0.0492192 -0.0647025 89 71 61
0.0704466 0.0519697 -0.0672783 82 54 45
0.0470315 0.0250765 -0.06126 82 60 54
0.0591984 0.0334217 -0.0308723 34 18 13
0.0696646 0.0580054 -0.061022 80 48 32
0.0355206 0.0507743 -0.0606708 73 47 36
0.0677468 0.040755 -0.0686098 89 65 55
0.0615369 0.0782361 -0.0419516 44 28 23
0.0528345 0.0239109 -0.0504015 54 35 31
0.0715148 0.0580692 -0.0674781 50 14 10
0.0681379 0.043923 -0.0249683 48 31 26
0.0700728 0.0692549 -0.0542328 192 182 161
0.0698289 0.0582186 -0.0605405 69 57 45
0.0527979 0.0264759 -0.0324461 51 37 32
0.0330248 0.0376357 -0.0313155 106 78 72
0.0703818 0.050744 -0.0686371 83 57 47
0.0325597 0.0423155 -0.0350519 32 13 7
0.0342156 0.0336744 -0.0476226 62 36 31
0.0698426 0.0626518 -0.0657514 68 40 33
0.0332915 0.0466458 -0.0399531 76 53 47
0.0700899 0.0466925 -0.066531 87 58 50
0.0693352 0.0639635 -0.0594157 83 65 58
0.0553752 0.026531 -0.0630652 42 32 30
0.0469527 0.0293157 -0.0299982 38 33 28
0.0496169 0.0235432 -0.0587704 124 92 84
0.0516246 0.0303204 -0.0302001 41 25 20
0.0338949 0.033971 -0.0447953 45 26 21
0.0552618 0.0255787 -0.0582665 54 35 31
0.0714001 0.0634316 -0.0487758 47 33 27
0.0702644 0.0555228 -0.0626564 78 41 28
0.0541773 0.0236794 -0.0441988 51 30 25
0.0679031 0.0691867 -0.0594491 41 23 17
0.0672627 0.0738029 -0.0430613 55 34 27
0.05548 0.0310995 -0.0320198 78 57 43
0.0738219 0.0641974 -0.0170743 47 28 21
0.0698713 0.0487668 -0.078169 74 50 41
0.0648355 0.034616 -0.0808545 125 84 67
0.0565052 0.0315829 -0.0262416 28 10 9
0.0700054 0.0500849 -0.0773189 68 39 29
0.0650709 0.0340825 -0.0722431 96 69 55
0.0673202 0.0638586 -0.071968 0 0 0
0.069917 0.0440803 -0.0749486 113 91 79
0.0697595 0.0571632 -0.0602773 34 12 5
0.0685981 0.0696919 -0.0634531 65 51 42
0.0546531 0.0306314 -0.0299935 43 40 32
0.0670907 0.0404176 -0.0801076 136 102 92
0.0657618 0.0348909 -0.0751738 112 81 71
0.0649619 0.0372102 -0.0860781 147 125 111
0.0693768 0.0622903 -0.0593608 99 74 63
0.061863 0.0293532 -0.0706323 88 59 50
0.0675189 0.069793 -0.0594319 42 29 19
0.0681942 0.0420323 -0.0658464 98 73 63
0.0610594 0.0788998 -0.0458359 47 31 21
0.056085 0.0247137 -0.0480363 49 31 24
0.0449661 0.084409 -0.0333467 40 32 28
0.0334586 0.0570276 -0.0408175 60 39 34
0.0684488 0.0688196 -0.0636805 56 40 33
0.0644958 0.035543 -0.0791869 120 90 78
0.0664367 0.0399107 -0.0350317 0 0 0
0.0608934 0.0787247 -0.0464695 46 29 24
0.0671294 0.0408081 -0.0805071 128 98 87
0.0649586 0.0346166 -0.0760247 105 69 64
0.041935 0.025233 -0.0587298 117 108 96
0.0697406 0.0447342 -0.0651039 106 85 79
0.0688985 0.0653069 -0.0590993 48 28 17
0.0698414 0.0584696 -0.0598923 46 39 33
0.0704896 0.0550254 -0.0628076 84 52 40
0.0696833 0.0438767 -0.0389232 0 0 0
0.0367971 0.0512926 -0.0664199 100 72 60
0.0691849 0.0494818 -0.062131 93 64 53
0.051398 0.0833905 -0.0340643 45 32 25
0.0554288 0.024506 -0.0587516 51 35 30
0.0652851 0.0633276 -0.0751696 60 45 31
0.0366316 0.0379999 -0.0636559 29 14 0
0.0551421 0.0838967 -0.0352142 39 17 21
0.0330842 0.0519301 -0.039553 44 28 21
0.0682786 0.0686883 -0.0595294 68 53 33
0.0313213 0.0483086 -0.0439439 44 28 22
0.0599277 0.0336516 -0.0314445 41 33 26
0.0689738 0.0446501 -0.0247167 47 34 29
0.0329207 0.0697426 -0.0275051 52 34 22
0.0639723 0.0310983 -0.0734435 98 69 58
0.0510403 0.0299969 -0.0297287 44 29 22
0.0698253 0.0582757 -0.0606208 69 58 49
0.0670897 0.0411964 -0.0360542 61 41 35
0.0372874 0.0445878 -0.0641211 82 48 44
0.0352568 0.0702676 -0.0434287 44 23 25
0.0381906 0.0449115 -0.0654894 37 18 12
0.0336697 0.0620501 -0.0403068 44 28 24
0.0562909 0.0805258 -0.044525 58 41 35
0.0372004 0.0311947 -0.0346475 45 33 30
0.0710546 0.0678912 -0.0467609 60 42 36
0.0677689 0.0435122 -0.024126 44 10 0
0.0390647 0.0760851 -0.0416415 56 46 37
0.065686 0.0485195 -0.017906 35 21 19
0.0656262 0.0740877 -0.054837 44 29 23
0.0679012 0.0683673 -0.0644942 63 32 24
0.034397 0.0708855 -0.0442783 43 26 29
0.0367975 0.036215 -0.0638587 92 64 57
0.0675149 0.0430557 -0.036925 52 40 31
0.0570239 0.0320427 -0.0298658 45 32 24
0.0363537 0.036473 -0.0636395 0 0 0
0.0635841 0.0333933 -0.0658897 90 65 54
0.0371884 0.0514498 -0.0658571 77 56 48
0.0703397 0.0468396 -0.0688783 72 41 31
0.0614449 0.0299434 -0.0587445 52 38 34
0.0332918 0.0445773 -0.0393897 47 24 22
0.0698171 0.0609453 -0.0618401 78 51 41
0.0618675 0.0807186 -0.0394224 33 23 32
0.0692784 0.047381 -0.062348 91 65 56
0.0327233 0.0409123 -0.0389413 59 39 31
0.0702313 0.0631882 -0.040177 50 40 31
0.0342088 0.0538492 -0.0513919 36 22 19
0.0364829 0.0537974 -0.0686431 90 59 44
0.0362141 0.0601044 -0.061687 42 32 30
0.073268 0.0521098 -0.0241115 46 28 20
0.0426174 0.0253296 -0.0452446 57 36 32
0.0328523 0.0605505 -0.0460664 25 16 13
0.0696424 0.058188 -0.0605055 65 53 48
0.0686478 0.0481821 -0.0619764 91 75 59
0.0638014 0.051027 -0.0129206 51 35 30
0.0680472 0.0430299 -0.0810862 109 88 76
0.0581148 0.0841246 -0.0342944 27 29 30
0.0684911 0.044164 -0.0816226 111 80 69
0.0364964 0.0369655 -0.0639152 0 0 0
0.037793 0.0501774 -0.0639957 19 0 0
0.0703586 0.0694185 -0.0478481 51 35 29
0.0343949 0.0332652 -0.0431881 44 27 22
0.0618198 0.0330109 -0.0638543 79 59 53
0.0565821 0.0320836 -0.0293956 42 21 17
0.0694726 0.0454436 -0.0711411 65 39 30
0.0689481 0.0410564 -0.0700553 100 77 65
0.0685896 0.0460883 -0.0635127 97 72 62
0.0485588 0.0237788 -0.0500052 38 30 27
0.0687047 0.073975 -0.050998 42 28 23
0.0691292 0.0455847 -0.0382028 61 43 37
0.066249 0.0787326 -0.0385749 19 1 0
0.070022 0.0491552 -0.0650443 89 72 63
0.0706823 0.0625989 -0.0402131 43 37 31
0.0688209 0.0454172 -0.0381923 59 42 36
0.0345408 0.0672207 -0.0413585 47 28 25
0.0344329 0.0340775 -0.0473629 39 23 19
0.0416338 0.0287525 -0.0302643 51 36 31
0.0709413 0.061589 -0.0401862 48 36 30
0.0329283 0.0457681 -0.0393008 62 47 38
0.0634326 0.0795745 -0.0407459 37 26 18
0.0452492 0.024562 -0.0364212 42 32 26
0.0619079 0.0344064 -0.0316909 47 28 23
0.0392797 0.0785384 -0.0348615 36 28 22
0.0326706 0.0429866 -0.0393974 44 25 21
0.0631887 0.0288214 -0.0429961 53 32 28
0.0654312 0.0651109 -0.0726755 67 34 27
0.0357509 0.0508979 -0.0696456 93 72 59
0.0593046 0.0337259 -0.0309538 48 23 22
0.0696343 0.0466813 -0.0754084 79 49 46
0.0392295 0.0790507 -0.0305039 45 31 23
0.0471494 0.0242759 -0.045872 50 36 29
0.0645319 0.0396292 -0.0347735 65 53 44
0.0691074 0.0419259 -0.0699581 96 70 61
0.0327802 0.0540764 -0.0512201 64 46 45
0.0353603 0.0697551 -0.042202 66 33 34
0.0324431 0.0475903 -0.0394238 56 37 27
0.0696282 0.0483645 -0.0634065 90 79 71
0.0663285 0.0404705 -0.0652577 91 71 61
0.0327953 0.0491861 -0.048584 52 32 27
0.0675946 0.0429558 -0.0644591 98 74 64
0.0561944 0.0327548 -0.0191542 52 32 25
0.0549872 0.0239831 -0.0489445 59 42 38
0.0328627 0.0552432 -0.0461833 47 30 25
0.0376536 0.0310136 -0.0374509 48 31 24
0.0387379 0.075988 -0.0417909 51 30 34
0.0331309 0.0519533 -0.0475574 39 25 20
0.0683241 0.039357 -0.0582209 73 58 53
0.062704 0.0324364 -0.0580138 75 58 48
0.045299 0.0282652 -0.0301581 50 31 24
0.0349499 0.0328061 -0.0478484 42 28 24
0.0367877 0.0654478 -0.0576796 1 11 0
0.0683256 0.0438012 -0.079952 79 59 45
0.0409462 0.0294014 -0.0627482 91 65 52
0.0488239 0.0294212 -0.0299727 37 25 21
0.0691594 0.0605213 -0.0594452 89 71 60
0.0684401 0.0742644 -0.0509234 53 33 28
0.069365 0.0422244 -0.0683955 97 70 61
0.0700794 0.0487325 -0.0651888 101 71 59
0.06665 0.0390369 -0.0680917 83 63 49
0.0361138 0.0731067 -0.0407556 55 34 30
0.0698697 0.0580935 -0.0605598 30 9 8
0.065185 0.0776031 -0.0483137 55 30 26
0.0341757 0.03923 -0.03796 65 46 39
0.0694958 0.0454196 -0.064169 88 75 65
0.0325937 0.0503636 -0.0513776 32 16 12
0.0331333 0.0588123 -0.0440426 48 32 28
0.0353727 0.0616792 -0.0599427 68 43 42
0.0348933 0.0676708 -0.0467496 44 28 22
0.035373 0.0702247 -0.0420376 50 23 22
0.0702523 0.0650322 -0.0404694 63 45 37
0.0643302 0.0755266 -0.055336 42 29 22
0.069803 0.0481576 -0.0636647 0 0 0
0.0355695 0.0537356 -0.0686679 90 61 48
0.0714856 0.0571937 -0.0509602 58 39 33
0.0690635 0.048468 -0.0626428 74 48 43
0.04217 0.0266987 -0.0527065 61 46 39
0.0656784 0.0771601 -0.0474878 56 29 28
0.0349961 0.0327057 -0.0478085 42 27 21
0.0690531 0.0659835 -0.0589339 38 19 13
0.0675302 0.048904 -0.020467 42 27 21
0.0621213 0.0782738 -0.049143 52 25 24
0.052387 0.0228484 -0.0470787 55 35 31
0.0700424 0.0559572 -0.0612216 67 41 27
0.0726344 0.05613 -0.0497985 66 50 43
0.0699427 0.050569 -0.0182535 39 22 28
0.0694631 0.0617087 -0.0594412 120 84 67
0.0695039 0.062151 -0.0596466 73 46 31
0.0328815 0.0454149 -0.0392678 66 47 40
0.0614213 0.079271 -0.0458486 50 27 16
0.0700768 0.0525433 -0.0646629 88 58 45
0.069392 0.0429435 -0.0717385 74 52 41
0.0666464 0.0402837 -0.065311 105 86 75
0.0691772 0.0658327 -0.0590001 49 32 23
0.067394 0.0734672 -0.0433648 54 37 29
0.0707055 0.0455379 -0.0526744 51 34 27
0.0677828 0.0436961 -0.0788427 103 82 72
0.0574897 0.033272 -0.0297252 34 17 10
0.0690208 0.0654955 -0.0632974 41 24 19
0.066506 0.0402221 -0.0859262 111 79 68
0.0707507 0.057074 -0.0721183 73 45 39
0.0702416 0.0503852 -0.0670032 87 62 55
0.033136 0.0540679 -0.0392347 40 31 25
0.0667357 0.0693474 -0.064639 14 0 0
0.0631078 0.0480371 -0.016638 53 36 32
0.0684808 0.0660425 -0.0642623 72 48 49
0.0695376 0.0515066 -0.0646167 87 62 52
0.0551638 0.024031 -0.0483837 66 55 47
0.0402425 0.0295486 -0.061887 80 36 41
0.0677019 0.0693716 -0.0594129 37 27 26
0.0660336 0.0401231 -0.0353018 0 0 0
0.0369137 0.0485955 -0.063397 38 0 0
0.0691082 0.0417202 -0.0617848 59 37 29
0.0330533 0.0518139 -0.0468061 43 25 19
0.0668512 0.0401045 -0.0666996 101 74 64
0.0500312 0.0237437 -0.0515201 43 37 30
0.0654864 0.0365262 -0.0682054 102 75 62
0.0719198 0.0466072 -0.0530945 42 15 11
0.0696326 0.061646 -0.0596188 77 66 53
0.0390733 0.0794667 -0.0319671 54 34 23
0.0688125 0.0495226 -0.0623994 80 65 55
0.0341813 0.0717371 -0.0270291 46 31 25
0.0686442 0.0471586 -0.0639439 95 69 60
0.0704496 0.0559514 -0.0399614 55 41 34
0.0653981 0.0369573 -0.0791833 114 90 74
0.0463797 0.0241552 -0.0382141 46 33 29
0.0327862 0.0514081 -0.0450016 44 28 21
0.0707566 0.0523866 -0.0388723 57 48 41
0.0667017 0.0396173 -0.0858227 83 60 62
0.0644453 0.0480071 -0.0179713 51 34 30
0.0636232 0.0373494 -0.0354465 58 38 33
0.0558923 0.0239569 -0.0553058 62 47 38
0.0390979 0.0307546 -0.033227 58 47 51
0.0468512 0.0227038 -0.0566893 218 182 169
0.0472262 0.0290941 -0.0294517 43 25 22
0.0369612 0.0350248 -0.0632934 26 0 0
0.0685188 0.0412515 -0.0778963 134 90 86
0.055026 0.0309853 -0.0297995 38 12 9
0.0697507 0.0562972 -0.0595169 46 17 14
0.0708164 0.0494636 -0.0377382 62 48 46
0.0540903 0.0309843 -0.0324463 62 42 35
0.0619859 0.0331358 -0.0666073 95 66 54
0.0620956 0.0314602 -0.0584999 15 0 0
0.0713616 0.0569807 -0.0652397 83 57 48
0.0403639 0.0284561 -0.0616952 93 72 62
0.0690606 0.0455527 -0.0642638 85 63 51
0.0400884 0.0275187 -0.0651021 70 56 41
0.0553478 0.031362 -0.020207 39 20 19
0.0680551 0.0423589 -0.0823305 119 93 80
0.0326959 0.0450904 -0.0509301 53 34 28
0.0355178 0.036424 -0.0560439 52 36 30
0.0349333 0.0365137 -0.0193895 54 38 33
0.0710761 0.0462872 -0.0512244 41 20 16
0.0708073 0.0450007 -0.0560608 56 31 27
0.0672382 0.0699978 -0.0595422 62 44 41
0.0677402 0.0774596 -0.035502 42 28 23
0.0329433 0.0637295 -0.0451725 56 46 35
0.0651755 0.0359359 -0.0866922 76 49 33
0.0318709 0.0399934 -0.0219757 50 34 30
0.0348852 0.0691267 -0.0512067 17 22 9
0.0352337 0.0721787 -0.0479695 45 31 25
0.0715318 0.0532862 -0.05345 51 37 32
0.0469651 0.0245951 -0.0606984 80 62 58
0.0689767 0.0509479 -0.0638085 93 67 54
0.0630592 0.0365517 -0.032803 38 21 13
0.0639481 0.0363483 -0.0681889 108 80 68
0.0385733 0.0285199 -0.0360149 48 43 32
0.0348229 0.0689186 -0.044175 42 26 20
0.0353755 0.070594 -0.0492337 50 36 27
0.0546832 0.0311059 -0.0194751 34 17 16
0.0388719 0.0280668 -0.0351996 46 30 24
0.0637447 0.0368942 -0.0357405 56 40 31
0.0646895 0.0360338 -0.0839177 121 85 73
0.0714119 0.0507098 -0.0525765 63 41 33
0.0391003 0.0301777 -0.0334434 58 44 44
0.0679527 0.0697012 -0.0627369 82 55 45
0.0386608 0.0287385 -0.0358208 43 34 33
0.0487301 0.025214 -0.0611465 95 70 62
0.0395483 0.030059 -0.0377709 55 36 30
0.0358935 0.0713682 -0.0432639 51 33 21
0.0399335 0.0282416 -0.0345716 49 33 29
0.0714847 0.0564372 -0.0665665 75 43 37
0.0699406 0.0587509 -0.0607007 62 34 27
0.0667814 0.0698915 -0.0636289 38 30 25
0.0355857 0.0462426 -0.0641704 22 0 0
0.0675456 0.0414613 -0.0381773 65 46 39
0.065368 0.0350072 -0.0735155 95 76 68
0.0326479 0.0415346 -0.0373324 54 26 19
0.036598 0.05814 -0.0594366 10 5 5
0.0667639 0.0376086 -0.0735414 120 87 78
0.065234 0.0647257 -0.0738671 90 64 56
0.0333136 0.0523668 -0.0465947 50 33 28
0.0595572 0.083099 -0.0343032 36 26 25
0.0700953 0.0563951 -0.0599811 24 0 0
0.0338298 0.0567553 -0.052359 35 21 17
0.0661971 0.036703 -0.0733535 129 95 87
0.0721913 0.0510331 -0.0446115 61 45 37
0.0711057 0.0450383 -0.0550293 52 29 24
0.0330761 0.0521414 -0.046289 42 27 20
0.0358513 0.0674565 -0.054757 53 29 23
0.0706247 0.0497433 -0.0554579 47 29 25
0.0536351 0.023545 -0.0488585 63 47 45
0.0331557 0.0459517 -0.0393618 88 50 42
0.0683826 0.0699337 -0.0596245 76 55 43
0.0376449 0.0590423 -0.0610253 25 16 10
0.0663361 0.0376088 -0.0758134 87 59 48
0.0365163 0.0344569 -0.0352568 57 39 33
0.0478925 0.0231315 -0.0638234 103 76 63
0.071796 0.048578 -0.0360742 0 0 0
0.0717145 0.0538016 -0.0506959 61 49 40
0.0725053 0.0561766 -0.0498695 57 37 32
0.0648207 0.0347993 -0.0829746 116 80 68
0.0706766 0.0456387 -0.0561684 57 42 36
0.0645061 0.0348634 -0.0400435 54 37 30
0.0429182 0.0814083 -0.0292383 42 42 24
0.0656988 0.0366987 -0.0770572 104 77 67
0.0368873 0.0636508 -0.0608388 65 43 35
0.0659018 0.0382837 -0.0771984 97 65 54
0.0421835 0.0273531 -0.0626997 89 63 49
0.07193 0.0493777 -0.0461531 44 23 17
0.0620331 0.0775856 -0.0508599 54 34 23
0.0348671 0.0673043 -0.0515593 48 33 30
0.0719064 0.0501265 -0.0490568 44 23 19
0.0355464 0.070563 -0.0432267 55 38 32
0.0334132 0.0439922 -0.0389603 60 35 32
0.0684879 0.0685929 -0.0423743 66 47 37
0.0733862 0.0625611 -0.0226935 39 25 19
0.0671598 0.0415543 -0.0365127 0 0 0
0.0596927 0.0392797 -0.0170097 50 33 28
0.0722121 0.0596504 -0.0494002 50 29 21
0.0355399 0.052884 -0.0687919 95 68 55
0.0619764 0.0778826 -0.0477155 57 36 29
0.0647178 0.0387193 -0.0345932 49 36 30
0.0651576 0.0369069 -0.0799012 103 71 60
0.0676886 0.0419228 -0.0805544 108 55 51
0.0672659 0.0377565 -0.0682814 115 82 72
0.0369171 0.0647792 -0.0597985 58 34 30
0.0447517 0.025401 -0.0601443 80 67 66
0.0715673 0.0500132 -0.0526335 59 41 35
0.0648808 0.0395364 -0.0270241 39 22 16
0.0636298 0.0320652 -0.0718273 104 70 57
0.0719095 0.0499326 -0.050215 45 27 20
0.0661735 0.0390283 -0.0871039 101 76 65
0.0631005 0.0315458 -0.0729067 107 81 57
0.0675964 0.0408702 -0.0665991 94 74 65
0.0702326 0.0492764 -0.0662349 88 65 55
0.0710283 0.047456 -0.0381549 0 0 0
0.0366239 0.0420158 -0.0637742 81 61 49
0.0632239 0.0314064 -0.0557478 57 35 30
0.0669656 0.070557 -0.0598559 39 32 30
0.0648915 0.0355917 -0.0776706 111 85 72
0.0680781 0.0493015 -0.0619707 0 0 0
0.070049 0.0462303 -0.0657701 102 72 59
0.0644034 0.0337276 -0.0781764 117 80 66
0.066743 0.0750245 -0.0425034 44 39 37
0.0698311 0.0459168 -0.037324 0 0 0
0.0427239 0.0257739 -0.0490536 51 32 26
0.0697197 0.0544253 -0.0622557 66 34 15
0.0671983 0.041155 -0.0845845 101 67 57
0.0332727 0.0519552 -0.0480758 42 24 20
0.0419078 0.0270318 -0.053158 60 40 35
0.0335353 0.0570507 -0.0516963 36 17 14
0.0392415 0.0279386 -0.0399207 52 36 33
0.0373694 0.030836 -0.0593237 50 31 23
0.0558038 0.0336059 -0.0187824 49 33 26
0.0672342 0.0393548 -0.0753066 93 61 53
0.0647771 0.0360312 -0.0860739 103 69 58
0.0332979 0.040268 -0.0511488 50 47 38
0.0323082 0.0642607 -0.0285648 48 32 25
0.0668904 0.043182 -0.0364664 35 21 17
0.0693428 0.0434609 -0.0682954 83 57 47
0.0723216 0.0533498 -0.0382378 0 0 0
0.0651567 0.0396733 -0.0350043 61 41 36
0.0668427 0.0394509 -0.0809268 128 91 79
0.0374993 0.0300005 -0.0366871 44 33 33
0.0655827 0.0478176 -0.0172675 49 34 34
0.0500141 0.0233851 -0.0424022 47 29 25
0.0685623 0.0445389 -0.0382521 65 44 37
0.0666703 0.0708752 -0.0598568 59 44 35
0.0716256 0.0516633 -0.0406679 51 37 30
0.0358596 0.0354436 -0.0362437 61 46 40
0.042244 0.0253363 -0.0401501 41 28 24
0.0483086 0.0237843 -0.0639834 133 95 87
0.0401827 0.0311641 -0.0617667 35 14 9
0.0706611 0.0434184 -0.0446081 54 38 31
0.0650142 0.0338762 -0.0723987 85 68 59
0.0333478 0.0472139 -0.0403551 0 0 0
0.0369818 0.0413963 -0.0650205 66 45 31
0.0453629 0.0243559 -0.0470895 60 40 35
0.0697361 0.0419023 -0.0411146 51 36 31
0.0362678 0.0521548 -0.067632 98 75 64
0.0720649 0.0517593 -0.0450316 55 36 30
0.0711005 0.0556519 -0.0403176 70 44 35
0.0716915 0.0532829 -0.0512092 55 36 32
0.0647344 0.0339721 -0.0695876 100 74 63
0.0379522 0.0331543 -0.0627822 32 0 0
0.0373296 0.0493085 -0.0651291 90 70 64
0.038953 0.0287814 -0.0589772 103 75 65
0.0569167 0.0277933 -0.0638949 90 66 55
0.0671409 0.0398309 -0.0682966 89 65 54
0.0665127 0.0411198 -0.0358043 68 48 40
0.0437635 0.0247717 -0.0655155 88 62 43
0.0569274 0.0277632 -0.0638818 94 70 59
0.0325813 0.0375783 -0.0444646 54 34 29
0.0695386 0.0462005 -0.0633874 91 71 65
0.036756 0.0497918 -0.0640167 83 61 54
0.0487237 0.0227994 -0.0429934 31 12 8
0.0709092 0.061539 -0.0401674 64 44 35
0.0362622 0.0611723 -0.0604643 28 13 10
0.069772 0.0470256 -0.0375261 63 43 37
0.065661 0.0360954 -0.0733111 121 93 86
0.0450912 0.0246767 -0.0391777 36 23 18
0.037 0.073126 -0.0223866 58 38 26
0.0714362 0.0515416 -0.0396717 58 40 31
0.032734 0.0401822 -0.0450305 58 40 34
0.0528275 0.0296008 -0.0204169 29 14 11
0.0696524 0.0416591 -0.0552936 56 40 35
0.0426774 0.0254206 -0.0459752 55 37 32
0.0495853 0.0227528 -0.0448998 39 21 16
0.0340452 0.0380185 -0.0416741 63 45 38
0.0368262 0.0587797 -0.0595299 25 13 11
0.0469571 0.0250528 -0.0605789 89 68 55
0.0366015 0.0563483 -0.0645689 71 54 45
0.0312413 0.0392689 -0.0226178 44 29 25
0.0720366 0.0522688 -0.0507723 52 37 32
0.0667083 0.0787644 -0.0365073 39 22 17
0.0321452 0.0435068 -0.0471146 45 31 25
0.0335251 0.0521173 -0.0403881 26 18 16
0.0763883 0.0598803 -0.0252622 40 31 27
0.0327387 0.0551183 -0.0384706 39 26 26
0.0356843 0.0530269 -0.0681377 93 72 61
0.0406227 0.0794448 -0.0308743 39 26 23
0.0698516 0.0397079 -0.0456135 57 40 34
0.0390717 0.0275762 -0.0361536 47 33 28
0.0670962 0.040715 -0.0803365 101 69 59
0.0456349 0.02443 -0.0398778 57 32 33
0.0590277 0.0386334 -0.0137784 49 33 27
0.033646 0.0545236 -0.0175158 53 39 31
0.0608232 0.0407489 -0.0164009 38 12 9
0.0689498 0.0458619 -0.0631038 98 71 63
0.0310439 0.0544287 -0.0279897 33 18 17
0.0650249 0.0349642 -0.0728769 93 67 56
0.0594314 0.0395147 -0.0146888 66 44 33
0.0558768 0.0334609 -0.0187114 45 29 21
0.070163 0.0618056 -0.0400779 50 35 25
0.0389349 0.0588056 -0.0117234 40 32 21
0.0704985 0.0672181 -0.0496722 46 29 23
0.0494647 0.0230531 -0.0446871 43 26 20
0.0718767 0.0516935 -0.0407216 65 48 42
0.0359668 0.0318164 -0.0484922 47 29 24
0.0394456 0.0297376 -0.0328745 44 29 25
0.0709194 0.0563209 -0.0399588 57 43 37
0.036392 0.0511373 -0.0121762 52 38 32
0.0640622 0.0774571 -0.0461065 53 33 29
0.034436 0.0662072 -0.0467116 27 17 14
0.0700248 0.0438125 -0.0405045 59 40 35
0.0686404 0.0395061 -0.0416097 59 42 36
0.0697536 0.0436765 -0.0395579 61 42 35
0.0712831 0.0564018 -0.0404083 44 29 26
0.0702005 0.0460032 -0.0373134 58 40 36
0.0350845 0.0367923 -0.0362516 60 66 54
0.0495738 0.0229186 -0.0441202 44 25 20
0.0707508 0.0614231 -0.0407441 55 36 30
0.0418381 0.0292843 -0.0302444 55 42 36
0.0358871 0.0518309 -0.0601042 0 0 0
0.0644494 0.0770539 -0.0422387 0 0 0
0.0658478 0.0398167 -0.034749 47 22 17
0.0355912 0.0506032 -0.0616466 43 23 18
0.0518149 0.0841589 -0.0310765 51 38 30
0.0664422 0.06304 -0.071468 46 16 0
0.0626238 0.0783183 -0.0430264 49 24 18
0.0700926 0.0570007 -0.0565671 0 0 0
0.043772 0.0260607 -0.0609576 97 71 65
0.035882 0.0530896 -0.0686841 97 72 58
0.0371819 0.0420933 -0.0650846 56 36 22
0.0432853 0.0258379 -0.0515413 53 32 26
0.0329803 0.0633655 -0.0406795 39 21 16
0.0647502 0.0361072 -0.0817852 103 86 71
0.0372679 0.0307219 -0.0589095 48 25 26
0.0483667 0.0286049 -0.021978 33 20 14
0.0476954 0.0258702 -0.0348888 46 35 30
0.0381359 0.030153 -0.0346571 46 36 31
0.0346978 0.0705004 -0.049267 44 27 20
0.0310699 0.0396858 -0.0242664 47 33 30
0.0408987 0.0277022 -0.0476098 54 38 32
0.0378164 0.0299623 -0.0370893 31 23 18
0.0720726 0.0530009 -0.044802 60 42 35
0.0335644 0.0576262 -0.0511769 41 28 23
0.0677356 0.0442972 -0.0370153 57 42 31
0.0716656 0.0582321 -0.0416921 59 42 33
0.0485956 0.0234103 -0.0458632 60 33 28
0.0720018 0.0528286 -0.0461596 50 31 26
0.0299985 0.0455109 -0.0459575 19 5 5
0.0320534 0.057601 -0.0297777 45 28 25
0.0330369 0.0458292 -0.0394029 85 59 50
0.0634255 0.0378846 -0.0335511 42 24 17
0.0713867 0.0669278 -0.0445561 17 0 0
0.0663089 0.0383436 -0.08164 140 101 90
0.0542071 0.0246712 -0.0593944 58 36 31
0.0552311 0.0244696 -0.0586142 64 44 40
0.070494 0.0634547 -0.0402525 62 49 43
0.0307183 0.0548043 -0.029911 19 10 14
0.0708638 0.0618238 -0.0402017 61 44 38
0.0355249 0.0790346 -0.0259708 61 45 27
0.0455765 0.0242855 -0.0391015 42 30 25
0.0506222 0.0236834 -0.0637598 87 62 52
0.0699484 0.039904 -0.0457492 49 33 27
0.0558953 0.0357386 -0.0167337 58 38 34
0.0714688 0.0452219 -0.0424502 53 39 31
0.0612637 0.0270745 -0.0446174 50 38 36
0.0684878 0.0411921 -0.0391353 57 38 33
0.07085 0.0436621 -0.040311 55 37 30
0.0477625 0.0278953 -0.0207623 43 28 23
0.0702477 0.0633308 -0.0401979 64 47 35
0.0489435 0.0290998 -0.0210867 29 16 14
0.0601609 0.0391164 -0.0167641 45 31 22
0.0691806 0.0405082 -0.0468352 44 27 23
0.0400503 0.0277841 -0.0209491 49 34 32
0.0710254 0.0547221 -0.069609 87 55 45
0.0341987 0.0367903 -0.0364839 13 15 0
0.0342753 0.0571102 -0.0621188 31 13 11
0.0628315 0.0305054 -0.0683484 78 51 46
0.0673243 0.075007 -0.0505257 53 37 36
0.0312378 0.0547488 -0.0488855 42 25 30
0.070118 0.0494492 -0.0689468 85 55 46
0.0696792 0.0569749 -0.061682 81 40 29
0.0689027 0.040876 -0.0583728 53 36 26
0.0334749 0.0542224 -0.0492187 34 21 16
0.0688143 0.0405259 -0.056515 61 46 38
0.0641716 0.032583 -0.0507204 48 41 33
0.0709957 0.0611341 -0.0533556 48 22 16
0.0633378 0.0317386 -0.0518187 44 27 22
0.0335334 0.0542825 -0.0470346 41 28 24
0.0405803 0.0286031 -0.0619639 78 65 44
0.0700043 0.0443634 -0.052734 52 36 30
0.0709215 0.0458314 -0.0558304 43 34 28
0.0325778 0.0427161 -0.0458111 58 42 33
0.0325752 0.0390527 -0.046004 58 39 36
0.0715217 0.0523889 -0.0508529 50 30 28
0.0391333 0.0276731 -0.0388802 49 30 23
0.0655448 0.0372143 -0.0810659 135 101 91
0.0357525 0.0619691 -0.058957 44 36 33
0.0437736 0.0256879 -0.0608209 91 61 59
0.0558541 0.0355741 -0.0162761 50 39 33
0.0725712 0.0494192 -0.0434727 58 40 33
0.0721801 0.0575337 -0.0377608 0 0 0
0.0356524 0.0581557 -0.0584661 46 31 24
0.0641304 0.035005 -0.0670687 100 72 61
0.0301186 0.0560962 -0.043344 0 0 0
0.0667369 0.0397453 -0.0794386 140 98 79
0.0374857 0.0314605 -0.0379988 56 47 39
0.0381045 0.0775753 -0.0264029 52 39 28
0.0662723 0.0784001 -0.0375099 46 28 25
0.0710077 0.0555566 -0.0395147 51 33 26
0.0695892 0.0447816 -0.025519 43 31 24
0.0337027 0.0705623 -0.0274658 41 28 25
0.0344483 0.0327463 -0.0406047 54 30 22
0.0341127 0.0728322 -0.0274393 44 28 23
0.0396545 0.0767732 -0.0412884 48 33 29
0.0425209 0.0258503 -0.0488703 48 32 24
0.0336698 0.0704767 -0.0272576 41 28 24
0.063268 0.0424828 -0.0186239 36 22 15
0.0356378 0.0569856 -0.01456 46 26 16
0.0698747 0.0649952 -0.0404691 62 49 40
0.0697132 0.0650785 -0.0404438 36 11 2
0.0472853 0.0304848 -0.0183128 47 28 25
0.0647392 0.0278034 -0.0460323 61 34 29
0.0615705 0.0412739 -0.0180417 46 25 18
0.0339543 0.0530774 -0.0548034 53 39 35
0.0667828 0.0407946 -0.0810452 137 102 89
0.070878 0.061721 -0.040257 56 41 37
0.0527675 0.0305825 -0.0189429 35 20 15
0.0706099 0.0484429 -0.0383912 58 43 38
0.0717903 0.0464412 -0.0422103 56 41 33
0.037669 0.0313762 -0.0373172 44 32 23
0.0383757 0.0679914 -0.0175004 39 27 23
0.0707152 0.0452899 -0.0408695 58 40 33
0.0715822 0.0452203 -0.042408 47 34 25
0.0691198 0.0426945 -0.0367937 36 19 15
0.0686523 0.0393053 -0.044337 53 35 32
0.0353988 0.0340266 -0.0411161 53 34 32
0.0699114 0.0635118 -0.0667505 67 46 41
0.0591841 0.0252106 -0.0475907 66 48 41
0.0715842 0.0617233 -0.0495308 50 33 28
0.0674893 0.0669427 -0.0653455 54 40 37
0.0446728 0.0235957 -0.0458251 53 36 31
0.0422071 0.0258655 -0.0442699 48 33 29
0.0664843 0.0385961 -0.0782595 95 68 55
0.0363052 0.0613875 -0.0580961 41 26 22
0.0670325 0.0390223 -0.0691467 89 70 60
0.0687599 0.0495317 -0.0204881 49 29 27
0.0673927 0.0434038 -0.0800878 89 59 48
0.0644023 0.0397554 -0.0349506 60 42 37
0.0327369 0.0401613 -0.0446584 54 37 32
0.0667967 0.0681474 -0.0655763 57 27 20
0.0341525 0.0564197 -0.0530394 26 1 1
0.0369854 0.0491713 -0.0644016 18 0 0
0.0402392 0.0792273 -0.0283457 45 31 24
0.0483542 0.0287259 -0.0227178 30 19 15
0.0682627 0.0364477 -0.0530836 74 57 51
0.0331764 0.0360667 -0.0444033 58 37 30
0.0366259 0.0487431 -0.0634893 10 0 0
0.0351305 0.03511 -0.0218463 48 33 29
0.0330064 0.0546517 -0.0480697 36 21 18
0.0354892 0.0685937 -0.0525032 37 19 12
0.0424665 0.080224 -0.0269488 45 32 27
0.0326495 0.0536639 -0.0528821 50 32 27
0.0371268 0.0567982 -0.0644842 83 66 57
0.0324126 0.0392524 -0.0454924 55 36 29
0.0272347 0.0578485 -0.0184783 0 0 0
0.0449735 0.0242473 -0.0498891 45 30 25
0.0664573 0.0400507 -0.0350287 53 37 31
0.0653174 0.0712124 -0.0601886 53 35 28
0.0724375 0.0573754 -0.0368142 0 0 0
0.0410089 0.0272495 -0.0461766 52 36 30
0.0360707 0.061168 -0.0592367 45 30 24
0.0426837 0.0820049 -0.0335922 46 34 21
0.0364677 0.0634892 -0.0588239 53 32 26
0.0328401 0.0403169 -0.0448054 57 39 33
0.0287984 0.0600157 -0.039587 0 0 0
0.0682751 0.0437032 -0.0645791 94 69 57
0.0637775 0.0809352 -0.0359372 41 28 24
0.0310898 0.0552677 -0.028882 47 29 28
0.0701554 0.0628431 -0.0401093 49 32 21
0.0352965 0.0575542 -0.0577312 30 10 8
0.033845 0.0631376 -0.0406263 60 41 36
0.024424 0.0486043 -0.0328486 0 0 0
0.0658754 0.0367509 -0.0707624 89 61 52
0.0700227 0.0398667 -0.0450332 49 35 28
0.0687434 0.038476 -0.0429691 67 52 45
0.0701316 0.0500201 -0.0760349 64 37 26
0.0657204 0.0766395 -0.0428751 50 32 27
0.0650901 0.0772548 -0.0409404 59 50 48
0.0671604 0.0381436 -0.0771243 81 48 40
0.0704446 0.0467082 -0.0395322 55 38 32
0.0351474 0.0546982 -0.0144196 48 30 26
0.036312 0.0606726 -0.0601478 81 64 52
0.0648558 0.0763121 -0.0510724 53 35 25
0.0629588 0.0810181 -0.0338179 41 27 23
0.0309265 0.0403462 -0.0243912 46 31 26
0.0695702 0.0452082 -0.0645006 100 76 69
0.0665011 0.0380448 -0.068151 108 69 55
0.0693482 0.0502137 -0.0204464 28 16 10
0.0347385 0.0677124 -0.0505232 62 49 50
0.0713817 0.0545369 -0.0155183 44 30 26
0.0715031 0.0465106 -0.040545 52 34 30
0.0361578 0.0728203 -0.0239948 55 37 28
0.0740015 0.0650326 -0.0238801 54 42 24
0.0328725 0.0621638 -0.0363581 28 18 12
0.0677284 0.0357405 -0.0532322 80 67 62
0.0358882 0.0351675 -0.0571703 44 31 25
0.0666541 0.0405643 -0.0353393 59 41 35
0.0687329 0.0406826 -0.0381309 50 33 25
0.0331638 0.0535139 -0.0540039 39 22 17
0.0729989 0.0663178 -0.0232207 32 18 17
0.0706773 0.0525666 -0.0736356 74 68 49
0.072127 0.0602964 -0.0374812 0 0 0
0.0701741 0.062489 -0.0400694 57 41 33
0.0347163 0.0368204 -0.0362692 63 46 37
0.0706379 0.0566559 -0.0148192 43 29 26
0.0363062 0.0523222 -0.0659146 94 67 55
0.0648435 0.0476334 -0.0172347 63 44 43
0.0701308 0.0638706 -0.040289 64 48 34
0.0295623 0.0500682 -0.025584 25 10 12
0.0331385 0.0638268 -0.0424342 56 31 23
0.0727708 0.0690989 -0.0234712 50 34 28
0.0740514 0.0626751 -0.0233073 47 39 29
0.0698118 0.058468 -0.0608104 39 18 16
0.0364676 0.0520979 -0.0660648 91 64 53
0.0668269 0.0416621 -0.0359231 55 35 28
0.0346712 0.0679883 -0.0434111 49 28 19
0.0611265 0.0325603 -0.0637075 47 36 31
0.0317615 0.0496772 -0.0492029 40 5 0
0.064014 0.0793126 -0.0391336 32 17 12
0.0609922 0.0337442 -0.0645636 71 47 38
0.066068 0.0397418 -0.0656303 91 69 60
0.0411566 0.0272852 -0.0606989 70 52 41
0.0639826 0.0324978 -0.0506778 51 39 33
0.0373462 0.0424508 -0.0653891 44 21 13
0.0701069 0.0503368 -0.0182416 39 22 27
0.0365417 0.0325789 -0.0576412 53 30 21
0.0617481 0.0329532 -0.0646949 87 59 48
0.0323895 0.0443347 -0.0499604 46 31 27
0.0324345 0.0486287 -0.0480338 52 35 31
0.065781 0.0364415 -0.0742374 118 83 73
0.0326893 0.0514095 -0.0446409 47 27 23
0.0569029 0.0305125 -0.0228095 39 19 12
0.0359353 0.0641281 -0.0570873 51 47 0
0.0376707 0.0585086 -0.0616697 56 39 31
0.0653659 0.0376052 -0.0865442 78 48 36
0.0710384 0.043988 -0.0454736 38 26 21
0.0664405 0.0407999 -0.0368888 67 49 41
0.0699211 0.0472778 -0.0704184 67 25 18
0.0335287 0.0343627 -0.04769 56 38 32
0.0328867 0.0450448 -0.0511069 50 32 27
0.0332256 0.0569391 -0.0481231 25 13 9
0.0712092 0.0499279 -0.0531426 58 44 39
0.0312538 0.0392851 -0.0226067 46 31 27
0.0328694 0.0596363 -0.0536213 28 0 0
0.064398 0.0338421 -0.0451946 45 22 18
0.0432582 0.0250823 -0.0471674 48 35 31
0.0375365 0.0449002 -0.0646383 90 66 58
0.063458 0.0341357 -0.066958 110 80 66
0.0310249 0.0436972 -0.0255149 49 35 39
0.0693597 0.0415291 -0.0403767 54 39 33
0.0428007 0.0253881 -0.0478272 54 34 29
0.0716491 0.0510871 -0.0409737 55 40 33
0.0333376 0.063549 -0.0409356 34 16 14
0.033989 0.0718149 -0.0314801 41 27 23
0.0745097 0.0552321 -0.024274 49 30 21
0.0696139 0.0690108 -0.0439311 51 32 26
0.046554 0.028156 -0.0313528 52 37 31
0.0652871 0.0332316 -0.060419 46 29 23
0.0660245 0.0379003 -0.0753492 102 77 66
0.0336984 0.0540108 -0.0503361 45 26 20
0.0706396 0.0428889 -0.0481263 43 21 15
0.0446556 0.0234194 -0.0456613 53 30 26
0.0323732 0.0605787 -0.0283789 47 33 28
0.0644593 0.0783627 -0.0401633 44 30 23
0.0299606 0.0509892 -0.0262238 35 21 20
0.0670486 0.0407475 -0.0652222 88 73 62
0.0653392 0.0413565 -0.0253851 54 39 32
0.0656605 0.0391966 -0.0658362 104 80 68
0.0665248 0.0379118 -0.0686261 105 81 71
0.0695506 0.0403873 -0.0466598 49 24 20
0.0714383 0.0649922 -0.0473857 40 22 18
0.0448078 0.0240385 -0.0479722 52 37 30
0.0427075 0.0259604 -0.0499171 42 27 23
0.0428757 0.0802616 -0.0283886 45 31 25
0.0719504 0.0603793 -0.0377312 0 0 0
0.0440099 0.0249242 -0.0505329 51 37 33
0.0306863 0.0557052 -0.0301838 21 8 8
0.0333503 0.0486617 -0.0401426 71 61 55
0.0705532 0.0617997 -0.0401723 63 48 38
0.0447482 0.0254199 -0.0607106 83 56 48
0.0719185 0.045947 -0.0420738 61 44 37
0.0686901 0.0432277 -0.0363502 64 46 39
0.0645638 0.031208 -0.0705801 78 51 43
0.0649127 0.0398992 -0.0659164 112 87 73
0.0310304 0.0544092 -0.0206307 50 30 27
0.0701838 0.0732431 -0.0211813 41 28 24
0.0711986 0.0520123 -0.038479 56 46 40
0.0369198 0.0331652 -0.0585147 59 46 36
0.0629053 0.038086 -0.0220327 42 30 24
0.0364504 0.0600845 -0.0656 72 45 38
0.040056 0.0600822 -0.0125193 48 35 29
0.0311576 0.054358 -0.0327722 30 18 18
0.0703503 0.0470898 -0.0378116 54 37 33
0.0303993 0.0508019 -0.0221701 48 33 27
0.0355528 0.0640931 -0.0541538 43 24 47
0.0621 0.0767026 -0.0212024 46 32 22
0.0354143 0.034712 -0.0409611 66 43 38
0.0412179 0.0269447 -0.0445971 47 34 29
0.0453439 0.0252216 -0.0601883 24 6 0
0.0362908 0.0570677 -0.0153807 47 32 27
0.0340816 0.0393375 -0.0382763 69 50 43
0.0603604 0.0362259 -0.0201147 44 30 24
0.0393212 0.027952 -0.0451093 58 39 34
0.0371185 0.0757628 -0.0257162 43 30 22
0.0583246 0.0251044 -0.0537365 56 6 0
0.0310518 0.0555007 -0.026477 55 41 34
0.0336142 0.0501209 -0.0405483 70 52 44
0.0307516 0.0400026 -0.0260453 39 27 23
0.0314473 0.0403711 -0.0312127 4 0 0
0.036534 0.0591371 -0.0182535 49 34 29
0.0658842 0.0485836 -0.0179701 27 13 7
0.0712924 0.0508407 -0.0379434 55 39 34
0.0712208 0.0501701 -0.0412135 54 35 29
0.031506 0.0426199 -0.0228081 46 33 28
0.0689015 0.0407628 -0.0414997 58 40 34
0.0310181 0.0533555 -0.0272868 57 43 36
0.062061 0.0451834 -0.0154629 22 12 7
0.0666893 0.0401939 -0.0360307 47 34 27
0.0703355 0.0470151 -0.0386602 57 40 33
0.0697142 0.0414394 -0.0539761 54 41 33
0.0662709 0.06846 -0.070613 59 41 36
0.0718015 0.0600353 -0.0497874 54 39 34
0.0637197 0.0342749 -0.0674153 88 65 50
0.0699597 0.0565922 -0.0598809 8 7 1
0.0517859 0.0255978 -0.0359472 57 40 34
0.0646968 0.0356956 -0.0798136 109 83 65
0.0670664 0.0404676 -0.0363455 0 0 0
0.0668892 0.0394752 -0.078564 159 117 108
0.0680363 0.0457906 -0.0243474 47 33 29
0.0472087 0.0294813 -0.0306563 31 20 16
0.0625239 0.0336225 -0.0655372 81 57 46
0.0373902 0.0583445 -0.0611255 55 33 26
0.0684551 0.0598814 -0.0596704 38 14 0
0.0660125 0.0657011 -0.0729076 57 45 42
0.0712723 0.0500767 -0.0376158 0 0 0
0.0687977 0.0410124 -0.0727676 87 62 51
0.033129 0.0512364 -0.04685 39 23 19
0.068607 0.0371789 -0.0572193 69 58 50
0.0340034 0.0604696 -0.0519499 0 0 0
0.0689293 0.0673117 -0.0582411 33 31 21
0.0708944 0.0617043 -0.040195 60 41 32
0.0685342 0.0757817 -0.0355636 38 24 21
0.038028 0.0308833 -0.0395358 54 37 32
0.0722025 0.0597895 -0.0494599 42 22 18
0.035246 0.0570148 -0.0600998 28 17 16
0.0694947 0.0539348 -0.0595588 0 0 0
0.0712628 0.0551678 -0.053207 46 28 25
0.0583877 0.031338 -0.02391 40 26 18
0.0685498 0.047256 -0.0621666 0 0 0
0.0483605 0.0236758 -0.0459287 62 43 38
0.0373698 0.0304237 -0.0365212 41 26 18
0.0356204 0.0544935 -0.0653451 50 19 9
0.070117 0.040192 -0.0464419 52 39 32
0.066743 0.0413521 -0.0358414 61 44 35
0.0697193 0.0450258 -0.0707799 83 55 45
0.0637194 0.0373841 -0.0292865 21 1 2
0.033563 0.0570053 -0.0517556 32 16 13
0.0470683 0.0246163 -0.0603436 98 79 72
0.0357925 0.0592906 -0.0630818 89 66 56
0.0331836 0.0513467 -0.0395445 54 38 31
0.0423362 0.0247567 -0.039905 31 20 20
0.0713512 0.0613165 -0.0413993 44 30 22
0.045535 0.0239931 -0.0411783 40 29 25
0.0432872 0.0245056 -0.0566167 55 38 34
0.0696592 0.0465176 -0.0635432 93 65 59
0.0713532 0.0657465 -0.0464228 22 7 6
0.0615936 0.027751 -0.0402335 54 38 35
0.0692251 0.0411212 -0.0499736 52 37 31
0.0606435 0.0330523 -0.0264227 53 32 24
0.0669814 0.0402691 -0.0651824 79 66 59
0.0367709 0.0320574 -0.0351319 46 28 23
0.03417 0.0564266 -0.0531248 29 11 7
0.0675508 0.043662 -0.0242146 43 25 20
0.067826 0.0423515 -0.0645949 94 71 62
0.0646306 0.0408669 -0.0252259 53 37 31
0.0603338 0.0389736 -0.0187006 38 25 17
0.0646956 0.0337383 -0.0689378 101 73 61
0.0692803 0.0393978 -0.0452788 50 28 26
0.0677099 0.0657623 -0.0653909 61 37 30
0.0360253 0.0621711 -0.0572642 54 39 37
0.0442766 0.0240688 -0.0462726 45 31 26
0.0428067 0.0819398 -0.0336249 38 38 34
0.0648628 0.0797085 -0.0342476 39 26 22
0.0334109 0.0587528 -0.0413488 53 35 30
0.0748096 0.0640664 -0.023634 38 26 22
0.0641627 0.0327019 -0.0693868 85 56 49
0.036991 0.056943 -0.0633947 78 49 42
0.0640593 0.0321126 -0.0435372 37 14 12
0.0698517 0.0444385 -0.072588 75 47 41
0.0362128 0.0598802 -0.0626427 79 62 54
0.0620548 0.0282903 -0.0425361 48 30 23
0.0706091 0.0431548 -0.0480896 39 17 10
0.0587176 0.0260249 -0.0409959 39 20 16
0.0683692 0.0406166 -0.0739271 83 63 53
0.0312862 0.045794 -0.0246755 45 31 26
0.0681038 0.0364436 -0.0535125 81 66 59
0.0707618 0.0475853 -0.0380176 53 30 24
0.0738548 0.0628486 -0.0218351 43 24 19
0.0683726 0.044422 -0.0361423 0 0 0
0.0335285 0.0398579 -0.0392812 42 18 14
0.0585368 0.0249422 -0.0578116 41 24 19
0.0336331 0.0621225 -0.0402744 39 19 15
0.0365613 0.0609129 -0.0606197 65 47 43
0.0710818 0.0460956 -0.0254389 45 31 25
0.0664 0.0405662 -0.0358668 58 41 36
0.035932 0.05856 -0.0622786 45 22 16
0.030651 0.0555155 -0.0247571 57 44 36
0.066903 0.0645606 -0.073418 111 81 63
0.0580477 0.0360821 -0.0191191 48 33 29
0.0343816 0.055514 -0.0140019 55 35 28
0.0685483 0.0698505 -0.0428691 58 47 39
0.0576675 0.0255283 -0.048705 50 34 28
0.0633801 0.0782696 -0.0256601 45 28 19
0.0334341 0.0447706 -0.0392217 66 38 33
0.0702215 0.0649004 -0.0404074 63 49 42
0.0736402 0.0610112 -0.0213528 43 29 27
0.0356726 0.0655939 -0.0536748 45 32 35
0.0677983 0.0481757 -0.022571 51 34 29
0.0656284 0.0489581 -0.0181341 28 17 12
0.0421887 0.0290175 -0.0313159 38 28 23
0.0359079 0.0557359 -0.0718935 71 46 39
0.03581 0.07339 -0.0233203 56 31 14
0.0443312 0.0305647 -0.01958 57 42 38
0.0662587 0.0388804 -0.0756335 78 45 35
0.067404 0.0368278 -0.0506927 54 37 31
0.0681023 0.037266 -0.0498263 56 39 34
0.0686059 0.0351426 -0.0543974 73 57 50
0.0345787 0.0578239 -0.0197783 49 28 23
0.0698438 0.0452363 -0.0369183 68 50 41
0.0658389 0.0436306 -0.024411 52 36 31
0.0434656 0.024675 -0.0573909 41 26 19
0.068354 0.0354405 -0.0552411 65 48 41
0.0612867 0.0400006 -0.0188563 45 27 20
0.0690029 0.045079 -0.0373712 53 38 33
0.0517906 0.0819198 -0.0188501 51 35 23
0.0335472 0.0634733 -0.0407559 43 24 21
0.0666579 0.0397513 -0.0654109 102 82 70
0.0673219 0.036543 -0.0410271 69 53 45
0.0683194 0.0500386 -0.0215902 45 29 22
0.0650402 0.0344642 -0.0458299 47 33 26
0.0675679 0.0352424 -0.0468466 69 52 47
0.0450372 0.0829174 -0.0329394 82 49 31
0.0326116 0.0626196 -0.0305184 42 27 23
0.0758498 0.0139806 -0.00167173 0 0 0
0.0708786 0.0143963 -0.00313707 0 0 0
0.0619191 0.0415078 -0.0183838 44 26 19
0.0305979 0.0532831 -0.0251305 52 37 32
0.0349794 0.0583774 -0.0145169 38 20 14
0.0649209 0.0388279 -0.0359959 59 43 37
0.0681085 0.0426523 -0.0634121 15 0 0
0.0318739 0.0528568 -0.0193532 53 44 38
0.0234522 0.0601206 -0.0326017 0 0 0
0.0682242 0.0694309 -0.042665 58 42 34
0.050223 0.0232542 -0.0493809 32 28 22
0.0655089 0.0360883 -0.0812316 98 73 59
0.0686556 0.0447003 -0.0628525 87 104 91
0.0351792 0.0654069 -0.0528733 41 29 14
0.0684062 0.0707798 -0.0432794 59 42 34
0.0719829 0.0464329 -0.047628 36 10 7
0.0681834 0.0406102 -0.074517 111 84 73
0.047608 0.0289879 -0.0160408 51 36 31
0.0516875 0.0336262 -0.0176235 51 35 31
0.0695691 0.0658712 -0.0407609 58 38 28
0.0691207 0.0401725 -0.0529778 51 33 28
0.0735449 0.0525826 -0.0245742 43 29 28
0.0324703 0.0713055 -0.0330835 10 0 0
0.0717706 0.0695762 -0.0210963 41 27 23
0.0330368 0.0673524 -0.0259291 49 34 26
0.043471 0.0253951 -0.0508208 53 37 34
0.0567317 0.0345133 -0.0213344 45 31 27
0.068642 0.0381572 -0.0423639 59 42 37
0.0320248 0.0585915 -0.0289423 46 34 28
0.0326273 0.0645627 -0.0282442 43 29 25
0.0701484 0.0441931 -0.03116 46 30 27
0.0314005 0.0552604 -0.0240774 46 31 24
0.0721522 0.0475975 -0.0431661 51 34 27
0.0596613 0.0343277 -0.0202966 47 32 24
0.0713893 0.0576851 -0.0531734 52 33 23
0.031297 0.0547227 -0.0237389 42 26 22
0.0533304 0.0257908 -0.0332203 54 40 30
0.0351198 0.0575284 -0.0567354 16 0 0
0.0660596 0.0510214 -0.0150231 38 23 21
0.0298748 0.0476125 -0.0238343 47 32 27
0.0604033 0.0339186 -0.023148 42 29 20
0.0439507 0.0248383 -0.0515021 56 38 32
0.0486503 0.0825964 -0.033799 46 30 25
0.0666892 0.0358529 -0.0511507 61 51 43
0.0648956 0.043554 -0.0233832 51 34 29
0.0685656 0.0384942 -0.0435591 66 50 43
0.0608217 0.0781866 -0.0188981 53 33 27
0.0611809 0.0824367 -0.0315727 43 29 24
0.0302689 0.0386945 -0.0221208 36 21 18
0.0739459 0.0649116 -0.0206645 36 21 16
0.0371053 0.0595823 -0.0185172 46 30 25
0.0622694 0.0760857 -0.0208284 46 32 31
0.070548 0.0548486 -0.0155653 43 32 30
0.0640826 0.0355262 -0.0868219 103 73 59
0.0700388 0.0558589 -0.0748569 46 22 0
0.0696555 0.0601699 -0.073518 63 43 36
0.0693786 0.0585003 -0.0742832 59 38 34
0.0683977 0.0466553 -0.0814072 105 97 87
0.0689824 0.0653581 -0.0591495 80 65 60
0.0707666 0.0625602 -0.0668334 65 23 11
0.0349555 0.0458936 -0.0622325 21 6 0
0.0712709 0.0592904 -0.0521825 50 32 26
0.0695935 0.0570544 -0.0616195 85 50 39
0.06786 0.0687247 -0.064392 47 15 11
0.0711554 0.0637122 -0.049387 49 36 30
0.0671438 0.0407449 -0.0651961 87 66 59
0.0686394 0.068819 -0.0633488 64 34 34
0.0473881 0.028824 -0.0280795 58 41 40
0.0708458 0.0451378 -0.0251956 58 31 27
0.0672942 0.0746787 -0.0535582 42 28 35
0.0352235 0.0347124 -0.0412212 58 39 32
0.0709833 0.0658728 -0.0466001 38 25 22
0.0695005 0.0491474 -0.0617673 82 70 71
0.0690044 0.0413014 -0.0728236 93 76 63
0.0663479 0.0401171 -0.0655491 90 71 60
0.0682761 0.0434677 -0.0645312 89 78 68
0.037898 0.0305363 -0.0365908 49 40 32
0.0669626 0.0396371 -0.0658359 116 88 74
