ply
format ascii 1.0
comment Created by Open3D
element vertex 1199
property double x
property double y
property double z
property uchar red
property uchar green
property uchar blue
end_header
0.0482028 0.101083 -0.091822 229 145 120
0.0507072 0.104972 -0.095897 187 110 84
0.0514028 0.106976 -0.0957352 193 113 87
0.0501362 0.104368 -0.0950075 213 141 111
0.0496249 0.108869 -0.0976639 178 73 59
0.0500999 0.107118 -0.0963396 224 145 116
0.0505363 0.105872 -0.0909877 204 120 94
0.0511283 0.106356 -0.0904885 185 120 93
0.0470592 0.102767 -0.0954422 253 184 148
0.0491066 0.108299 -0.094905 255 233 201
0.05319 0.106568 -0.102415 255 187 138
0.05355 0.0999351 -0.107327 113 66 57
0.0522416 0.106479 -0.0891119 86 69 43
0.0505116 0.0874924 -0.0739654 42 64 56
0.0506439 0.109227 -0.0959827 212 131 106
0.053363 0.0871284 -0.0722227 28 19 18
0.0472762 0.0765608 -0.0601141 0 0 0
0.0488383 0.0824492 -0.0838206 219 159 144
0.06718 0.0884126 -0.103899 0 0 0
0.0560498 0.09666 -0.105961 147 58 38
0.0492316 0.0739092 -0.0662164 0 0 0
0.0495459 0.109412 -0.0978061 255 255 255
0.0501124 0.104608 -0.0984552 135 0 0
0.0746036 0.0889368 -0.0955435 0 0 0
0.0512922 0.105323 -0.0910782 198 114 96
0.0551926 0.0902044 -0.106495 255 132 146
0.0503054 0.104262 -0.0960465 144 71 43
0.0512275 0.0868231 -0.100918 119 72 75
0.0679327 0.0857014 -0.0648693 0 0 0
0.0532363 0.0924542 -0.110954 255 46 135
0.0503439 0.0860771 -0.0726067 65 54 41
0.0541675 0.0883329 -0.104148 255 255 255
0.0654133 0.0902148 -0.105888 199 143 115
0.0473319 0.0947387 -0.0865739 255 189 157
0.0475551 0.0810395 -0.0961486 185 208 187
0.0503966 0.106926 -0.100442 140 0 0
0.0508393 0.104196 -0.0958393 178 86 66
0.0506741 0.104655 -0.0995819 255 212 186
0.0456069 0.09308 -0.0891376 82 0 0
0.0499473 0.0902705 -0.0974455 211 144 101
0.0462864 0.0923359 -0.0815249 232 163 143
0.0507975 0.10445 -0.0947333 172 91 64
0.0500181 0.102038 -0.0914082 198 117 95
0.0627436 0.0892536 -0.107203 0 0 0
0.0545287 0.0855045 -0.0666277 0 0 0
0.0531706 0.0853918 -0.0661327 0 0 0
0.0496433 0.0922338 -0.0750637 56 27 18
0.0508727 0.104963 -0.0994421 171 19 0
0.0485606 0.0970177 -0.0883112 66 27 12
0.0568947 0.089729 -0.105196 84 48 16
0.0514988 0.106149 -0.101654 255 255 255
0.0510725 0.0967197 -0.105323 205 169 159
0.0713104 0.0849617 -0.0815007 255 255 255
0.0480486 0.0926226 -0.0787315 57 30 22
0.0649932 0.0921248 -0.105174 133 86 66
0.0510901 0.0812895 -0.100444 0 0 0
0.0576691 0.0838664 -0.0727761 0 0 0
0.0547752 0.0928725 -0.10524 208 128 99
0.0531207 0.100885 -0.102402 198 88 76
0.0450829 0.106441 -0.0942486 28 0 17
0.0502959 0.104649 -0.0905738 198 112 86
0.0600092 0.0842119 -0.0723551 136 125 131
0.0521649 0.105241 -0.0902834 160 96 79
0.0547077 0.0852885 -0.0719183 37 14 12
0.0484422 0.106983 -0.0967997 255 203 181
0.0534049 0.107591 -0.104357 197 125 95
0.0520261 0.10698 -0.0895089 162 67 33
0.0498109 0.0888291 -0.0735329 0 43 42
0.0495682 0.110346 -0.0964335 254 175 152
0.0489332 0.0891656 -0.0779001 62 31 24
0.0582097 0.0875096 -0.104972 255 255 255
0.0542448 0.0995709 -0.105776 166 113 95
0.0552525 0.0960664 -0.106669 180 81 69
0.050703 0.106327 -0.0894177 255 185 175
0.0521787 0.108553 -0.0976166 233 154 124
0.0494894 0.096467 -0.0828735 7 0 0
0.0562794 0.0953881 -0.106289 246 189 156
0.0528078 0.107051 -0.101079 255 175 133
0.0462484 0.0832387 -0.0941316 255 255 255
0.051458 0.0998817 -0.105328 157 94 68
0.0497865 0.107952 -0.0959248 255 235 194
0.0517619 0.107876 -0.0997501 229 181 145
0.050634 0.107205 -0.098235 238 175 137
0.0503603 0.108716 -0.0950284 255 224 193
0.0491412 0.0892887 -0.0736471 25 11 10
0.0493016 0.107718 -0.0982708 255 174 140
0.0506763 0.107489 -0.0911098 223 138 111
0.0478285 0.0958275 -0.0842625 181 109 84
0.0505192 0.107097 -0.0909117 255 255 255
0.0509786 0.106526 -0.0957423 187 110 90
0.045553 0.0926804 -0.0869023 75 0 0
0.0484627 0.0920405 -0.0992177 255 255 255
0.0497412 0.0891648 -0.098675 85 0 0
0.049468 0.106853 -0.0965754 231 154 118
0.0559029 0.0928748 -0.106926 255 204 165
0.0504442 0.108866 -0.0944509 255 188 167
0.0513992 0.0864296 -0.0730657 43 24 19
0.0560422 0.0936502 -0.10652 177 119 83
0.0631665 0.091155 -0.108266 175 138 126
0.0634355 0.0875923 -0.103163 62 0 146
0.0633214 0.0806554 -0.0812788 255 209 201
0.0509737 0.101317 -0.10269 148 50 0
0.0512555 0.102087 -0.0916491 123 78 56
0.0490828 0.110178 -0.0957856 200 108 90
0.0612253 0.0920219 -0.107742 0 13 0
0.0520609 0.104622 -0.0988733 227 146 108
0.0502688 0.0853014 -0.101681 255 255 255
0.0514577 0.0893977 -0.104201 94 0 0
0.0563765 0.0897463 -0.105613 111 74 61
0.0601118 0.0895738 -0.106518 101 85 67
0.0489227 0.093259 -0.102301 255 255 255
0.051041 0.103879 -0.0962823 117 27 0
0.0506166 0.0993274 -0.105066 111 78 44
0.0714432 0.086401 -0.0729491 0 0 0
0.0520141 0.0854612 -0.0670451 0 0 0
0.0648811 0.0917662 -0.107048 135 60 65
0.0503211 0.108906 -0.0974502 203 114 91
0.045361 0.0979412 -0.0875876 83 0 0
0.054223 0.0845808 -0.103088 38 0 0
0.050551 0.104336 -0.099166 255 255 255
0.0576381 0.0972097 -0.109839 151 105 111
0.0513407 0.10655 -0.101047 225 204 161
0.0501387 0.0992787 -0.102936 159 49 7
0.0483761 0.10454 -0.0941237 255 255 250
0.0522567 0.104472 -0.104635 171 102 79
0.0494261 0.104212 -0.091181 184 104 77
0.052077 0.10725 -0.101567 213 177 139
0.0496775 0.109964 -0.0970941 255 183 158
0.0564337 0.106168 -0.0870477 156 94 73
0.0485823 0.0971825 -0.0966814 162 92 42
0.0504691 0.110221 -0.0989825 245 164 136
0.0536294 0.104628 -0.0836413 255 255 255
0.0486277 0.0876737 -0.0948194 255 255 255
0.049623 0.100352 -0.0875708 155 94 74
0.0558892 0.107257 -0.0880675 179 106 85
0.0521619 0.104069 -0.102544 255 255 255
0.0477849 0.0925944 -0.0711943 0 0 0
0.0505731 0.100255 -0.0899797 255 205 162
0.0506038 0.0965419 -0.0971734 177 58 40
0.0555628 0.107324 -0.0880866 170 106 88
0.0480777 0.11049 -0.0952286 255 255 255
0.0513848 0.105372 -0.10097 196 119 72
0.0473044 0.0908777 -0.0926728 50 0 0
0.051892 0.105329 -0.0873023 255 190 146
0.0504144 0.101512 -0.0910179 131 60 43
0.050175 0.101046 -0.089548 166 99 79
0.0549466 0.107462 -0.0880773 200 118 93
0.0527945 0.105176 -0.0889845 134 84 63
0.0499981 0.111008 -0.0972544 255 253 242
0.0547155 0.106853 -0.0873613 160 77 67
0.0519615 0.105695 -0.10196 141 55 14
0.0519583 0.103253 -0.102405 223 139 83
0.0493949 0.0957342 -0.0931312 74 0 0
0.0503021 0.106683 -0.0943315 235 145 125
0.0514854 0.0981148 -0.0928925 152 76 59
0.053186 0.107781 -0.10287 222 150 110
0.051605 0.103284 -0.0848202 255 255 246
0.0509297 0.103308 -0.0928178 81 46 0
0.048854 0.0821617 -0.0626345 0 0 0
0.05076 0.102978 -0.0980149 255 214 186
0.0505505 0.0998218 -0.0848713 87 45 37
0.0526775 0.108445 -0.101974 255 255 246
0.048248 0.0968633 -0.0921779 118 42 14
0.0530711 0.104393 -0.103151 168 97 62
0.0511598 0.102758 -0.0921401 209 126 109
0.0500234 0.102457 -0.0878316 249 188 185
0.0525872 0.103487 -0.102368 155 65 31
0.0513799 0.0997121 -0.0923793 29 3 0
0.0573233 0.10601 -0.0872281 157 93 48
0.0517066 0.103285 -0.0927175 152 72 50
0.0530611 0.104263 -0.084299 255 255 255
0.0585287 0.106072 -0.0866055 127 108 95
0.0541189 0.10447 -0.0842806 255 255 255
0.056126 0.107396 -0.0878666 173 107 86
0.0540337 0.107401 -0.0886022 183 103 86
0.0540277 0.104323 -0.0840323 255 255 255
0.0514608 0.103445 -0.0848938 255 255 255
0.0513408 0.103203 -0.0927706 165 91 71
0.0507582 0.108109 -0.0975473 219 141 114
0.0521578 0.103611 -0.0990483 217 117 80
0.056155 0.103855 -0.0839235 255 255 255
0.0530916 0.104297 -0.0842624 255 255 255
0.0521104 0.105036 -0.087242 90 0 0
0.0507331 0.102504 -0.0921925 255 174 159
0.0513739 0.101987 -0.0817257 43 23 23
0.0506775 0.102292 -0.0921864 211 125 102
0.0523571 0.103667 -0.0980849 190 108 70
0.0502645 0.106997 -0.0969179 156 64 33
0.050067 0.110505 -0.0952953 255 255 255
0.0505047 0.100512 -0.0898786 195 143 122
0.0527521 0.10629 -0.0882098 198 109 97
0.0495473 0.098802 -0.0835528 81 38 28
0.0486562 0.0977764 -0.090582 94 0 0
0.0517807 0.103597 -0.093073 156 88 70
0.0529245 0.105595 -0.0882112 130 60 44
0.0516617 0.103796 -0.0930004 109 42 15
0.0555346 0.10733 -0.0878769 200 114 94
0.0518208 0.102844 -0.100224 229 142 108
0.0503273 0.109554 -0.0960869 212 128 105
0.0468033 0.0938605 -0.0820525 170 106 88
0.0508486 0.103978 -0.0958622 234 139 116
0.0494705 0.105604 -0.0978974 205 127 85
0.0503122 0.10804 -0.0988362 255 215 181
0.049995 0.100021 -0.0832301 60 13 2
0.0463308 0.0859234 -0.0769084 40 0 0
0.0578213 0.0816351 -0.0985051 61 0 0
0.0523851 0.102492 -0.104652 85 26 0
0.0518671 0.0839112 -0.0659857 0 146 118
0.0518437 0.107463 -0.100818 180 145 113
0.0557435 0.0956626 -0.105672 195 113 87
0.0509952 0.104385 -0.0962611 214 132 105
0.046859 0.0914682 -0.0720739 41 0 0
0.0504674 0.101818 -0.0866726 142 91 75
0.0490901 0.10696 -0.0950242 136 49 21
0.048407 0.0953801 -0.102278 164 69 49
0.0715561 0.0838755 -0.0991239 170 110 32
0.0522735 0.0973965 -0.104137 255 248 242
0.0493634 0.0893159 -0.0938238 74 33 27
0.0488863 0.0896656 -0.0745227 0 0 0
0.0707592 0.0877778 -0.0998428 143 83 43
0.0476231 0.0811438 -0.0949983 255 201 177
0.0504333 0.107663 -0.0979716 190 104 57
0.0515526 0.106175 -0.10026 231 178 137
0.0477808 0.0884968 -0.0933926 255 154 150
0.0509346 0.104499 -0.10063 43 0 0
0.0610695 0.0924235 -0.110036 99 63 28
0.0629364 0.0885535 -0.104777 56 0 0
0.0494971 0.0964895 -0.102113 121 23 5
0.0500955 0.100102 -0.0905736 193 122 98
0.0532035 0.0986518 -0.106116 255 169 115
0.0648796 0.0903456 -0.104569 48 0 0
0.0518902 0.104228 -0.0853021 255 246 252
0.0491522 0.0926852 -0.0934015 200 118 92
0.0507331 0.106522 -0.0923007 212 134 104
0.0518304 0.104398 -0.0977977 168 79 49
0.0529977 0.106936 -0.103079 214 153 112
0.0544799 0.0820277 -0.0902907 181 118 90
0.048367 0.0951524 -0.0831412 131 59 39
0.0517382 0.108688 -0.0990667 241 155 124
0.0504473 0.104481 -0.0997409 215 111 90
0.0515713 0.10971 -0.0962265 232 146 119
0.0510557 0.109724 -0.0968906 228 142 117
0.0510729 0.105371 -0.102838 189 121 70
0.0699031 0.088039 -0.0979944 0 0 0
0.0563287 0.0951479 -0.105679 140 78 63
0.0652401 0.0863041 -0.100268 117 69 51
0.0495714 0.0871557 -0.0747686 54 28 23
0.0491563 0.109425 -0.0972251 255 219 197
0.0508918 0.109319 -0.101189 255 202 168
0.0523192 0.0848396 -0.0741003 72 38 30
0.0642083 0.0898086 -0.107247 0 0 0
0.0642886 0.0896736 -0.104634 0 0 0
0.0705196 0.0868019 -0.0975268 255 235 227
0.050323 0.0992916 -0.102632 163 52 23
0.0493964 0.103497 -0.0947988 93 0 0
0.0487134 0.108056 -0.09828 129 0 0
0.0494884 0.0900832 -0.0935594 173 86 61
0.05127 0.097073 -0.103092 60 0 0
0.0507341 0.104353 -0.0996586 237 146 114
0.0476113 0.0922827 -0.0821229 71 50 42
0.049028 0.0830214 -0.0833153 100 33 35
0.0464642 0.0965526 -0.0930661 238 131 117
0.0561419 0.0987006 -0.104237 111 21 0
0.0523881 0.0980411 -0.097977 226 147 117
0.0526766 0.0926526 -0.0988994 177 83 70
0.0555024 0.0947486 -0.105337 180 103 76
0.0518246 0.100389 -0.102731 185 108 91
0.0531855 0.0836571 -0.0676174 85 44 36
0.0633254 0.0900572 -0.108225 0 0 0
0.0622126 0.0940813 -0.108717 96 61 34
0.0518839 0.0978095 -0.101562 107 30 18
0.0505596 0.0916274 -0.104692 255 230 180
0.0496364 0.105097 -0.0990471 255 255 255
0.0523278 0.0999293 -0.101679 169 94 71
0.0513775 0.0843364 -0.0995244 60 0 0
0.0527472 0.0799005 -0.0814212 0 0 0
0.0702372 0.0844983 -0.0781745 0 0 0
0.0479559 0.0808552 -0.0959325 0 3 0
0.0507809 0.103688 -0.0984146 221 127 84
0.0473957 0.103222 -0.0916123 212 95 74
0.0515128 0.109237 -0.101338 255 169 135
0.0647425 0.0814147 -0.0671286 0 0 0
0.0510991 0.104454 -0.0958311 255 197 169
0.0479855 0.101108 -0.0917959 167 85 57
0.0510736 0.102492 -0.0862987 79 38 27
0.0501299 0.0963564 -0.100798 217 130 106
0.052847 0.0819594 -0.0927888 187 126 114
0.0473382 0.0922013 -0.0910168 255 159 137
0.0498542 0.100613 -0.0906901 209 140 116
0.0501896 0.0845321 -0.074844 71 36 28
0.0494033 0.0983897 -0.0874364 31 0 0
0.0502694 0.10736 -0.0970624 255 206 183
0.0470953 0.0870591 -0.0938171 255 241 203
0.0662273 0.0890721 -0.103592 31 36 0
0.0482476 0.10349 -0.0930937 255 255 255
0.047057 0.0835837 -0.0846786 124 58 44
0.0516509 0.10541 -0.0985894 247 184 136
0.0562984 0.0986112 -0.104921 236 162 143
0.0677622 0.0886631 -0.102177 86 55 0
0.0523179 0.104677 -0.0850992 255 245 207
0.0491801 0.0920292 -0.0922839 193 120 89
0.0515924 0.103695 -0.0983495 248 159 123
0.0499321 0.107908 -0.0960061 200 122 94
0.058638 0.0980148 -0.109059 124 71 59
0.0501011 0.109261 -0.0979137 243 158 132
0.0501706 0.0841395 -0.0742415 142 34 9
0.0500491 0.109568 -0.095247 173 101 82
0.0679453 0.0800001 -0.076887 255 255 255
0.0651165 0.080513 -0.0843108 89 78 29
0.0520886 0.10474 -0.10424 86 0 0
0.0696452 0.0893306 -0.0982652 0 0 0
0.0488277 0.0887344 -0.0753983 39 26 19
0.0509 0.107225 -0.0962092 207 128 100
0.0505413 0.0847721 -0.0746256 96 59 50
0.0560467 0.0961817 -0.105956 178 103 83
0.0701664 0.0838086 -0.0926876 135 50 0
0.0497305 0.0834968 -0.0693976 78 42 32
0.0540996 0.0893806 -0.104149 32 0 0
0.0460503 0.0927831 -0.0898167 70 0 0
0.0519892 0.10357 -0.0982508 140 61 33
0.0629804 0.0805841 -0.0804545 80 28 30
0.0563516 0.0922535 -0.106714 228 127 96
0.0523131 0.0847599 -0.103078 252 139 97
0.053363 0.0928601 -0.106876 228 139 116
0.049903 0.104125 -0.0953974 101 0 0
0.0732006 0.0900515 -0.0966452 0 119 106
0.0787701 0.0924364 -0.0870209 112 55 35
0.0503054 0.0991852 -0.10542 169 104 81
0.0594822 0.0793144 -0.0887079 151 90 63
0.0710656 0.0846509 -0.0734802 0 0 0
0.0469383 0.0920639 -0.0780172 185 116 92
0.045981 0.088849 -0.0823415 113 72 55
0.0502284 0.106412 -0.100104 183 109 58
0.0510108 0.104119 -0.0959107 180 101 77
0.0639571 0.0850321 -0.0697154 61 32 28
0.0397224 0.0961992 -0.0899874 255 255 255
0.0521778 0.10009 -0.103187 84 32 0
0.0497807 0.103203 -0.0953193 104 0 0
0.0518191 0.084251 -0.0667443 0 0 0
0.0617379 0.0848567 -0.102915 255 255 255
0.0625302 0.0855325 -0.0985497 128 53 42
0.0522796 0.0988896 -0.100655 90 23 13
0.0676514 0.0836258 -0.0773342 153 108 92
0.0510816 0.0976274 -0.101537 167 73 29
0.0560649 0.0826096 -0.0753869 130 83 67
0.0670913 0.0824859 -0.0809393 255 255 229
0.0604806 0.0797125 -0.0835352 255 255 255
0.0603417 0.0875052 -0.105862 255 255 255
0.0613952 0.0899133 -0.108477 255 255 255
0.052195 0.108944 -0.101272 255 210 170
0.0514339 0.109302 -0.100362 255 182 155
0.0529775 0.108333 -0.10301 255 190 139
0.0557942 0.107463 -0.0880532 183 107 91
0.0514454 0.109402 -0.100167 250 169 135
0.0524273 0.108583 -0.101829 255 220 176
0.0527903 0.107888 -0.102798 255 209 175
0.0500727 0.110624 -0.0991696 255 181 153
0.05083 0.108551 -0.0987876 239 160 127
0.0527873 0.107296 -0.102475 255 198 158
0.052951 0.104224 -0.0843043 255 255 255
0.0561751 0.107514 -0.0878175 181 108 91
0.0506384 0.101063 -0.0901222 163 101 81
0.056775 0.106324 -0.0875675 165 111 85
0.0493644 0.0927433 -0.0931983 171 98 73
0.053698 0.10739 -0.103954 212 136 97
0.0515249 0.103681 -0.0893472 91 57 39
0.0499475 0.0965143 -0.0928074 205 157 131
0.0434661 0.0845509 -0.0654327 0 0 0
0.0569695 0.107004 -0.0873602 158 94 74
0.0533086 0.107029 -0.0877513 149 79 63
0.0504582 0.0990061 -0.092854 255 215 204
0.0527116 0.104835 -0.103669 230 149 115
0.0497324 0.102391 -0.0933531 157 67 37
0.0534054 0.104398 -0.0841967 255 255 255
0.0534236 0.106805 -0.087126 160 91 75
0.0488743 0.0977109 -0.091676 145 67 52
0.051543 0.104706 -0.0892505 169 99 84
0.0539244 0.106719 -0.101471 205 131 100
0.0513607 0.105024 -0.102817 239 188 141
0.0492247 0.0819297 -0.062793 0 0 0
0.0536608 0.106837 -0.0971101 166 94 73
0.0478888 0.0943956 -0.0924688 148 81 58
0.0480974 0.0920616 -0.0933884 59 20 1
0.050722 0.101346 -0.088908 205 138 113
0.0490681 0.103503 -0.0917888 104 21 0
0.0519512 0.103965 -0.103434 255 202 154
0.0513099 0.102977 -0.0924989 125 64 39
0.0475727 0.0948737 -0.0907102 99 0 0
0.0494939 0.0972377 -0.082808 53 25 18
0.0496328 0.102019 -0.0928367 103 37 10
0.0567041 0.105559 -0.087658 164 106 68
0.0511332 0.102847 -0.0927544 234 147 126
0.052071 0.107774 -0.0889378 196 115 90
0.0510169 0.108469 -0.0942566 213 131 105
0.0529845 0.104569 -0.0840848 255 255 255
0.0565428 0.106332 -0.0869561 142 0 0
0.0509577 0.104015 -0.0845153 255 255 231
0.0568051 0.105623 -0.0874373 0 0 0
0.0515566 0.103566 -0.0919781 160 86 71
0.0509698 0.100091 -0.0909697 96 41 27
0.0518189 0.104337 -0.0930649 88 29 0
0.0540351 0.104364 -0.08346 255 255 255
0.0495548 0.107213 -0.0951605 255 255 255
0.0481662 0.0954208 -0.078019 65 29 20
0.0529968 0.103876 -0.102489 192 113 82
0.0642425 0.0816335 -0.078293 0 0 0
0.0525276 0.105075 -0.0979242 171 92 62
0.050444 0.095377 -0.0986041 107 0 0
0.0530115 0.107179 -0.104038 255 255 255
0.0507665 0.102379 -0.0921212 232 142 131
0.0524364 0.104726 -0.102685 150 49 23
0.0513544 0.103364 -0.092928 177 95 77
0.0530102 0.107263 -0.0985871 223 144 109
0.0529041 0.102538 -0.0997627 127 104 72
0.0531857 0.105426 -0.0975376 121 62 46
0.050509 0.106824 -0.0971239 255 255 233
0.0503568 0.107834 -0.0978371 238 159 131
0.0515491 0.10899 -0.0952738 221 132 105
0.0517819 0.10396 -0.0986943 208 115 82
0.0504974 0.104538 -0.0953149 190 113 86
0.0566248 0.0925902 -0.105843 255 255 255
0.0485593 0.0907876 -0.0725209 0 0 0
0.0527483 0.103363 -0.0877826 75 35 26
0.0475546 0.0959963 -0.0905974 70 0 0
0.0504979 0.0993536 -0.0902279 93 32 23
0.0506719 0.101806 -0.0916837 132 74 48
0.0529271 0.104002 -0.102956 211 136 105
0.0488875 0.107284 -0.0961605 242 158 130
0.0512444 0.105007 -0.0961276 197 121 95
0.0496408 0.103772 -0.0913816 180 95 76
0.0495014 0.111499 -0.0961085 255 213 196
0.0509178 0.0977208 -0.0928219 131 60 38
0.0509132 0.102484 -0.0929 110 33 0
0.0532486 0.104306 -0.0842354 255 255 255
0.048774 0.0984203 -0.0903731 53 0 0
0.050919 0.099439 -0.0941015 201 127 100
0.0518538 0.103938 -0.0977604 138 65 39
0.0490951 0.109923 -0.0975073 255 181 154
0.0507529 0.0967249 -0.101375 78 30 13
0.0515047 0.102216 -0.0996143 219 112 80
0.0488248 0.110205 -0.0965009 220 135 110
0.0508273 0.0984585 -0.101607 184 92 65
0.0489313 0.0798326 -0.0840033 87 59 69
0.0495256 0.104827 -0.0926114 151 61 35
0.0485773 0.100914 -0.0917605 166 82 58
0.0488183 0.106573 -0.0972659 220 145 101
0.0532301 0.106152 -0.0873325 170 70 50
0.0496499 0.0984323 -0.0866195 117 0 0
0.0497181 0.075836 -0.0590849 0 0 0
0.0481841 0.0943375 -0.0795284 86 42 31
0.0505945 0.106954 -0.0938198 255 162 137
0.0477935 0.103575 -0.093388 255 255 255
0.0652277 0.0800829 -0.0845109 38 0 0
0.0650807 0.0850125 -0.0792615 255 248 243
0.0538128 0.10528 -0.103592 255 222 211
0.0519876 0.0999266 -0.104008 105 33 0
0.048058 0.101707 -0.0946491 48 0 0
0.0546194 0.067103 -0.102094 255 0 0
0.0492048 0.07216 -0.0638399 0 0 0
0.0539818 0.103299 -0.103967 85 59 43
0.0506517 0.0989321 -0.101829 117 54 0
0.0544223 0.0825416 -0.0757038 91 46 33
0.0512754 0.106442 -0.100302 235 187 143
0.052369 0.108368 -0.0989555 234 118 78
0.0591168 0.0792057 -0.0667755 0 0 0
0.0487106 0.095614 -0.101353 255 196 150
0.0488941 0.090603 -0.0765018 0 0 0
0.0491769 0.0860726 -0.0671255 0 0 0
0.066485 0.0846162 -0.0778295 48 0 0
0.0507739 0.106796 -0.100386 230 161 122
0.0506045 0.10449 -0.100027 135 0 0
0.0541767 0.0848648 -0.0673584 0 8 9
0.0684978 0.0935867 -0.107196 48 85 0
0.050681 0.0851973 -0.066875 0 6 7
0.060955 0.0888552 -0.110958 0 23 0
0.0538823 0.0984127 -0.106603 8 0 0
0.0509035 0.0862015 -0.101244 255 179 201
0.0512232 0.104465 -0.0947699 168 90 65
0.059305 0.08939 -0.107181 101 27 0
0.0505376 0.106755 -0.10117 163 159 124
0.0528379 0.105791 -0.0968058 115 38 20
0.0562733 0.0820181 -0.0745635 103 39 53
0.050504 0.104273 -0.0998148 255 255 255
0.0477847 0.0815066 -0.0617425 0 0 0
0.0519512 0.0978531 -0.104502 205 134 113
0.0476259 0.0862674 -0.0924214 108 55 40
0.0524228 0.086037 -0.0722729 49 29 28
0.0486847 0.0882506 -0.0956242 176 144 146
0.0595628 0.0814882 -0.0710236 0 0 0
0.0509942 0.104561 -0.0962849 174 91 63
0.0604745 0.0808172 -0.0787103 0 0 0
0.0512729 0.104865 -0.0954834 180 107 82
0.0518209 0.10538 -0.102423 255 217 170
0.0705409 0.0848395 -0.0923526 190 120 99
0.0496355 0.102892 -0.0972466 159 77 38
0.0518489 0.109172 -0.0973282 234 147 118
0.0480609 0.0990829 -0.0900094 127 64 46
0.0498644 0.10648 -0.0958665 147 57 30
0.051331 0.108592 -0.0966178 242 159 130
0.0498983 0.102973 -0.0980195 170 72 29
0.0562366 0.0813086 -0.101033 105 0 33
0.0520443 0.0982086 -0.101171 174 94 67
0.0482068 0.0857932 -0.0683982 28 0 0
0.0643146 0.0821285 -0.0830316 0 0 0
0.0476185 0.102138 -0.0925347 227 113 81
0.0645337 0.081772 -0.0770155 149 101 88
0.0741834 0.089111 -0.0762735 0 0 0
0.0698818 0.0844606 -0.0785214 255 255 255
0.0697666 0.08458 -0.0895837 43 0 0
0.052536 0.0898242 -0.104274 160 68 0
0.047956 0.0932335 -0.0836094 68 19 12
0.0489257 0.0952944 -0.0973348 140 0 0
0.0708228 0.086188 -0.0743212 0 0 0
0.0558918 0.0951886 -0.106146 231 155 121
0.0493238 0.096975 -0.0876222 33 0 0
0.0483226 0.0918511 -0.0963057 40 0 0
0.0515977 0.0863306 -0.066368 0 2 0
0.0508206 0.0995575 -0.104203 173 94 63
0.0521265 0.104528 -0.0986882 227 147 107
0.0496171 0.0984525 -0.102906 145 80 50
0.0630428 0.0934482 -0.110756 0 0 0
0.0707167 0.0835476 -0.0761179 214 184 186
0.0483091 0.106928 -0.0929444 93 34 24
0.0517608 0.107363 -0.0905339 233 149 120
0.0489058 0.10045 -0.091468 110 66 53
0.0491869 0.10718 -0.0935868 184 61 58
0.048621 0.0939456 -0.0805914 107 80 86
0.0485391 0.10427 -0.0941759 255 255 255
0.0654181 0.0807441 -0.0843761 255 255 255
0.0509968 0.104491 -0.0930928 198 113 93
0.0526358 0.103981 -0.102935 201 125 86
0.0491982 0.0915528 -0.0728745 14 13 11
0.0518545 0.100158 -0.104149 196 123 107
0.0480838 0.102252 -0.0943155 0 0 0
0.0568795 0.0968782 -0.107499 182 107 94
0.0499181 0.0827033 -0.0717228 37 0 0
0.0513078 0.0985048 -0.101877 140 61 40
0.0514129 0.0980218 -0.0915505 92 97 109
0.0493668 0.106878 -0.0959401 179 106 76
0.0469617 0.095259 -0.0893039 84 0 0
0.0489873 0.0893744 -0.0763258 58 27 23
0.0499447 0.109021 -0.0986815 241 150 120
0.0438296 0.094679 -0.103503 255 255 226
0.0478175 0.0979478 -0.0848595 255 162 128
0.0593608 0.0870102 -0.111063 0 216 9
0.0505581 0.107567 -0.100208 204 84 48
0.0633929 0.0810286 -0.0813354 29 0 0
0.0534686 0.084147 -0.0653171 86 72 70
0.0672642 0.0931541 -0.107977 0 0 0
0.0514788 0.0867822 -0.0665165 212 136 110
0.0599109 0.0873985 -0.10949 0 43 0
0.0820978 0.0909334 -0.0956042 158 92 74
0.0556032 0.0823652 -0.0747613 0 0 0
0.05105 0.095447 -0.107445 117 65 50
0.0515106 0.103772 -0.0969912 147 52 19
0.0497765 0.0849029 -0.10107 255 255 255
0.0489012 0.107172 -0.0948173 192 124 110
0.0634768 0.0886468 -0.105151 38 7 28
0.0507689 0.0983366 -0.101763 218 119 105
0.0491738 0.0984265 -0.084012 81 42 32
0.0550906 0.0965212 -0.105965 159 78 63
0.0503196 0.107342 -0.100103 124 22 0
0.051666 0.104255 -0.0971603 124 52 31
0.0508986 0.105582 -0.0996751 254 191 148
0.0645377 0.0899697 -0.106715 252 255 255
0.0526898 0.0844583 -0.073143 45 5 0
0.049785 0.0889556 -0.094776 109 34 0
0.0585625 0.0820289 -0.0732153 21 0 0
0.0616055 0.0814998 -0.0779133 0 0 0
0.0478586 0.0866183 -0.0824593 219 130 118
0.0511965 0.0913054 -0.107012 178 114 97
0.051014 0.0888407 -0.100506 220 165 151
0.0659823 0.0888938 -0.103641 90 68 0
0.070539 0.086414 -0.0750447 51 12 0
0.0538551 0.0795435 -0.0974939 208 160 157
0.0528489 0.0980799 -0.102016 232 156 120
0.0546551 0.0983348 -0.105591 103 69 66
0.0728405 0.0912662 -0.099169 0 29 0
0.0648211 0.0852667 -0.0768277 34 0 0
0.0480876 0.102053 -0.0932749 195 119 96
0.0607402 0.0885276 -0.103501 30 0 0
0.0528958 0.0927907 -0.0989408 55 131 111
0.073095 0.0911596 -0.0981655 255 222 214
0.0498334 0.0952255 -0.0984822 91 0 0
0.0491932 0.103379 -0.0979929 255 219 192
0.0514275 0.0882588 -0.0718062 0 23 17
0.0629144 0.0816698 -0.0819757 29 0 0
0.0489042 0.0876028 -0.0771025 57 30 22
0.047461 0.0971227 -0.0874595 72 12 0
0.0514544 0.0873472 -0.0688631 0 0 0
0.0518526 0.0986147 -0.103011 84 9 0
0.0547162 0.0949397 -0.103973 162 90 64
0.0717632 0.0877533 -0.0924183 143 163 82
0.0529124 0.104847 -0.0989458 95 29 0
0.0519188 0.101694 -0.103303 230 130 96
0.0538434 0.101363 -0.101336 202 129 100
0.0821292 0.0943683 -0.0871888 92 74 67
0.0582245 0.105988 -0.0870423 165 101 77
0.0546258 0.106949 -0.0877155 144 91 68
0.0526935 0.10717 -0.0878882 129 71 52
0.0499617 0.101823 -0.0914782 189 107 87
0.0508278 0.084852 -0.0656906 0 0 0
0.0553814 0.103499 -0.0833876 255 255 255
0.054132 0.107175 -0.0872738 168 98 76
0.0509039 0.0983903 -0.0913825 255 221 204
0.0495674 0.100485 -0.0899893 194 121 98
0.0507563 0.102604 -0.0889024 92 29 0
0.0491707 0.0922295 -0.093545 181 105 83
0.0483821 0.0907274 -0.093153 255 202 179
0.0500482 0.101852 -0.0917834 199 121 100
0.0514338 0.102237 -0.0898506 241 175 148
0.0505724 0.10086 -0.0903469 230 158 135
0.0525737 0.106585 -0.0883077 217 134 112
0.0510434 0.104427 -0.089485 74 37 23
0.0505455 0.098926 -0.0940824 255 255 255
0.0561761 0.106542 -0.0877861 201 118 101
0.0519222 0.102479 -0.102702 255 212 162
0.0527137 0.103536 -0.102562 249 148 115
0.0492632 0.104199 -0.0914419 164 80 53
0.0504338 0.0949099 -0.0771884 22 21 19
0.0504412 0.106518 -0.094584 203 131 109
0.0484431 0.095615 -0.0919147 90 0 0
0.0501692 0.101394 -0.0931544 208 127 100
0.0497504 0.104216 -0.0944484 229 169 145
0.0486716 0.0993436 -0.0892852 112 37 30
0.0534224 0.106091 -0.0874668 203 127 118
0.0494242 0.0998704 -0.088858 181 112 91
0.0528157 0.1043 -0.0992069 151 74 37
0.0514714 0.103911 -0.102919 201 133 80
0.0533918 0.107983 -0.103084 237 165 128
0.0509709 0.103712 -0.0848864 255 104 14
0.0505387 0.106192 -0.100866 157 23 0
0.0494179 0.102641 -0.0965486 255 255 255
0.0519931 0.103305 -0.0845379 255 207 199
0.0519922 0.104919 -0.104318 140 69 41
0.05226 0.104011 -0.103125 212 148 104
0.0528095 0.104273 -0.104117 67 24 0
0.0544164 0.106716 -0.0874338 0 0 0
0.0510783 0.102994 -0.0925925 132 58 29
0.056034 0.104105 -0.083464 255 255 255
0.0518519 0.102873 -0.0923039 255 190 170
0.0499918 0.105166 -0.09297 255 182 162
0.0527802 0.104549 -0.0841454 255 255 255
0.0569773 0.105916 -0.0876267 155 100 81
0.0562883 0.106135 -0.0891533 0 0 0
0.0550849 0.107504 -0.0879922 150 90 76
0.0560469 0.105715 -0.0884489 0 0 0
0.0495798 0.103561 -0.0866516 255 255 255
0.0515337 0.103549 -0.0849076 130 198 209
0.0510503 0.106371 -0.100124 198 106 57
0.0519479 0.0906631 -0.0715269 0 21 0
0.0481188 0.10025 -0.0909006 122 25 0
0.0504179 0.0939797 -0.0976726 90 0 0
0.0499647 0.0986965 -0.078809 73 8 0
0.0507926 0.102002 -0.0919318 52 9 0
0.0504683 0.10261 -0.0872223 245 154 140
0.0528608 0.103997 -0.102081 226 135 100
0.0510147 0.107276 -0.0963253 232 159 129
0.0504202 0.106544 -0.0955474 189 101 76
0.0509374 0.102703 -0.0923219 98 27 0
0.051998 0.105005 -0.103813 255 221 177
0.0526954 0.106386 -0.0878392 126 75 53
0.0561244 0.0974225 -0.106558 233 142 132
0.0505163 0.107273 -0.0973157 225 154 124
0.0505616 0.105774 -0.0948065 176 108 79
0.0503231 0.103275 -0.0920565 188 101 68
0.0516215 0.103323 -0.0929366 202 121 101
0.0510594 0.102917 -0.0928206 188 107 83
0.0501448 0.10424 -0.0965224 235 161 125
0.0499729 0.0986419 -0.092289 207 127 100
0.0530524 0.101541 -0.104594 217 134 144
0.0509647 0.105766 -0.100078 204 106 60
0.0523392 0.104494 -0.083988 255 255 255
0.0515873 0.103585 -0.0931896 129 44 14
0.0486332 0.0942135 -0.0915664 230 155 128
0.0512907 0.102942 -0.092477 241 148 131
0.051542 0.10366 -0.0929535 174 92 73
0.0536489 0.103222 -0.0873984 37 22 19
0.0534438 0.106755 -0.0970435 167 107 91
0.0504567 0.0968422 -0.0933415 171 99 68
0.0497182 0.0971611 -0.0926305 208 124 98
0.0516887 0.104845 -0.0959969 159 75 48
0.0515403 0.0981646 -0.100969 202 118 91
0.0728267 0.0898961 -0.0763866 0 0 0
0.0517894 0.106469 -0.0895231 225 144 119
0.0520658 0.0867925 -0.0679347 0 0 0
0.0512278 0.104043 -0.0961069 193 110 83
0.0553758 0.0942728 -0.104689 174 101 79
0.0479154 0.0876018 -0.0698545 0 58 52
0.0521235 0.0836138 -0.0664058 0 0 0
0.0491296 0.106858 -0.0952094 255 59 34
0.0673661 0.0824099 -0.0800749 0 0 0
0.0634339 0.087772 -0.103487 54 0 0
0.048044 0.0934797 -0.0788904 56 26 21
0.0496268 0.103691 -0.0916391 203 123 101
0.0474871 0.0951148 -0.0852073 156 64 0
0.0483704 0.106339 -0.0956321 133 39 16
0.073726 0.0863247 -0.0839059 85 49 49
0.0484042 0.0943885 -0.0851876 103 50 35
0.0398887 0.0691726 -0.079237 255 255 255
0.0448776 0.0834715 -0.0644363 0 0 0
0.0512671 0.105527 -0.100167 239 190 145
0.0548665 0.0906268 -0.105083 221 101 90
0.053529 0.105049 -0.10413 211 144 130
0.0568598 0.0858809 -0.0695964 31 0 0
0.0476986 0.081476 -0.0716761 41 0 0
0.0506958 0.0802085 -0.0816438 95 0 0
0.0483322 0.0988195 -0.0858453 80 35 21
0.0450896 0.0923681 -0.0817641 100 52 35
0.0589585 0.0983105 -0.108506 117 61 48
0.0524219 0.0749362 -0.0672446 117 0 0
0.0485032 0.110756 -0.0958326 217 128 109
0.0598564 0.092985 -0.108557 110 80 52
0.0616491 0.0868379 -0.103595 155 91 73
0.0508688 0.104763 -0.100563 241 180 130
0.0559396 0.0962683 -0.106105 207 154 137
0.0709977 0.0832335 -0.0749265 50 0 0
0.0518557 0.0847471 -0.0749781 69 33 25
0.0487717 0.0936617 -0.0872228 0 0 0
0.0485633 0.10429 -0.0900713 255 218 172
0.0507314 0.10699 -0.096713 231 156 128
0.0585134 0.0856897 -0.0701056 0 0 0
0.058184 0.0888513 -0.105553 109 60 42
0.0647731 0.0823007 -0.0773708 0 0 0
0.0538183 0.0869024 -0.0737012 46 24 21
0.0557883 0.0915142 -0.109233 255 255 218
0.0694373 0.080349 -0.0885816 51 0 7
0.050452 0.106716 -0.0900181 160 90 71
0.0495525 0.0888532 -0.0758394 0 0 0
0.0466815 0.0878127 -0.0793137 146 100 82
0.0505192 0.10745 -0.0952036 237 157 132
0.061493 0.0945627 -0.106929 140 91 68
0.0497303 0.102224 -0.0918424 222 135 111
0.0614996 0.0930809 -0.110171 94 70 37
0.0555102 0.100531 -0.105831 142 82 62
0.0506739 0.104733 -0.094223 200 118 91
0.0561439 0.0982169 -0.106151 198 119 123
0.0533643 0.0837929 -0.0803348 84 33 0
0.0483441 0.0861375 -0.0768354 79 34 28
0.0517888 0.0985509 -0.104126 237 170 159
0.0517792 0.103707 -0.0980964 184 98 62
0.0727014 0.0861533 -0.0769606 91 49 0
0.0506104 0.0839098 -0.068348 0 45 50
0.0506159 0.106028 -0.0936832 214 134 107
0.0516273 0.0870706 -0.0657963 82 74 66
0.0494741 0.099857 -0.10194 245 155 117
0.0499144 0.0849037 -0.0664713 0 6 7
0.0476154 0.0908653 -0.0796745 12 0 0
0.0544407 0.0951998 -0.104846 70 24 10
0.0480528 0.0932926 -0.0790353 78 38 27
0.0747366 0.0851251 -0.0792701 142 0 0
0.0490253 0.0974409 -0.0914718 255 147 116
0.048425 0.10203 -0.0931826 171 75 43
0.0498414 0.105152 -0.0938147 172 92 69
0.0500465 0.104606 -0.0930256 192 108 79
0.0503605 0.104399 -0.0932841 166 84 56
0.0484198 0.094741 -0.0790188 101 58 47
0.0476032 0.0867002 -0.06605 255 201 163
0.0463167 0.0883306 -0.0726884 0 0 0
0.0504284 0.103364 -0.0942797 153 62 42
0.053921 0.10405 -0.104173 112 40 0
0.0490802 0.101716 -0.0976767 255 255 242
0.0535418 0.104951 -0.0981815 138 66 56
0.049252 0.105095 -0.0929399 137 47 31
0.0630954 0.0852543 -0.0723924 66 43 29
0.0482039 0.0889789 -0.0784323 76 41 33
0.0659504 0.0918909 -0.108895 210 238 157
0.0485742 0.0953566 -0.0839979 126 64 46
0.0470061 0.0858984 -0.082772 163 93 70
0.0521262 0.0891417 -0.102732 255 252 0
0.05182 0.104458 -0.0997591 243 164 124
0.0502267 0.104279 -0.0962118 200 122 91
0.0504015 0.10554 -0.0940821 145 73 47
0.0492933 0.109242 -0.0977789 122 0 0
0.0558523 0.099291 -0.104066 99 0 0
0.0542699 0.0802331 -0.0811079 167 98 87
0.064006 0.0844774 -0.0755872 68 0 0
0.0554098 0.0821845 -0.0773202 80 40 25
0.0524956 0.090998 -0.102013 175 101 77
0.0585964 0.0870675 -0.0689689 55 0 0
0.0475666 0.0835306 -0.0840721 78 0 0
0.0627589 0.0816101 -0.0785298 91 58 57
0.0550848 0.0989598 -0.106088 127 73 55
0.0478943 0.088624 -0.079115 105 69 50
0.0722725 0.085136 -0.0884546 255 255 255
0.0533566 0.0971351 -0.0991164 251 173 121
0.0514496 0.104575 -0.101637 255 232 187
0.0597581 0.0843369 -0.0649072 48 64 47
0.0502159 0.0835672 -0.0850236 138 70 68
0.0471332 0.090653 -0.0958889 91 41 24
0.0723402 0.0895688 -0.0763953 0 0 0
0.0466332 0.0917629 -0.0821929 201 129 102
0.0460399 0.0943017 -0.0890384 90 0 0
0.0641647 0.0877256 -0.107996 0 0 0
0.0483113 0.0944153 -0.082504 110 54 39
0.0490697 0.10881 -0.0933802 246 160 132
0.0755219 0.097238 -0.104481 161 226 143
0.0514811 0.0963018 -0.104065 123 75 58
0.0506552 0.0995195 -0.0911001 94 40 22
0.0510144 0.0895914 -0.100433 0 0 0
0.0479881 0.0920009 -0.0947189 101 0 0
0.0507573 0.099385 -0.0980966 255 176 131
0.0516335 0.0971524 -0.104978 168 105 84
0.0740391 0.0887333 -0.0760654 0 0 0
0.0668804 0.0865813 -0.0742676 100 62 53
0.0543543 0.0858526 -0.0714734 33 18 16
0.047621 0.0884662 -0.0734717 0 10 10
0.0482219 0.0817261 -0.0657286 0 0 0
0.0633359 0.0892807 -0.105997 109 74 65
0.048417 0.0957041 -0.0775012 76 34 22
0.047615 0.0951141 -0.0847607 114 15 0
0.0494305 0.106773 -0.0964179 255 255 229
0.059594 0.0784079 -0.0876353 39 89 66
0.0487786 0.0943433 -0.0865534 65 0 0
0.0386062 0.0714938 -0.0801186 255 77 0
0.0469355 0.092368 -0.0756692 167 101 79
0.044532 0.0842137 -0.063982 0 0 0
0.0517543 0.104536 -0.0992927 214 138 98
0.0654875 0.0829834 -0.0949189 217 97 86
0.0521017 0.0865338 -0.0731068 36 17 14
0.0538932 0.105201 -0.103598 247 183 169
0.0637119 0.0857195 -0.0776198 209 143 129
0.0577002 0.0859001 -0.0706439 95 0 0
0.0478663 0.0960179 -0.0855883 49 0 0
0.056614 0.0991785 -0.10852 119 60 46
0.0547761 0.0907948 -0.10792 255 255 255
0.0500906 0.0928883 -0.0922327 116 60 49
0.0610909 0.0870905 -0.110672 89 79 75
0.0515649 0.105787 -0.100695 251 214 176
0.0513685 0.106766 -0.100257 155 69 22
0.056091 0.0886634 -0.108672 255 116 40
0.0495927 0.0989744 -0.101657 255 166 133
0.049446 0.102329 -0.0909734 255 162 141
0.0490164 0.0847825 -0.074205 129 85 73
0.0592216 0.0905644 -0.104777 120 92 70
0.047755 0.0954779 -0.0845127 116 22 0
0.0501351 0.0818399 -0.0765612 167 114 81
0.0470472 0.104162 -0.0900723 255 184 160
0.0498508 0.106669 -0.0957867 255 227 194
0.0587254 0.086397 -0.0703707 0 0 0
0.0538661 0.0857086 -0.0741701 64 33 27
0.0516508 0.099206 -0.0990869 242 155 115
0.0705011 0.0867274 -0.0993696 91 126 129
0.0717761 0.0848357 -0.0851839 112 58 44
0.0500418 0.101095 -0.0888774 87 59 50
0.0504849 0.104346 -0.099889 161 33 0
0.0575055 0.0966478 -0.107319 193 140 130
0.0507207 0.0909287 -0.103025 255 201 139
0.0494274 0.0713625 -0.0658043 0 0 0
0.0508828 0.104403 -0.0999916 255 168 131
0.0645275 0.0924577 -0.109805 0 19 0
0.045427 0.0930059 -0.0885406 86 0 0
0.050524 0.105746 -0.0948403 180 110 83
0.0660995 0.08378 -0.0653168 0 0 0
0.055776 0.0801098 -0.0737363 168 101 83
0.0511597 0.0917005 -0.0932641 103 39 23
0.0491182 0.0868415 -0.0831028 140 94 73
0.0510521 0.098047 -0.103752 239 191 165
0.0581112 0.085245 -0.104615 51 0 0
0.0528373 0.0966565 -0.0987265 100 5 0
0.0501874 0.104111 -0.0924967 194 107 85
0.0621871 0.0893236 -0.107304 106 88 82
0.0497107 0.0996279 -0.0998747 255 150 123
0.052679 0.0867837 -0.066101 43 26 15
0.0488932 0.0909022 -0.0799552 48 19 12
0.0476751 0.0915976 -0.0797302 22 10 0
0.0524202 0.0849055 -0.102923 154 146 116
0.0486142 0.0955108 -0.0931887 173 106 77
0.0549354 0.0923912 -0.10493 184 109 78
0.0477549 0.102134 -0.0939635 71 0 0
0.0500191 0.104022 -0.0950498 201 124 95
0.0507543 0.105865 -0.101495 101 0 0
0.0504611 0.103865 -0.0920467 193 108 87
0.0510091 0.104089 -0.0991583 206 113 73
0.047988 0.0975851 -0.088187 65 0 0
0.049609 0.108442 -0.0924709 209 130 102
0.0714862 0.0868417 -0.0984539 235 241 159
0.0503533 0.0993716 -0.0998234 192 98 65
0.0563554 0.0933409 -0.106213 206 121 90
0.0528387 0.104147 -0.0985468 146 81 55
0.0470719 0.0910283 -0.0979258 0 0 0
0.0624151 0.0839678 -0.0785578 143 74 61
0.0488203 0.0924446 -0.0990026 131 15 0
0.049863 0.103105 -0.093806 134 45 18
0.0486292 0.0882269 -0.0818202 134 84 65
0.0544234 0.0935718 -0.102624 144 78 47
0.0505065 0.105283 -0.0949132 191 112 85
0.0514171 0.106312 -0.100181 241 192 152
0.0511825 0.0976689 -0.0975099 107 0 0
0.054645 0.0966199 -0.10251 166 92 69
0.0490877 0.0967088 -0.0921714 194 100 74
0.0561961 0.0805926 -0.0790903 183 173 94
0.0769623 0.0930398 -0.104272 255 154 165
0.0588573 0.0818251 -0.0682221 20 0 0
0.0509286 0.103961 -0.0960425 198 117 89
0.0551136 0.0937117 -0.100591 176 132 115
0.0517053 0.0932514 -0.100729 150 27 0
0.0484327 0.0892908 -0.0793158 26 0 0
0.0485515 0.099588 -0.0880188 214 137 115
0.0511534 0.103873 -0.102486 255 161 87
0.0576507 0.0850442 -0.0725671 0 0 0
0.0635636 0.0844509 -0.0799618 255 198 190
0.0621135 0.08602 -0.105666 73 35 0
0.0633668 0.0878376 -0.0791418 104 58 41
0.051362 0.0947135 -0.0989389 156 62 36
0.0504169 0.104194 -0.0917622 198 115 95
0.0467803 0.0981624 -0.096619 90 58 53
0.0803285 0.0952969 -0.0963066 0 12 0
0.0520366 0.105115 -0.0958893 255 190 157
0.046297 0.0930386 -0.0914891 113 49 19
0.0499595 0.103963 -0.0955181 197 120 88
0.0506198 0.0959934 -0.0976415 122 0 0
0.0754357 0.0847199 -0.066765 172 0 0
0.0544136 0.101021 -0.103249 150 93 74
0.0618404 0.0887256 -0.102813 138 0 67
0.0673259 0.0975403 -0.107841 161 108 84
0.0456205 0.0942153 -0.0882022 0 0 0
0.0526301 0.0913031 -0.10544 17 0 0
0.0488327 0.0941927 -0.084053 93 42 26
0.0482492 0.0906209 -0.0965404 51 0 0
0.0534527 0.0947806 -0.0980516 132 16 0
0.0480677 0.0917885 -0.0962341 0 0 0
0.0642469 0.0901948 -0.107337 0 23 0
0.063561 0.0895896 -0.107263 244 213 235
0.0483953 0.100462 -0.097255 123 0 0
0.0586659 0.0777684 -0.100931 255 0 0
0.0524944 0.108495 -0.10198 245 171 132
0.0525756 0.107814 -0.102439 235 165 126
0.054474 0.107124 -0.0881573 153 90 71
0.0525709 0.108521 -0.101804 238 169 131
0.0557421 0.105539 -0.0881547 53 58 64
0.0494199 0.0993942 -0.0907835 180 103 86
0.048273 0.100394 -0.0879477 90 10 0
0.0571039 0.105984 -0.0876486 182 128 114
0.0505565 0.109757 -0.0991392 247 187 163
0.0545458 0.104338 -0.0836791 255 255 255
0.0500103 0.10666 -0.0972757 255 255 255
0.0567368 0.106157 -0.087804 160 108 94
0.0494493 0.10136 -0.0915828 215 134 113
0.0483674 0.0921085 -0.0931001 126 33 0
0.049731 0.0996025 -0.0895396 137 81 60
0.0510287 0.103963 -0.0853451 255 227 229
0.0569638 0.107129 -0.0868818 189 120 114
0.0500682 0.100673 -0.0906307 230 162 134
0.0532116 0.106752 -0.0876494 154 91 72
0.0501483 0.102013 -0.0905939 191 114 92
0.0501426 0.0961644 -0.0930068 255 252 228
0.0568328 0.1067 -0.0882407 168 91 83
0.0495189 0.0989307 -0.0854933 83 41 31
0.05438 0.106426 -0.0878927 206 122 100
0.0566087 0.106007 -0.087558 134 76 65
0.0505116 0.101994 -0.0894867 161 90 70
0.0540276 0.107151 -0.0875137 121 76 59
0.0501083 0.10241 -0.0891835 187 112 94
0.0519127 0.101397 -0.0912708 101 48 35
0.0551369 0.103789 -0.0893513 201 112 91
0.0531104 0.107598 -0.103623 255 255 210
0.0524547 0.107646 -0.103263 201 120 91
0.0509101 0.102784 -0.0923235 118 71 64
0.0518745 0.102958 -0.101732 225 135 97
0.0486139 0.101222 -0.0911669 117 0 0
0.0515971 0.105509 -0.102216 255 255 255
0.0515231 0.103263 -0.0981921 215 118 82
0.049959 0.096678 -0.0931531 194 121 97
0.050955 0.104632 -0.0894673 138 75 61
0.0522014 0.104791 -0.104027 255 213 171
0.0479165 0.0958171 -0.0912695 95 0 0
0.0496962 0.102414 -0.0877823 255 255 255
0.052166 0.103963 -0.102464 201 120 64
0.052153 0.10556 -0.102833 171 114 69
0.0513165 0.102217 -0.0925303 220 145 124
0.0546582 0.106717 -0.0871729 154 88 59
0.0534849 0.105326 -0.101882 118 28 0
0.0506976 0.0976449 -0.093412 255 227 214
0.0514666 0.103699 -0.0847446 255 229 211
0.0566627 0.105703 -0.0874413 0 0 0
0.0535212 0.104656 -0.0984833 179 104 81
0.0524084 0.104222 -0.100868 223 133 95
0.0522004 0.10521 -0.0857014 60 0 0
0.0486396 0.0977791 -0.0802621 146 88 68
0.0510752 0.10054 -0.0913803 136 73 52
0.0505043 0.103725 -0.0971604 205 115 81
0.0510783 0.107433 -0.0978087 255 224 188
0.054943 0.0959582 -0.106122 167 79 63
0.0491733 0.100304 -0.0911716 98 0 0
0.0487118 0.0986064 -0.0931567 56 0 0
0.0513042 0.10279 -0.0924716 131 66 49
0.0497467 0.103521 -0.0938483 195 106 80
0.0508466 0.107582 -0.095622 189 109 85
0.0488196 0.102917 -0.0965931 139 57 0
0.0495151 0.10501 -0.0920353 226 150 127
0.0504573 0.100052 -0.0866162 85 39 30
0.0526938 0.10466 -0.0840656 255 255 255
0.0511204 0.101141 -0.0921755 255 255 237
0.0520008 0.104194 -0.0934073 191 110 89
0.0508782 0.104408 -0.0958251 251 151 131
0.0503693 0.106376 -0.0999625 215 142 64
0.0532967 0.103222 -0.102119 130 66 54
0.0476004 0.0926098 -0.0823863 128 75 57
0.0496458 0.103518 -0.0950104 77 0 0
0.0503403 0.110328 -0.0988692 253 165 137
0.0498966 0.103893 -0.0920953 198 114 90
0.0512646 0.105112 -0.0980454 240 180 136
0.050738 0.102282 -0.0872778 131 76 59
0.0528214 0.101934 -0.0921431 93 38 19
0.0569751 0.105533 -0.0876147 0 0 0
0.0511873 0.104599 -0.0955984 211 129 99
0.0481333 0.100507 -0.0911282 0 0 0
0.050185 0.0974913 -0.0928438 206 124 98
0.0504242 0.104261 -0.0933281 195 111 85
0.0495848 0.109292 -0.0971629 251 157 139
0.0525373 0.10573 -0.0961776 157 75 50
0.0736201 0.0890922 -0.0760284 0 0 0
0.0476357 0.0967394 -0.0897871 64 0 0
0.0518952 0.0869305 -0.0658543 51 38 34
0.0520508 0.0875944 -0.0668599 31 24 22
0.0538456 0.0905713 -0.103967 188 127 107
0.0536924 0.10663 -0.0875279 137 91 86
0.0495858 0.103726 -0.0914936 196 110 92
0.0490904 0.0956336 -0.0942914 207 121 94
0.0565584 0.106651 -0.0879867 145 47 46
0.0553694 0.107425 -0.0879078 156 94 76
0.0545666 0.107338 -0.0885001 123 83 69
0.0530453 0.104262 -0.102151 172 95 63
0.055153 0.107116 -0.087909 177 106 87
0.0505485 0.105025 -0.093853 121 30 0
0.0501376 0.105327 -0.0941669 168 80 53
0.0705131 0.090324 -0.0772052 0 0 0
0.051241 0.0883369 -0.0674312 7 5 6
0.0526214 0.0866263 -0.0658545 28 21 20
0.0516315 0.0873674 -0.0653487 121 72 55
0.0505493 0.0963233 -0.0969679 101 0 0
0.0724042 0.0891126 -0.0742162 90 0 0
0.0500375 0.0955005 -0.0962768 96 0 0
0.0470394 0.0912214 -0.0971707 69 0 0
0.0481392 0.0879592 -0.081861 223 164 110
0.0541938 0.0928433 -0.10337 127 54 29
0.0517555 0.0964047 -0.0982213 116 0 0
0.0553141 0.0976124 -0.10397 193 121 103
0.0488753 0.0957706 -0.092781 129 54 33
0.0513552 0.098026 -0.100826 226 126 102
0.0508569 0.106936 -0.0968857 210 134 105
0.0512805 0.085845 -0.101724 223 85 63
0.0486848 0.0933264 -0.0964273 63 0 0
0.0504859 0.103652 -0.0937882 114 35 12
0.0487996 0.0943576 -0.0951246 66 0 0
0.0506527 0.109357 -0.0970041 244 159 132
0.0526534 0.0952549 -0.0968278 44 12 0
0.0488166 0.0902885 -0.0792748 61 30 22
0.0513557 0.105924 -0.0883581 188 119 89
0.0477265 0.0933433 -0.0820023 52 7 0
0.062364 0.0888732 -0.10564 255 255 255
0.0505279 0.10561 -0.0945954 255 255 244
0.0469644 0.0951522 -0.0736409 77 39 20
0.0517082 0.0864807 -0.0729446 80 43 37
0.0499168 0.104961 -0.0932352 205 125 96
0.0491139 0.096334 -0.0826794 120 60 42
0.0521586 0.106398 -0.101687 228 199 161
0.0676837 0.0783216 -0.0739111 0 0 0
0.0538373 0.106202 -0.09745 159 92 75
0.0500954 0.109829 -0.0973313 255 209 185
0.0513706 0.0997386 -0.100989 221 128 96
0.0501824 0.108595 -0.0943508 162 71 49
0.0508776 0.106014 -0.0947895 205 129 103
0.0469905 0.0860982 -0.0929872 103 0 0
0.0509888 0.105519 -0.0997351 252 196 152
0.0658795 0.0841541 -0.0761504 27 7 0
0.0469797 0.0951346 -0.0903135 255 255 224
0.0484509 0.0827703 -0.0682133 0 80 59
0.0516332 0.096801 -0.103647 121 25 22
0.0501027 0.0836736 -0.0687328 0 11 13
0.0511697 0.0971001 -0.0991238 255 178 132
0.0528164 0.108041 -0.0985573 242 156 120
0.0685927 0.0854514 -0.0998642 255 221 0
0.0483865 0.0933752 -0.0954332 0 0 0
0.0515824 0.0868772 -0.076721 62 34 27
0.0521795 0.100514 -0.103004 93 28 0
0.0494311 0.0942742 -0.0981183 90 0 0
0.0506999 0.106249 -0.0948061 191 115 92
0.0492999 0.0899751 -0.0757935 29 12 7
0.0668895 0.0940342 -0.107514 96 69 50
0.0514692 0.104718 -0.0967599 173 93 68
0.0691375 0.0875611 -0.101764 58 41 27
0.0484421 0.0924257 -0.0700551 255 153 137
0.0479021 0.0970106 -0.087425 62 0 0
0.0508789 0.107696 -0.0944185 223 142 121
0.0504563 0.105669 -0.0941756 189 119 92
0.0727114 0.0858011 -0.0870818 91 51 37
0.0546845 0.0850692 -0.0731103 57 27 21
0.0519252 0.100052 -0.103039 234 173 172
0.0635338 0.087957 -0.103653 81 3 2
0.0621182 0.0797289 -0.0829446 255 229 112
0.0650633 0.0848846 -0.103709 155 72 0
0.056007 0.0894558 -0.106251 143 131 153
0.0506881 0.0960198 -0.0998655 240 160 124
0.0733233 0.0870959 -0.080649 145 82 72
0.0684616 0.0857585 -0.0984776 0 0 0
0.0709748 0.0959831 -0.105225 255 6 0
0.0780834 0.096155 -0.101248 188 246 141
0.0536752 0.0865151 -0.103263 186 100 121
0.056882 0.0821331 -0.0738562 46 0 0
0.0505705 0.0824598 -0.0748496 120 63 35
0.0543186 0.0802782 -0.0816351 110 54 47
0.0473361 0.094422 -0.0918344 111 0 0
0.04904 0.0934328 -0.0970785 0 0 0
0.053656 0.0925447 -0.102203 157 74 44
0.0536986 0.0966419 -0.0995832 78 0 0
0.0641098 0.091263 -0.104924 211 188 176
0.0529104 0.085743 -0.0999184 179 133 108
0.0553694 0.0990534 -0.106293 135 73 56
0.0489515 0.106672 -0.090984 255 235 205
0.0539655 0.0847657 -0.0815006 113 65 51
0.056009 0.0977704 -0.106014 181 89 74
0.0791754 0.0953659 -0.0949243 132 186 86
0.0705402 0.0880682 -0.0752849 0 0 0
0.0646349 0.0862331 -0.0741568 97 67 58
0.0492617 0.0777766 -0.0857107 0 79 190
0.053027 0.0871744 -0.0732366 32 19 18
0.0497473 0.0923899 -0.102614 187 93 62
0.0532365 0.086602 -0.0978647 144 85 66
0.0616412 0.0914395 -0.110525 0 0 0
0.0487911 0.0980366 -0.0916275 187 100 78
0.0718672 0.0840451 -0.0987923 141 146 75
0.0504753 0.0889725 -0.0956407 76 0 0
0.0523082 0.0823493 -0.0822213 255 229 238
0.0574561 0.0800688 -0.0930205 84 114 93
0.0473821 0.08989 -0.0810884 98 41 25
0.0487134 0.0916609 -0.0729894 16 18 14
0.0492407 0.0883124 -0.0760132 55 28 23
0.0495127 0.0948657 -0.0918501 86 16 0
0.0486959 0.0927898 -0.0757146 24 7 0
0.0499064 0.105408 -0.0931033 155 91 63
0.0494428 0.0959221 -0.0834804 89 41 29
0.0513985 0.106078 -0.101069 204 164 124
0.0460187 0.0803728 -0.061048 0 0 0
0.0558389 0.092056 -0.10709 85 28 0
0.0503239 0.107223 -0.0913813 238 135 103
0.0570632 0.0897403 -0.107055 9 0 0
0.0501183 0.10472 -0.0995099 195 83 60
0.063177 0.0844836 -0.0780293 44 0 0
0.0507917 0.105037 -0.098472 153 36 0
0.0519789 0.102714 -0.082265 98 46 31
0.0609962 0.0856739 -0.0710056 49 22 22
0.0500727 0.105215 -0.09303 189 107 77
0.0652734 0.0834566 -0.0764799 56 0 0
0.0465547 0.0835888 -0.0682759 104 31 23
0.0499179 0.0848 -0.0679324 0 30 25
0.0500062 0.106399 -0.0934207 120 35 9
0.0517454 0.107773 -0.0973065 228 159 129
0.0488496 0.089353 -0.0922429 48 10 0
0.0474153 0.0893088 -0.0963442 0 0 0
0.0517589 0.090121 -0.102161 115 39 21
0.0492817 0.0923982 -0.0966865 100 0 0
0.0484745 0.0900828 -0.0750408 54 32 26
0.0497258 0.10643 -0.0984854 222 143 100
0.0478018 0.0876464 -0.0781631 59 24 16
0.0676461 0.0859972 -0.102507 80 0 0
0.0488748 0.0986181 -0.0862507 159 98 74
0.054834 0.103671 -0.10423 141 86 68
0.0503631 0.106033 -0.09115 198 117 93
0.0469604 0.0856341 -0.0801961 193 113 87
0.0487562 0.0894802 -0.0774003 54 34 29
0.0554512 0.0956987 -0.106587 217 128 116
0.0676579 0.0827512 -0.070332 77 47 42
0.0614869 0.0921142 -0.109594 101 75 52
0.0628099 0.0816848 -0.0820504 247 190 182
0.0475227 0.0864412 -0.0835766 146 78 53
0.0520745 0.083552 -0.101994 255 255 255
0.0499003 0.0936737 -0.0979079 98 0 0
0.0499485 0.0927932 -0.0987283 186 116 75
0.0573623 0.0793814 -0.0754536 45 0 0
0.05189 0.0824033 -0.0715656 153 97 85
0.0476316 0.0970045 -0.0902904 143 60 43
0.050558 0.104276 -0.0969388 184 101 68
0.0557459 0.0839658 -0.0704575 58 16 18
0.0524878 0.101148 -0.0987094 152 83 52
0.0658092 0.084634 -0.0764412 74 46 42
0.0667562 0.0834739 -0.07975 49 0 0
0.0485964 0.0885818 -0.073873 38 27 23
0.054844 0.0998165 -0.10605 200 164 156
0.0532276 0.101814 -0.105558 186 128 73
0.0494449 0.0837911 -0.0686556 37 27 24
0.0643625 0.0830602 -0.0780073 163 102 90
0.0679151 0.093941 -0.105559 126 86 62
0.0807154 0.0969878 -0.0940435 121 71 51
0.0520504 0.104173 -0.0986136 179 93 61
0.0465361 0.0898891 -0.0865251 140 70 66
0.0714067 0.0876944 -0.0756512 0 0 0
0.0473447 0.089136 -0.073773 66 33 26
0.0520135 0.0863118 -0.0720463 0 6 6
0.0703708 0.0846218 -0.081627 149 96 83
0.0537937 0.082021 -0.0811736 65 32 0
0.0708202 0.096672 -0.10652 131 78 52
0.0589656 0.082801 -0.0674129 98 64 56
0.0514287 0.0981365 -0.0981245 165 64 50
0.0473562 0.0928438 -0.0811436 237 192 160
0.060971 0.0929548 -0.110675 255 255 255
0.0513748 0.0964349 -0.0975085 131 0 0
0.0764208 0.0972076 -0.103765 255 255 255
