ply
format ascii 1.0
comment Created by Open3D
element vertex 1244
property double x
property double y
property double z
property uchar red
property uchar green
property uchar blue
end_header
0.0569653 0.0700651 -0.0344719 45 29 24
0.0659406 0.0464124 -0.0499754 67 45 37
0.0682466 0.0636249 -0.0498032 0 0 0
0.0466611 0.0650143 -0.0506468 0 0 0
0.0443044 0.0551016 -0.0273031 73 46 38
0.055111 0.0568237 -0.0126021 74 48 39
0.0388213 0.06391 -0.0461075 0 0 0
0.0512894 0.0533404 -0.0201345 76 50 40
0.0573207 0.0754349 -0.0364579 0 0 0
0.0574546 0.0634879 -0.0327121 69 44 36
0.0758373 0.0622302 -0.0136368 70 45 36
0.0344582 0.0604494 -0.0359876 78 55 45
0.0558527 0.0685538 -0.0363373 44 29 23
0.0474395 0.0620907 -0.033428 57 37 30
0.0402094 0.0631177 -0.0265315 60 38 31
0.0395135 0.0675416 -0.0412526 0 0 0
0.0679519 0.0606023 -0.0480982 0 0 0
0.0476972 0.0621215 -0.0162038 76 49 40
0.0508783 0.0692187 -0.0445498 0 0 0
0.0579298 0.0570564 -0.0258165 67 42 34
0.0535987 0.0729252 -0.0383372 0 0 0
0.0661228 0.0605968 -0.0551261 0 0 0
0.0511526 0.0485396 -0.0246759 76 50 40
0.0337233 0.048871 -0.0386262 0 0 0
0.0465656 0.0702889 -0.041784 0 0 0
0.0680124 0.0698781 -0.0453416 0 0 0
0.0523144 0.0556197 -0.0131635 74 48 39
0.0660345 0.0589426 -0.0507891 0 0 0
0.0557886 0.0523547 -0.0197234 76 50 40
0.0549009 0.0671622 -0.036228 47 30 25
0.0557783 0.0727921 -0.0416116 0 0 0
0.05877 0.076558 -0.0359141 0 0 0
0.0514161 0.0734953 -0.0385935 0 0 0
0.0551053 0.0667591 -0.0361673 47 31 25
0.0507483 0.0691195 -0.0319529 45 30 24
0.069346 0.0698228 -0.0462352 0 0 0
0.0405023 0.0665838 -0.0424124 0 0 0
0.0508308 0.0493897 -0.0347229 77 51 41
0.0495508 0.0568825 -0.00498077 76 49 40
0.0391816 0.0605298 -0.0218779 59 36 29
0.0540907 0.0469223 -0.0230917 76 49 40
0.0516679 0.0721571 -0.0409971 0 0 0
0.0545411 0.056071 -0.0336811 69 43 35
0.0707075 0.0593358 -0.0454017 0 0 0
0.0397991 0.0675705 -0.0420088 0 0 0
0.0549986 0.0667319 -0.0537663 0 0 0
0.0427599 0.0586019 -0.00824292 74 48 39
0.0622454 0.045005 -0.0287211 79 52 43
0.0517088 0.0634757 -0.0241217 66 42 34
0.0530593 0.0676779 -0.00887061 68 44 35
0.0587827 0.056834 -0.0273946 68 43 35
0.0517679 0.0524991 -0.0196135 77 50 40
0.0583436 0.0605044 -0.0293016 65 41 33
0.0589639 0.0623472 -0.0396634 56 37 30
0.0643462 0.0565382 -0.0260707 65 40 32
0.0524258 0.0709355 -0.0290057 47 31 25
0.0573137 0.0498208 -0.0204327 75 49 40
0.0660585 0.0705072 -0.047838 0 0 0
0.0477568 0.0510525 -0.0414785 76 50 40
0.0510764 0.053547 -0.000366546 76 50 40
0.0384284 0.0668493 -0.0401001 0 0 0
0.0515483 0.0586122 -0.0361541 65 41 33
0.0615689 0.0574815 -0.0547032 0 0 0
0.031516 0.0635952 -0.0404721 0 0 0
0.0588194 0.0512708 -0.0371633 75 52 43
0.0656959 0.0616565 -0.0307087 70 48 39
0.0379155 0.0640271 -0.0266112 67 44 37
0.0595108 0.0606471 -0.0239944 67 42 34
0.066306 0.0418113 -0.0356026 132 98 84
0.0352011 0.0685876 -0.0274834 60 40 34
0.0500838 0.0708984 -0.0412951 0 0 0
0.0738577 0.0666347 -0.0461831 0 0 0
0.0466758 0.0645619 -0.0345719 47 31 25
0.0551469 0.0716846 -0.0427638 0 0 0
0.0480523 0.0605563 -0.0375115 52 33 27
0.0518347 0.0633353 -0.0301012 64 41 33
0.0524211 0.0658754 -0.0380843 47 31 25
0.044408 0.0671192 -0.0442992 0 0 0
0.0685431 0.0666974 -0.0439113 47 30 24
0.0325539 0.0548889 -0.0426952 0 0 0
0.048397 0.0725923 -0.034703 0 0 0
0.047521 0.063549 -0.0406272 45 30 24
0.0636306 0.054808 -0.0401597 57 35 29
0.0535047 0.0695828 -0.0462319 0 0 0
0.0689511 0.0699834 -0.0456582 0 0 0
0.0477501 0.0666024 -0.0448065 38 26 22
0.0711604 0.072745 -0.0344158 59 38 31
0.0521466 0.0694269 -0.0455813 0 0 0
0.0480896 0.0689149 -0.0434406 0 0 0
0.049684 0.0658153 -0.0372295 46 31 25
0.0543816 0.066452 -0.0317944 53 35 28
0.0461511 0.0622299 -0.0443414 43 28 22
0.0635422 0.0786411 -0.0373525 0 0 0
0.062598 0.0525213 -0.0126723 77 49 40
0.0312641 0.0633584 -0.0410432 0 0 0
0.0367856 0.071413 -0.0336416 0 0 0
0.0552918 0.0713849 -0.0116397 67 44 35
0.0690424 0.0727934 -0.0449064 0 0 0
0.0396479 0.0571619 -0.0261578 73 49 40
0.0664119 0.0661997 -0.0483169 0 0 0
0.0612972 0.0771244 -0.0372288 0 0 0
0.055567 0.0531524 -0.0225459 74 48 39
0.0561813 0.0757526 -0.0411601 0 0 0
0.0315136 0.0587208 -0.04204 0 0 0
0.0414136 0.0725924 -0.0373437 0 0 0
0.0520681 0.0543418 -0.0321134 72 46 37
0.0459605 0.0725338 -0.033909 0 0 0
0.0587828 0.0597996 -0.00827595 72 46 37
0.0473262 0.0673045 -0.0458505 0 0 0
0.0575346 0.0262502 -0.037775 0 0 0
0.0581176 0.0362595 -0.01066 80 54 45
0.062774 0.0388649 -0.0551181 0 0 0
0.0534653 0.0337977 -0.0114928 76 51 42
0.0678118 0.0470766 -0.0531633 0 0 0
0.0364758 0.0310159 -0.0331665 0 0 0
0.0686667 0.0350595 -0.0291618 123 89 76
0.0475968 0.0364136 -0.0168889 75 49 41
0.0420239 0.0405127 -0.0219368 72 47 39
0.0430164 0.0405285 -0.0260117 73 47 39
0.0622519 0.0405868 -0.0504075 82 54 46
0.0471289 0.0306626 -0.0404281 0 0 0
0.0645962 0.0451552 -0.0571493 0 0 0
0.0394938 0.0356993 -0.00937732 69 44 37
0.0449506 0.0436015 -0.0304625 63 40 33
0.0522786 0.0349074 -0.0251888 68 45 37
0.0546356 0.031435 -0.0420589 0 0 0
0.0528133 0.0326604 -0.0437281 0 0 0
0.0347529 0.0308921 -0.0334094 0 0 0
0.0618671 0.049195 -0.047773 81 57 47
0.0286168 0.0349287 -0.0311853 0 0 0
0.0570836 0.0335313 -0.0370477 72 48 39
0.0534707 0.0378725 -0.00366573 66 42 34
0.0590046 0.0368031 -0.0508407 0 0 0
0.0428176 0.0428838 -0.0276714 72 48 40
0.0618046 0.0378668 -0.053002 0 0 0
0.0393742 0.02833 -0.036775 0 0 0
0.0664984 0.0473672 -0.0544248 0 0 0
0.034725 0.0340386 -0.0277812 0 0 0
0.0568965 0.0347274 -0.0342104 90 65 55
0.0554837 0.0350753 -0.0289594 61 38 32
0.049936 0.0355422 -0.0143405 76 51 42
0.0363703 0.0325212 -0.0156105 67 45 37
0.0594626 0.0439833 -0.0225589 61 36 29
0.0424515 0.0270817 -0.035312 0 0 0
0.0480385 0.0394497 -0.0317061 73 48 40
0.0616311 0.0477921 -0.0278084 84 57 47
0.0643576 0.036609 -0.0488825 0 0 0
0.0514085 0.0389081 -0.0313754 67 43 36
0.050048 0.0378724 -0.0328837 67 43 36
0.0688097 0.0480447 -0.0536949 0 0 0
0.0429871 0.0380887 -0.0254628 72 47 39
0.0637022 0.0550014 -0.0565337 0 0 0
0.0637385 0.0390854 -0.0567336 0 0 0
0.0586679 0.0441332 -0.0469783 118 85 74
0.0504693 0.0343415 -0.0251039 64 41 34
0.0625784 0.0432988 -0.0237061 84 56 47
0.0593416 0.0408815 -0.00671485 72 47 39
0.0576395 0.0289781 -0.0361572 0 0 0
0.063885 0.0375787 -0.0525511 0 0 0
0.0604736 0.0419493 -0.0438583 122 88 76
0.0617847 0.0361435 -0.0485846 0 0 0
0.0391238 0.0369973 -0.0313381 46 28 22
0.0651109 0.060184 -0.00398948 73 47 38
0.0701248 0.0509941 -0.0252464 82 57 47
0.0547447 0.0515105 -0.0223125 76 50 40
0.0640787 0.043848 -0.0425586 112 80 69
0.0628534 0.0369784 -0.051742 0 0 0
0.0694104 0.0526501 -0.0414048 75 51 42
0.0647991 0.0531194 -0.0564627 0 0 0
0.0509094 0.050587 -0.0322571 77 51 41
0.0547735 0.0451397 -0.0262107 70 45 38
0.0614381 0.0504139 -0.0320024 80 55 46
0.055607 0.0482943 -0.0144695 75 49 39
0.0421063 0.0363249 -0.0287014 62 39 33
0.0483706 0.0522646 -0.0277587 76 50 40
0.0559359 0.0441504 -0.0300689 75 49 40
0.0449786 0.0705666 -0.037841 0 0 0
0.065423 0.0534055 -0.0161451 69 45 37
0.0552661 0.0557516 -0.0262202 76 49 40
0.0291443 0.0455448 -0.0435159 0 0 0
0.0493328 0.0649569 -0.0386245 50 33 27
0.038551 0.0402043 -0.028911 51 32 26
0.0560785 0.0543261 -0.0253454 78 51 41
0.0489856 0.0521437 -0.038213 76 49 40
0.0656097 0.0580862 0.00208532 74 47 38
0.0571433 0.0533192 -0.0153841 75 49 40
0.0489222 0.0647151 -0.0414381 46 30 24
0.0530863 0.0515769 -0.0272403 77 50 40
0.0559533 0.0457817 -0.0400344 75 50 42
0.0709764 0.0416848 -0.0409939 93 63 53
0.0373424 0.0341753 -0.0380834 0 0 0
0.071248 0.047283 -0.0505117 0 0 0
0.0700115 0.0599799 -0.04793 0 0 0
0.0493289 0.0521217 -0.0267936 77 50 40
0.0545224 0.0528301 -0.0207825 76 50 40
0.0579842 0.0528717 -0.0231137 76 48 40
0.053173 0.0560278 -0.01755 74 48 39
0.0409831 0.0444558 -0.00368114 60 37 31
0.0456585 0.0506395 -0.0166259 75 49 39
0.0483935 0.0548259 -0.0306346 73 48 38
0.0361948 0.0528964 -0.0321386 48 30 24
0.0597615 0.0582164 -0.0375823 65 44 36
0.0445228 0.0497377 -0.0382938 65 42 34
0.0517846 0.0543165 -0.0196451 75 49 39
0.0475041 0.0479963 -0.00991425 71 48 39
0.0597969 0.0566738 -0.0470997 72 49 41
0.0720497 0.0519391 -0.0476285 0 0 0
0.0309694 0.0543293 -0.0317648 0 0 0
0.0430715 0.0672244 -0.0409612 40 29 24
0.0592932 0.0574919 -0.0184018 72 46 38
0.0576147 0.0550623 -0.00700758 75 49 40
0.0549144 0.0369743 -0.0216925 75 50 42
0.0513389 0.0505553 -0.0298934 78 51 41
0.0511422 0.0640749 -0.0371186 54 35 29
0.0659948 0.0684147 -0.0364341 50 31 25
0.0311725 0.0492033 -0.0353286 0 0 0
0.0536066 0.0504265 -0.0242871 77 51 40
0.0582391 0.0552573 -0.0205081 76 50 41
0.071018 0.0520992 -0.0452151 56 35 28
0.0586942 0.0473752 -0.035958 80 54 44
0.0530116 0.062432 -0.0450131 45 29 23
0.0479218 0.0520154 -0.0297404 76 50 40
0.0422103 0.0693027 -0.0396392 0 0 0
0.056996 0.0464552 -0.031301 77 50 42
0.0468998 0.0582555 -0.0270319 76 48 39
0.0552076 0.0539802 -0.0212507 74 48 39
0.0444803 0.067978 -0.0444823 0 0 0
0.0519942 0.05281 -0.0128293 77 50 41
0.0504483 0.0495393 -0.0235857 76 50 40
0.0447798 0.043717 -0.0171832 71 45 36
0.0606172 0.0465075 -0.0291633 89 61 51
0.0665316 0.068422 -0.047968 0 0 0
0.0521567 0.0485258 -0.00129632 76 51 41
0.0612649 0.0513239 -0.0367497 72 48 39
0.049016 0.0439328 -0.0243329 65 42 33
0.0319537 0.0458626 -0.035054 0 0 0
0.0605287 0.0558172 -0.0187371 71 46 37
0.0616079 0.0617572 -0.0482671 56 35 28
0.0668641 0.0457877 -0.0270291 79 53 44
0.0616764 0.0591616 -0.0252775 66 41 34
0.0493586 0.0486714 -0.016846 77 51 41
0.055756 0.0615218 -0.0416012 58 39 32
0.0637271 0.0613767 -0.0465115 59 37 31
0.0520375 0.0532808 -0.0208393 76 50 40
0.0515575 0.0521047 -0.0160163 77 50 40
0.0728179 0.0553869 -0.0400547 60 38 30
0.0469747 0.0635829 -0.0544103 0 0 0
0.0419905 0.0657016 -0.0428901 41 27 23
0.0408018 0.0554701 -0.0194818 60 37 31
0.0346408 0.061207 -0.054134 0 0 0
0.0679552 0.0655553 -0.0389175 64 42 35
0.0470643 0.0548061 -0.0322777 74 48 38
0.0559915 0.0574929 -0.0363248 63 40 32
0.0433191 0.0671261 -0.045504 0 0 0
0.0511248 0.0693482 -0.0344668 44 29 23
0.0505896 0.0502773 -0.0305835 76 50 40
0.0509773 0.0567695 -0.0147422 73 47 38
0.0659439 0.061282 -0.0189509 67 43 35
0.0691511 0.0622517 -0.0471896 0 0 0
0.0678266 0.0643991 -0.0476928 0 0 0
0.0517133 0.0624024 -0.016732 71 45 36
0.0687558 0.0584155 -0.0306198 63 39 32
0.0507584 0.0502349 -0.0152778 76 51 41
0.0485308 0.0520029 -0.0279083 76 50 40
0.0568409 0.0678147 -0.0097501 68 43 35
0.0440061 0.0418874 -0.0303396 73 47 39
0.0566905 0.0551383 -0.0336219 68 43 35
0.043868 0.0497636 -0.0237552 73 47 38
0.0542541 0.054855 -0.0257131 73 47 38
0.0560513 0.050759 -0.0283771 72 44 35
0.0525163 0.0447258 0.00124027 75 50 40
0.0630843 0.0589918 -0.0195549 67 43 35
0.0391726 0.055337 -0.029079 72 48 40
0.0642689 0.064476 -0.0490577 49 32 26
0.0514685 0.0706251 -0.0422576 0 0 0
0.0708904 0.0532459 -0.0155214 74 49 40
0.0534776 0.0437594 -0.00805676 75 49 40
0.0502119 0.063684 -0.0403108 45 29 24
0.0526645 0.0550227 -0.0317176 77 49 40
0.0521731 0.0703156 -0.039001 41 27 22
0.0601761 0.0622834 -0.0292248 65 41 34
0.0488464 0.0523518 -0.0164889 76 50 40
0.0429217 0.0666967 -0.0462448 0 0 0
0.0581474 0.0553312 -0.00686052 75 49 40
0.0407914 0.0672543 -0.045891 0 0 0
0.0450037 0.0669635 -0.0477613 0 0 0
0.0630575 0.0747204 -0.0438692 0 0 0
0.050317 0.0577284 -0.0330845 69 44 36
0.0652607 0.061721 -0.0278224 56 35 28
0.048536 0.0697405 -0.0364561 40 27 22
0.0482709 0.0671561 -0.0475793 0 0 0
0.0489559 0.0526434 -0.0421766 74 48 39
0.0446148 0.0666815 -0.0490569 0 0 0
0.0487372 0.0690921 -0.0367438 41 27 22
0.0585654 0.0403998 -0.0310785 68 42 35
0.0723798 0.0465324 -0.0028904 76 49 41
0.0698943 0.0600242 -0.0461747 0 0 0
0.0412652 0.0684623 -0.0411865 0 0 0
0.0422837 0.0616423 -0.00877367 73 47 38
0.0529507 0.062135 -0.0464919 46 29 24
0.0520627 0.067399 -0.0497226 0 0 0
0.0586399 0.0503881 -0.0353201 76 51 43
0.0457172 0.066772 -0.0099179 71 45 37
0.0541153 0.0720663 -0.0151512 63 40 32
0.0554415 0.0595241 -0.0276341 70 43 35
0.0606578 0.0527626 -0.0213497 72 46 38
0.0462142 0.0673992 -0.0445587 0 0 0
0.0553367 0.0764914 -0.0370555 0 0 0
0.0669167 0.0657337 -0.0189831 63 40 33
0.0680732 0.0645006 -0.0249322 56 34 28
0.0568486 0.0545449 -0.0266916 71 45 37
0.0424914 0.0661232 -0.0468511 0 0 0
0.0627553 0.0747919 -0.0260899 46 30 25
0.0447727 0.067198 -0.0441427 0 0 0
0.0560972 0.0500979 -0.0157194 78 52 41
0.0289689 0.0552684 -0.0367179 0 0 0
0.0545232 0.0563877 -0.0244379 73 45 36
0.0405411 0.0546215 -0.00622787 73 47 39
0.0567878 0.0539133 -0.0205398 74 48 39
0.0283782 0.0624092 -0.0353128 0 0 0
0.0452907 0.0741495 -0.02468 45 30 25
0.04987 0.0606565 -0.0166933 76 49 38
0.0544499 0.0571052 -0.0131125 74 48 39
0.0622335 0.0600598 -0.01945 68 43 35
0.0596661 0.0735196 -0.0439053 0 0 0
0.036918 0.0688003 -0.0342765 0 0 0
0.0338168 0.0687407 -0.0344006 0 0 0
0.0545065 0.0660615 -0.00974758 70 45 37
0.0498298 0.0639333 -0.0264688 65 42 34
0.0297118 0.0562307 -0.0296038 0 0 0
0.0645256 0.0588318 -0.0109614 69 44 36
0.0574504 0.0737654 -0.0405346 0 0 0
0.0689885 0.0639961 -0.0106942 66 42 34
0.0590033 0.0519214 -0.0238105 71 45 36
0.0626813 0.0738809 -0.0463918 0 0 0
0.0574954 0.0724976 -0.0424336 0 0 0
0.0369342 0.0703812 -0.0318215 0 0 0
0.0352845 0.0257629 -0.0230668 0 0 0
0.0652762 0.0370018 -0.051859 0 0 0
0.0613235 0.0333569 -0.0474875 0 0 0
0.0635333 0.0493484 -0.043216 97 70 59
0.067162 0.0526687 -0.0463727 64 42 35
0.0599333 0.0446385 -0.0292887 82 55 46
0.0614873 0.0530056 -0.0470604 86 60 50
0.0671124 0.0488639 -0.0526095 0 0 0
0.066948 0.0537316 -0.0451083 65 42 34
0.0512959 0.0550112 -0.0186406 74 48 39
0.0379244 0.0616315 -0.0496751 57 38 32
0.0533327 0.0459389 -0.0282226 70 46 38
0.0605198 0.0340777 -0.0473683 0 0 0
0.0458828 0.0381299 -0.0347669 63 41 34
0.0578346 0.0421569 -0.0453963 123 89 76
0.0585311 0.0300828 -0.0445699 0 0 0
0.0624452 0.0370646 -0.0531594 0 0 0
0.0628341 0.0399489 -0.0458915 101 72 62
0.0602457 0.0362135 -0.0516307 0 0 0
0.0346916 0.0244176 -0.0219449 0 0 0
0.047796 0.0308724 0.0070116 95 68 60
0.0608428 0.0440466 -0.0452109 117 84 72
0.0327145 0.0491759 -0.0340521 0 0 0
0.0629154 0.037681 -0.0563702 0 0 0
0.0651028 0.0448531 -0.0560912 0 0 0
0.0360125 0.0298432 -0.0329542 0 0 0
0.0535243 0.038563 -0.0286109 73 47 39
0.0524621 0.0369236 -0.0318913 63 40 33
0.036828 0.0284953 -0.0374165 0 0 0
0.0512445 0.0425377 -0.0266213 64 40 33
0.0563545 0.0314941 -0.0550525 0 0 0
0.0620118 0.0371651 -0.0350237 122 89 76
0.0614034 0.0498185 -0.0407129 66 44 36
0.07221 0.0466917 -0.0471836 0 0 0
0.0573249 0.0477808 -0.0191604 76 50 40
0.0516067 0.0531564 -0.031762 75 48 39
0.0315398 0.0555039 -0.0301445 0 0 0
0.0377959 0.042664 -0.0500509 0 0 0
0.0645281 0.0518296 -0.0477903 65 43 35
0.0585363 0.0483608 -0.0344981 85 58 49
0.071372 0.0586942 -0.0458111 0 0 0
0.0621584 0.0590063 -0.0487465 61 39 32
0.0613153 0.0336467 -0.0472175 0 0 0
0.0447387 0.021457 -0.0182195 61 38 32
0.0671653 0.0539734 -0.0536286 0 0 0
0.0677822 0.0377453 -0.0412063 104 74 64
0.0714476 0.0551164 -0.0414597 60 38 31
0.074919 0.0554617 -0.0466604 0 0 0
0.0450421 0.0806766 -0.0231864 0 0 0
0.0419318 0.0221969 -0.028341 0 0 0
0.0491711 0.0182673 -0.0191238 0 0 0
0.0649016 0.0436312 -0.0376631 125 92 79
0.0584853 0.0664275 -0.040472 51 33 27
0.0594077 0.0452627 -0.0408756 70 46 38
0.0538021 0.0546368 -0.0292805 75 48 39
0.0598403 0.0251445 -0.0373287 0 0 0
0.0708265 0.0500951 -0.0507543 0 0 0
0.0613633 0.0357533 -0.0383407 81 55 45
0.0615478 0.0333808 -0.0452593 0 0 0
0.0488024 0.0638203 -0.0399218 46 30 24
0.0604131 0.0403396 -0.0482703 94 67 57
0.0562032 0.0557124 -0.0244527 73 47 39
0.0724589 0.0592923 -0.0450178 0 0 0
0.073093 0.0558818 -0.045335 0 0 0
0.0732087 0.0537502 -0.0451201 0 0 0
0.0709618 0.060194 -0.00255267 70 44 36
0.043884 0.0226281 -0.0283705 0 0 0
0.0643382 0.042056 -0.040676 122 88 76
0.0634858 0.0457991 -0.0319314 74 47 39
0.0735253 0.048739 -0.0444 64 43 35
0.0635772 0.0478627 -0.0295553 87 59 49
0.0656888 0.0356813 -0.04688 0 0 0
0.0612762 0.0374784 -0.0503227 0 0 0
0.060309 0.0347239 -0.0488224 0 0 0
0.037591 0.0228559 -0.0253157 64 43 38
0.057319 0.0327965 -0.0379352 60 38 31
0.0673648 0.0485009 -0.0576877 0 0 0
0.0614869 0.0415834 -0.0486647 106 76 66
0.0628185 0.03624 -0.0494909 0 0 0
0.0481012 0.0507161 -0.0725638 0 0 0
0.0664063 0.041906 -0.0555168 0 0 0
0.0597539 0.043513 -0.0473725 99 69 58
0.0663959 0.0453183 -0.026621 78 52 43
0.071476 0.0544128 -0.0469428 0 0 0
0.0669889 0.0528131 -0.0441791 72 48 40
0.0468722 0.0500647 -0.027538 76 50 40
0.0413789 0.0549932 -0.0324707 57 36 29
0.077626 0.0751797 -0.0318425 46 29 24
0.0574935 0.0220828 -0.024302 0 0 0
0.0613699 0.0378628 -0.0547277 0 0 0
0.06551 0.0504003 -0.0433578 81 55 45
0.0731591 0.0663764 -0.0429302 0 0 0
0.0562739 0.0531697 -0.030968 71 46 37
0.0502608 0.0342955 -0.0409123 69 47 38
0.056461 0.0459819 -0.0412559 79 55 46
0.0568793 0.0405648 -0.0605936 0 0 0
0.0598323 0.0473449 -0.0468383 102 74 62
0.0618802 0.0371502 -0.0534411 0 0 0
0.0524721 0.0488948 -0.023958 76 50 40
0.0505949 0.0542908 -0.0268817 74 48 39
0.0557668 0.0365381 -0.0519797 0 0 0
0.0690074 0.0452653 -0.0536788 0 0 0
0.0650602 0.0447868 -0.0556121 0 0 0
0.0410341 0.0675681 -0.0279705 47 29 24
0.0328371 0.0581477 -0.0303038 68 48 39
0.036953 0.0238802 -0.028743 0 0 0
0.0689416 0.0471652 -0.0456263 69 46 37
0.0643253 0.0587634 -0.0356751 61 39 32
0.0362484 0.0218802 -0.026442 0 0 0
0.0584451 0.0334135 -0.046974 0 0 0
0.0559205 0.0306765 -0.046813 0 0 0
0.0441522 0.0380108 -0.0237374 72 47 39
0.0625112 0.0392534 -0.0547082 0 0 0
0.0359616 0.0242752 -0.0218949 0 0 0
0.0466522 0.0291435 -0.0194771 58 36 30
0.0547546 0.0260673 -0.034236 0 0 0
0.0481599 0.019054 -0.0203665 0 0 0
0.0368085 0.0216115 -0.0266006 0 0 0
0.0568721 0.0277223 -0.0374705 0 0 0
0.0579125 0.0282509 -0.0377177 0 0 0
0.0502645 0.0324897 -0.00439096 89 63 54
0.0590672 0.0295135 -0.0388275 0 0 0
0.0626241 0.0396112 -0.0581248 0 0 0
0.0518244 0.0232672 -0.00513357 68 46 38
0.0312416 0.0350436 -0.0325073 0 0 0
0.0294234 0.0328544 -0.027081 0 0 0
0.0573717 0.0435761 -0.0309202 74 48 40
0.0624974 0.0373597 -0.0539341 0 0 0
0.0544695 0.044994 -0.0454307 75 51 42
0.0656614 0.0497701 -0.0446921 80 55 46
0.0282068 0.0405293 -0.0152524 0 0 0
0.0309696 0.0535604 -0.0342058 0 0 0
0.0717986 0.0661982 -0.0438861 0 0 0
0.0711398 0.0635407 -0.0448853 0 0 0
0.0510482 0.0516425 -0.0131179 78 52 42
0.0546346 0.055923 -0.0283917 74 47 38
0.0701031 0.0753549 -0.0148942 65 41 34
0.0576923 0.0703149 -0.011926 66 43 35
0.0532807 0.0729891 -0.0113699 65 42 34
0.0589963 0.0289421 -0.0379508 0 0 0
0.0578377 0.0233124 -0.0404677 0 0 0
0.0369775 0.0238231 -0.0299609 0 0 0
0.0546247 0.0352828 -0.0538893 0 0 0
0.0581446 0.0493703 -0.055172 66 43 35
0.0636957 0.0328613 -0.0445013 0 0 0
0.0354126 0.0546858 -0.0415773 67 45 38
0.0293771 0.045501 -0.034166 0 0 0
0.0527165 0.056922 -0.0149087 75 49 39
0.0318468 0.0514834 -0.0333922 0 0 0
0.0572855 0.0517512 -0.0297509 69 44 36
0.0527348 0.0546064 -0.0143574 76 50 40
0.0548193 0.0541261 -0.0101691 76 50 40
0.0466007 0.023919 -0.0300272 0 0 0
0.0571906 0.028589 -0.0135912 65 42 35
0.0636026 0.0419269 -0.0600911 0 0 0
0.0565136 0.0365259 -0.0526345 0 0 0
0.0496346 0.0248153 -0.0245213 67 45 38
0.0624908 0.0384614 -0.0543056 0 0 0
0.0599046 0.0540158 -0.0182208 75 48 39
0.035441 0.0288503 -0.0270496 0 0 0
0.034506 0.0310533 -0.0268591 0 0 0
0.0654809 0.0487391 -0.0564607 0 0 0
0.0505604 0.0551436 -0.0404261 70 44 36
0.0625282 0.0375457 -0.048185 67 45 37
0.0305375 0.049444 -0.0346343 0 0 0
0.0630742 0.0505882 -0.0578734 0 0 0
0.0543369 0.0335116 -0.0260813 62 39 33
0.0625587 0.0575383 -0.0515493 54 35 29
0.058955 0.0454892 -0.0420001 66 42 35
0.030865 0.0585108 -0.0349086 0 0 0
0.049232 0.0168586 -0.0284436 0 0 0
0.0582388 0.0293515 -0.0385259 0 0 0
0.0563688 0.0484893 -0.0235286 74 49 40
0.0622924 0.0458869 -0.0445398 103 73 62
0.0286785 0.0478094 -0.0439402 0 0 0
0.0361304 0.0568707 -0.0454797 74 51 42
0.0567026 0.0494351 -0.0174863 79 53 42
0.0700582 0.0534007 -0.0442076 56 36 29
0.0528905 0.0567536 -0.029833 76 48 39
0.0532173 0.0550684 -0.0210047 73 47 38
0.0424872 0.0500842 -0.0356331 62 40 33
0.0364669 0.0403273 -0.0412247 0 0 0
0.0493927 0.0662728 -0.0463653 41 27 23
0.0557814 0.0449385 -0.0468992 125 92 79
0.0463085 0.064213 -0.0512246 0 0 0
0.0439155 0.0659298 -0.0480909 0 0 0
0.0542303 0.0527533 -0.0313507 76 48 40
0.0547194 0.0237604 -0.0350348 0 0 0
0.0464098 0.0315663 -0.0181412 62 40 34
0.0478017 0.0218563 -0.0292116 0 0 0
0.056032 0.0252367 -0.036665 0 0 0
0.0373656 0.0303131 -0.0101257 51 32 26
0.0632304 0.0413443 -0.0457016 111 79 68
0.0532106 0.0359835 -0.0170923 77 51 42
0.0579323 0.0268435 -0.0373114 0 0 0
0.0588969 0.0278726 -0.0373106 0 0 0
0.0425389 0.0260168 -0.0262445 65 42 35
0.0711984 0.0371676 -0.031907 124 90 77
0.0764001 0.0442408 -0.0489078 0 0 0
0.056514 0.0280917 -0.0383841 0 0 0
0.0584221 0.0289361 -0.0385991 0 0 0
0.0669263 0.0312796 -0.0498242 0 0 0
0.0706571 0.0295097 -0.0224891 111 80 68
0.0626282 0.0418793 -0.0535621 71 46 38
0.0387084 0.021521 -0.026396 0 0 0
0.05816 0.0299302 -0.0392815 0 0 0
0.0391231 0.0315332 -0.00527368 68 43 37
0.0552734 0.0285043 -0.0121598 63 40 33
0.0544764 0.0281091 -0.0158475 61 38 32
0.0609296 0.0295835 -0.0437425 0 0 0
0.0708709 0.0372932 -0.0267205 112 82 70
0.0586784 0.0308374 -0.0167132 64 41 34
0.073762 0.0378196 -0.0508937 0 0 0
0.0680681 0.0374632 -0.0535344 0 0 0
0.059246 0.0353171 -0.0430429 61 40 33
0.0657583 0.0334163 -0.0467951 0 0 0
0.0583461 0.0509148 -0.0629179 0 0 0
0.0577448 0.0315789 -0.0452813 0 0 0
0.0599796 0.0338878 -0.0426505 58 37 29
0.0660685 0.0406806 -0.060862 0 0 0
0.0635517 0.036554 -0.0509176 0 0 0
0.0625976 0.0370469 -0.00931098 81 54 45
0.064872 0.0320598 -0.00902718 65 41 34
0.0639326 0.0434861 -0.0508407 84 58 48
0.0417944 0.033147 -0.00254159 74 49 41
0.0521105 0.035085 -0.00346338 77 50 41
0.0619124 0.0346448 -0.0121294 75 50 42
0.0586215 0.0329324 -0.0477144 0 0 0
0.0577654 0.0411475 -0.0446223 117 84 72
0.0716007 0.0453252 -0.0379973 90 64 54
0.059391 0.0599648 -0.0542498 51 33 27
0.0619787 0.0374552 -0.0115084 80 53 44
0.0627253 0.0438806 -0.0275637 73 47 38
0.0525963 0.0302548 -0.00686541 72 47 39
0.0511791 0.0500042 -0.0256673 77 51 41
0.0470779 0.0247388 -0.00346545 70 47 40
0.0386403 0.0416921 0.00291637 73 49 40
0.0692407 0.0454627 -0.0408283 88 62 52
0.0535252 0.0404783 -0.0305811 73 48 40
0.0667096 0.0493289 -0.043134 85 60 50
0.0381596 0.0385566 -0.0102298 70 45 38
0.0649837 0.0446219 -0.0296041 70 44 36
0.0702613 0.0378885 -0.0311271 128 93 80
0.0565038 0.0323742 -0.0432671 0 0 0
0.0640623 0.043081 -0.0593403 0 0 0
0.0739046 0.0473972 -0.0549191 0 0 0
0.0623659 0.0355127 -0.0575189 0 0 0
0.0534617 0.0510097 -0.00644788 77 50 40
0.034021 0.0452098 -0.0061857 53 33 27
0.0375356 0.0414833 -0.0120035 67 42 35
0.071664 0.0561317 -0.0226964 80 55 45
0.0728524 0.049712 -0.0419298 56 34 27
0.0694294 0.0523836 -0.0147529 71 45 36
0.0688355 0.0475016 -0.00346072 81 52 43
0.0746714 0.0497528 -0.0473503 0 0 0
0.0672106 0.0400041 -0.00680103 76 48 40
0.0726878 0.0623975 -0.0272512 57 37 30
0.0643807 0.0458171 -0.0269683 85 57 48
0.0537297 0.0535438 -0.00531157 77 50 40
0.0440131 0.0555649 -0.0519116 49 32 26
0.0541613 0.0584044 -0.00617034 75 48 39
0.0738884 0.0453582 -0.0515873 0 0 0
0.0713745 0.0487402 -0.032679 103 77 65
0.0654515 0.0584981 -0.0377776 59 37 30
0.0706795 0.0596855 -0.00136084 70 45 37
0.0333465 0.0413741 -0.0470711 0 0 0
0.044163 0.0496564 -0.032567 65 42 35
0.0735504 0.0488606 -0.0320105 108 79 67
0.0635873 0.0559709 -0.0165136 72 46 38
0.0712941 0.0560132 -0.0418207 61 40 32
0.0357837 0.0445597 -0.00878565 66 42 35
0.0384621 0.0413656 -0.00828292 77 51 43
0.0401438 0.0441224 -0.0134108 72 49 40
0.0452622 0.0485142 -0.0396889 65 42 34
0.07391 0.0502688 -0.031741 107 79 67
0.0303533 0.0494005 -0.0339884 0 0 0
0.0786113 0.0445929 -0.044629 0 0 0
0.0736212 0.0652293 -0.0423653 0 0 0
0.0748536 0.0562053 -0.0445866 0 0 0
0.0285186 0.0425374 -0.0311409 0 0 0
0.060403 0.0607938 -0.0318394 63 41 33
0.0738946 0.0569158 -0.0452746 0 0 0
0.0362484 0.0524664 -0.0104122 74 48 40
0.0732827 0.065268 -0.0446997 0 0 0
0.0376293 0.0439955 -0.010237 79 53 44
0.0338704 0.0472818 -0.0161805 45 28 23
0.0397913 0.0590627 -0.0213274 73 49 41
0.0311714 0.040429 -0.017059 0 0 0
0.038229 0.0483832 -0.0139153 79 55 45
0.0271524 0.0467511 -0.0368752 0 0 0
0.051745 0.0593315 -0.00755192 74 48 39
0.0454599 0.053731 -0.0215268 76 50 40
0.0489575 0.0542685 -0.00703776 77 51 41
0.0767809 0.0616456 -0.0373158 56 37 30
0.0491826 0.0606377 -0.0460041 48 31 26
0.0707326 0.0660542 -0.026521 70 48 39
0.0717329 0.0498284 -0.0313989 88 63 52
0.0304288 0.0501973 -0.0314536 0 0 0
0.0749755 0.0748627 -0.0395001 0 0 0
0.0752998 0.0745594 -0.0386073 0 0 0
0.0718853 0.0669711 -0.0350056 67 43 36
0.0284047 0.0586807 -0.034294 0 0 0
0.0667187 0.0710126 -0.0135137 83 56 48
0.0745548 0.0662823 -0.0381189 52 34 28
0.0807462 0.0823262 -0.0329997 0 0 0
0.0405529 0.0711363 -0.0313539 0 0 0
0.0485097 0.0496233 -0.0177653 76 50 40
0.030479 0.0564932 -0.0335362 0 0 0
0.0692569 0.0621041 -0.030699 57 36 29
0.0356122 0.0768016 -0.00424157 78 50 42
0.0691612 0.0776873 -0.019843 62 39 31
0.0740504 0.0781505 -0.0186127 70 47 39
0.0483284 0.0833257 -0.0199937 0 0 0
0.0406423 0.0758036 -0.012835 68 45 37
0.0325408 0.0785475 -0.0312443 0 0 0
0.0852947 0.0863518 -0.0328348 0 0 0
0.0579447 0.0280042 -0.0391316 0 0 0
0.0630399 0.0328895 -0.0527525 0 0 0
0.0572176 0.0269962 -0.0382247 0 0 0
0.074951 0.0328608 -0.049639 0 0 0
0.070096 0.0342986 -0.0580207 0 0 0
0.0433483 0.0283688 -0.0173793 65 42 36
0.0625988 0.0338573 -0.0584917 0 0 0
0.0610744 0.0499241 -0.0378812 73 50 41
0.0313463 0.0307839 -0.0292003 0 0 0
0.0626289 0.0435673 -0.0206196 86 57 48
0.067758 0.0343594 -0.0463815 0 0 0
0.0552174 0.0395394 -0.0392819 57 35 28
0.0295434 0.0339994 -0.0349116 0 0 0
0.0725675 0.0374605 -0.0549437 0 0 0
0.0758511 0.0463798 -0.0487556 0 0 0
0.0585063 0.0345799 -0.00737098 80 53 44
0.071119 0.0490148 -0.0323467 92 67 56
0.0318067 0.0328886 -0.0306789 0 0 0
0.0613163 0.0328289 -0.0153105 68 45 37
0.0636106 0.0380602 -0.0209432 68 43 35
0.0548959 0.039881 -0.0571834 0 0 0
0.0662478 0.0468134 -0.0479196 70 46 38
0.0282881 0.0345327 -0.0209804 0 0 0
0.0771235 0.0544901 -0.0470938 0 0 0
0.0612668 0.0437321 -0.022956 85 57 48
0.0703268 0.0510733 -0.0501287 0 0 0
0.0701727 0.0656966 -0.0424794 50 32 26
0.0306813 0.0487877 -0.0330709 0 0 0
0.0501516 0.0556437 -0.0331713 75 48 39
0.0704522 0.0554843 -0.0484221 0 0 0
0.0299552 0.0481224 -0.0336664 0 0 0
0.0360521 0.0535501 -0.013903 73 48 40
0.0382359 0.0421884 -0.0105019 77 51 43
0.0360163 0.0529638 -0.0170569 72 48 40
0.0389726 0.045578 -0.0170763 76 52 42
0.03463 0.0450012 -0.0423566 0 0 0
0.0738262 0.0643828 -0.0376919 54 34 27
0.0321546 0.0539534 -0.0350961 0 0 0
0.0443814 0.0605579 -0.0376548 54 34 28
0.0749632 0.0776019 -0.0447608 0 0 0
0.0666632 0.0767865 -0.0464918 0 0 0
0.0286113 0.0559114 -0.0385994 0 0 0
0.0369739 0.0556623 -0.0172208 67 43 35
0.074754 0.0525628 -0.0547261 0 0 0
0.0556198 0.0440752 -0.0354069 73 48 39
0.0689671 0.0344416 -0.0474562 0 0 0
0.0342395 0.0406971 -0.0497909 0 0 0
0.0545134 0.05008 -0.00485969 77 51 41
0.0299005 0.0522096 -0.0341527 0 0 0
0.0736783 0.0756099 -0.0458011 0 0 0
0.0546492 0.0570098 -0.0109834 74 48 39
0.053549 0.0561759 -0.0113132 74 48 39
0.0486086 0.0199503 -0.0214777 0 0 0
0.0608985 0.0328803 -0.0522192 0 0 0
0.0587104 0.0315528 -0.0471134 0 0 0
0.0578766 0.0294432 -0.0456106 0 0 0
0.0629016 0.0371526 -0.0526519 0 0 0
0.0692966 0.0645561 -0.0429931 52 33 27
0.0593985 0.0428394 -0.0643289 0 0 0
0.0602042 0.0385536 -0.0573055 0 0 0
0.0586191 0.0309754 -0.0423715 0 0 0
0.0566082 0.0538985 -0.0307357 70 44 36
0.0522623 0.0311332 -0.0471781 0 0 0
0.058064 0.0357023 -0.0495103 0 0 0
0.0296692 0.0453403 -0.0492477 0 0 0
0.0355132 0.0328316 -0.0214965 65 44 36
0.0667371 0.0455623 -0.055076 0 0 0
0.0589719 0.0319244 -0.0451149 0 0 0
0.0583989 0.0400024 -0.0487978 79 53 44
0.0376771 0.0531189 -0.0126884 83 58 48
0.0334249 0.0257887 -0.0328229 0 0 0
0.0622385 0.0339826 -0.055181 0 0 0
0.0499604 0.0351668 -0.00892647 79 53 44
0.0428586 0.0224681 -0.0304582 0 0 0
0.0528651 0.0244941 -0.00763007 66 44 37
0.0630057 0.0353979 -0.0552814 0 0 0
0.0631342 0.0373037 -0.0545149 0 0 0
0.0620075 0.0347443 -0.0540662 0 0 0
0.0577548 0.0369266 -0.0512243 0 0 0
0.0685104 0.0492817 -0.0517733 0 0 0
0.0702662 0.0579397 -0.0478283 0 0 0
0.0658399 0.0364162 -0.0658321 0 0 0
0.0649009 0.0555735 -0.0564572 0 0 0
0.0728102 0.0686713 -0.0422099 0 0 0
0.0648419 0.044292 -0.0556658 0 0 0
0.0561431 0.0445363 -0.0379441 73 47 40
0.069403 0.0599089 -0.0479589 0 0 0
0.0745226 0.0587456 -0.0428444 0 0 0
0.0313854 0.0513165 -0.0342434 0 0 0
0.0329152 0.0446219 -0.031224 0 0 0
0.0757886 0.0778932 -0.0461435 0 0 0
0.061709 0.0328492 -0.0567563 0 0 0
0.0455116 0.0333903 -0.043801 63 42 35
0.0685641 0.0515004 -0.0579243 0 0 0
0.0784268 0.0737067 -0.0364977 0 0 0
0.0708362 0.0449029 -0.0447781 72 49 40
0.0593166 0.0334475 -0.0359941 77 52 43
0.0288952 0.0440379 -0.0366208 0 0 0
0.0666658 0.0456378 -0.0586749 0 0 0
0.0628199 0.046363 -0.0586413 0 0 0
0.0421432 0.0607382 -0.0361223 64 42 35
0.0676125 0.0403601 -0.0493772 68 44 36
0.0654499 0.0358588 -0.0557123 0 0 0
0.0648276 0.0378946 -0.0531899 0 0 0
0.0494873 0.033195 -0.0424352 59 38 31
0.063631 0.0423571 -0.0521396 73 47 39
0.0662481 0.0374216 -0.0636598 0 0 0
0.0589642 0.0358944 -0.0530015 0 0 0
0.0289972 0.0379898 -0.0283009 0 0 0
0.0642106 0.0503991 -0.0559047 0 0 0
0.0785365 0.0539477 -0.0113916 74 48 39
0.0578856 0.0551079 -0.0264632 70 45 37
0.0731847 0.0534892 -0.0382173 71 48 39
0.0305016 0.0532882 -0.0357107 0 0 0
0.06399 0.0322371 -0.0538056 0 0 0
0.0703118 0.0359517 -0.0588489 0 0 0
0.0405449 0.0335283 0.00543254 73 49 40
0.0478362 0.0578672 -0.0286872 73 46 36
0.0690441 0.0482229 -0.0624179 0 0 0
0.0550306 0.0214136 -0.0235585 0 0 0
0.0650314 0.0381885 -0.0619599 0 0 0
0.0630172 0.0353928 -0.057223 0 0 0
0.0583593 0.0311343 -0.0402204 0 0 0
0.0565298 0.03257 -0.0433864 0 0 0
0.0594487 0.0319031 -0.018292 61 39 32
0.0621398 0.0308257 -0.0565164 0 0 0
0.0673922 0.0517801 -0.0268764 82 56 46
0.0670962 0.0362717 -0.0500949 0 0 0
0.0427609 0.0625716 -0.0348032 59 39 32
0.0624463 0.034633 -0.00836807 75 49 40
0.0692389 0.0514222 -0.0536708 0 0 0
0.0590783 0.0333865 -0.0127232 74 49 41
0.0671368 0.0489337 -0.0522438 0 0 0
0.0653561 0.0419255 -0.0587356 0 0 0
0.0695801 0.036739 -0.0561109 0 0 0
0.0497532 0.0309994 0.00338748 78 52 43
0.0624125 0.038081 -0.0497578 65 43 35
0.0687895 0.0427972 -0.0547147 0 0 0
0.0555464 0.0344846 -0.0598558 0 0 0
0.0669754 0.0515696 -0.0536398 0 0 0
0.0590529 0.0439262 -0.0221182 64 39 32
0.0665648 0.0362264 -0.0557275 0 0 0
0.0506434 0.0212436 -0.0338575 0 0 0
0.0623882 0.0389714 -0.0611927 0 0 0
0.0630662 0.0502151 -0.0577474 0 0 0
0.0537446 0.0211659 -0.0277172 0 0 0
0.0348526 0.0425367 -0.00693285 55 35 29
0.0575398 0.0349821 -0.051286 0 0 0
0.0441927 0.0396114 0.0069288 70 45 37
0.0714324 0.0635542 -0.0305931 57 36 30
0.033741 0.0488567 -0.0181367 46 28 22
0.0613449 0.059793 -0.000209202 72 46 37
0.08446 0.0609945 -0.0317463 0 0 0
0.0481475 0.0718427 -0.0119897 72 48 39
0.0293074 0.0473915 -0.0307848 0 0 0
0.0470276 0.0532398 -0.0420504 74 48 39
0.0684632 0.0484964 -0.0600073 0 0 0
0.0532126 0.0385379 -0.0477393 67 43 35
0.0536009 0.0290326 -0.016289 62 39 33
0.0383416 0.0319928 -0.0090575 65 42 35
0.0512789 0.0433023 -0.0534882 84 58 48
0.042893 0.0506974 -0.0030094 75 48 39
0.0705339 0.0500531 -0.0353866 106 77 66
0.0835316 0.0577563 -0.0252159 81 55 46
0.0432304 0.0579577 -0.0153135 75 49 41
0.0513779 0.064902 -0.0074024 72 45 36
0.0358355 0.0602839 -0.0195779 70 44 36
0.0348568 0.0662294 -0.0239505 95 68 57
0.0438773 0.0741899 -0.049831 0 0 0
0.0524383 0.0327466 -0.0609667 0 0 0
0.0509967 0.047578 -0.0278377 75 49 39
0.0513493 0.0516326 -0.0334282 76 50 40
0.0577427 0.0452125 -0.0371058 73 48 40
0.0549344 0.0252193 -0.0341084 0 0 0
0.0485034 0.0185223 -0.0185731 0 0 0
0.0356098 0.0227839 -0.0269597 0 0 0
0.0550303 0.0275077 -0.0362136 0 0 0
0.0409128 0.0230293 -0.0277709 0 0 0
0.0585545 0.0340982 -0.012385 76 51 42
0.0577587 0.0278484 -0.0395716 0 0 0
0.0588714 0.0289884 -0.0393102 0 0 0
0.0670253 0.0321842 -0.022272 103 76 64
0.0579157 0.030234 -0.0392047 0 0 0
0.0520063 0.0358885 -0.0203654 73 48 40
0.0583215 0.0342625 -0.0132725 76 50 42
0.0657895 0.0335695 -0.0396178 67 44 37
0.0551361 0.0381651 -0.0378014 57 34 28
0.0334497 0.039864 -0.0288604 0 0 0
0.0508812 0.0593699 -0.0304096 69 44 36
0.0545853 0.0341819 -0.023919 66 42 35
0.0552124 0.0393968 -0.0167134 74 49 40
0.0564587 0.0422256 -0.0413363 62 39 30
0.0640661 0.0380554 -0.0549363 0 0 0
0.050227 0.0385585 0.00850302 75 49 39
0.052504 0.0395073 -0.0316385 70 45 38
0.067838 0.0444776 -0.0552723 0 0 0
0.0647836 0.0344179 -0.015941 64 40 32
0.0614714 0.0381356 -0.011394 84 57 47
0.0524359 0.0342105 -0.00318062 81 55 46
0.0421882 0.0396228 -0.00591038 69 46 37
0.0638948 0.036581 -0.0529338 0 0 0
0.0515475 0.0428356 -0.0409742 64 41 34
0.0375764 0.0373379 -0.0114001 66 42 35
0.0412439 0.0479586 0.0163835 74 48 39
0.0801997 0.0606051 -0.0196627 68 45 37
0.0282059 0.0377302 -0.0212879 0 0 0
0.0604763 0.0472781 -0.0263524 72 46 39
0.0665439 0.0485616 -0.0135545 79 52 43
0.0684715 0.053675 -0.0500925 0 0 0
0.0654359 0.0389059 -0.0558067 0 0 0
0.054716 0.0490354 0.00730302 76 50 40
0.0673198 0.0398497 -0.0569033 0 0 0
0.062376 0.0333417 -0.0448044 0 0 0
0.060433 0.0388459 -0.00523353 66 42 35
0.0696383 0.0362355 -0.0335125 118 85 73
0.0688726 0.0327975 -0.0229344 115 85 73
0.0637552 0.0346021 -0.0116191 72 47 39
0.070589 0.0359812 -0.0390191 97 68 58
0.0485856 0.0440899 -0.000463812 74 48 39
0.0607284 0.050376 -0.0423392 64 41 34
0.066031 0.0431244 -0.00507309 73 46 37
0.0672963 0.0501281 -0.00897585 76 48 39
0.0713443 0.0492991 -0.0349268 104 75 64
0.0795179 0.046332 -0.0201726 85 60 50
0.0679418 0.049085 -0.0297198 79 55 46
0.0461864 0.064074 -0.00813096 76 50 40
0.0656451 0.0549172 -0.0504107 53 33 26
0.0521167 0.0614378 0.00245075 89 64 54
0.0694327 0.0674504 -0.0102469 65 41 33
0.0361417 0.0689364 -0.0474153 0 0 0
0.0450491 0.0525256 0.00589215 75 49 40
0.071664 0.0523027 -0.0325905 91 66 55
0.0280394 0.0416846 -0.032272 0 0 0
0.0713464 0.0544124 -0.016916 72 47 38
0.0618706 0.0566033 0.000188839 75 49 40
0.0383414 0.0382425 -0.00910748 70 45 38
0.0377079 0.0437823 -0.0162726 72 46 38
0.0730178 0.0586876 -0.0274626 65 42 35
0.0295382 0.0474565 -0.0341893 0 0 0
0.0524955 0.0550175 -0.00548162 77 50 41
0.0718337 0.0464202 -0.0269011 81 56 46
0.0282126 0.0432152 -0.0312521 0 0 0
0.0718089 0.0582311 -0.04503 0 0 0
0.0464541 0.0507608 -0.00432309 75 49 40
0.0380854 0.0569118 -0.0172846 77 52 43
0.0634147 0.0645845 -0.00978127 73 46 38
0.037542 0.0543425 -0.0227076 69 45 37
0.0394547 0.0612565 -0.0219854 62 38 32
0.0785366 0.0750615 -0.0490975 0 0 0
0.0514497 0.0532618 -0.00334103 77 50 40
0.0413323 0.0560896 0.00454703 77 51 42
0.0758926 0.066737 -0.0394251 0 0 0
0.0318967 0.0609154 -0.0281089 66 46 38
0.0753111 0.0637584 -0.0359979 55 35 28
0.063018 0.0531414 -0.0138435 77 49 40
0.0749698 0.0676462 -0.0345829 57 35 28
0.0762108 0.0638063 -0.0399274 0 0 0
0.0444021 0.0542722 -0.0385436 65 41 33
0.0318158 0.0519232 -0.0330197 0 0 0
0.0697779 0.0681307 -0.00341271 68 42 34
0.0793013 0.0788948 -0.0334834 0 0 0
0.0766939 0.0718544 -0.0313972 57 37 30
0.0787772 0.0783654 -0.0378592 0 0 0
0.0523849 0.0715013 -0.0177809 63 41 33
0.0700432 0.0890702 -0.0364016 0 0 0
0.0492471 0.0691638 -0.0132296 66 42 34
0.0341281 0.0633294 -0.00874315 73 48 40
0.040063 0.0739825 0.00497551 73 47 39
0.0716774 0.073285 -0.0163455 95 71 64
0.066969 0.0719164 -0.014011 70 45 36
0.070645 0.0808775 -0.0215239 54 34 28
0.0485644 0.0716609 -0.0181802 66 44 35
0.0845238 0.0854782 -0.0328578 0 0 0
0.0568984 0.0290799 -0.0377147 0 0 0
0.0605619 0.0339986 -0.0495421 0 0 0
0.0548416 0.0288036 -0.0367632 0 0 0
0.029438 0.0313432 -0.0305547 0 0 0
0.0596017 0.0436998 -0.0481072 98 69 58
0.0319352 0.0322791 -0.0304842 0 0 0
0.0566619 0.0328088 -0.0479839 0 0 0
0.0608474 0.0320608 -0.0345836 67 43 35
0.0659918 0.0351449 -0.0493574 0 0 0
0.0839533 0.0404037 0.0218403 82 53 44
0.0290147 0.0530395 -0.034164 0 0 0
0.0714784 0.0580546 -0.0458667 0 0 0
0.0318897 0.0399446 -0.00857425 64 44 37
0.0367108 0.0473142 -0.0145077 77 51 42
0.0299828 0.0512099 -0.021158 0 0 0
0.0385468 0.0510487 -0.021528 81 55 46
0.042254 0.048755 -0.0339457 62 39 32
0.0751631 0.0573556 -0.043182 0 0 0
0.0333206 0.0455487 -0.033038 0 0 0
0.0323305 0.0556486 -0.0338413 0 0 0
0.0386079 0.0563174 -0.0238558 72 49 41
0.0754516 0.0790534 -0.0440313 0 0 0
0.0731931 0.0640918 -0.0237017 72 50 41
0.0432617 0.0597515 -0.016049 76 49 40
0.0619785 0.0316103 -0.0502413 0 0 0
0.0601124 0.0552365 -0.00150895 76 49 40
0.0317456 0.0549421 -0.0333019 0 0 0
0.0739672 0.0775463 -0.045884 0 0 0
0.0552598 0.0338735 -0.00921355 77 52 43
0.0590962 0.0323059 -0.0505841 0 0 0
0.0598629 0.0354361 -0.0490306 0 0 0
0.042097 0.02338 -0.0269813 0 0 0
0.0302296 0.0498015 -0.0487176 0 0 0
0.0601441 0.0353853 -0.0475595 0 0 0
0.062687 0.0399906 -0.0611265 0 0 0
0.0665514 0.0363299 -0.052516 0 0 0
0.0571683 0.026482 -0.00761868 64 41 34
0.0627334 0.0361552 -0.054171 0 0 0
0.0629443 0.035149 -0.0561654 0 0 0
0.0610666 0.0341424 -0.0537314 0 0 0
0.046284 0.0331926 -0.0268594 64 42 35
0.062137 0.0360692 -0.0540541 0 0 0
0.0696533 0.0570949 -0.0485291 0 0 0
0.0618893 0.0435499 -0.0600975 0 0 0
0.0740242 0.059863 -0.0429654 0 0 0
0.0666692 0.0645607 -0.0435792 54 34 27
0.0736002 0.0658377 -0.0428792 0 0 0
0.0737497 0.0648512 -0.0427181 0 0 0
0.0764186 0.0780771 -0.0472039 0 0 0
0.0287511 0.0433848 -0.0363882 0 0 0
0.0675214 0.0477727 -0.0611598 0 0 0
0.0579801 0.0396162 -0.0600711 0 0 0
0.0664493 0.0311751 -0.0478368 0 0 0
0.0698246 0.0422528 -0.056966 0 0 0
0.0530362 0.0424148 -0.0207267 67 43 35
0.0662201 0.0367079 -0.0504504 0 0 0
0.0671548 0.0518497 -0.051477 0 0 0
0.0593264 0.0303473 -0.0408241 0 0 0
0.0502612 0.0577171 -0.04087 58 37 30
0.0684746 0.0437997 -0.0407149 96 67 56
0.0623722 0.0494718 -0.041068 55 34 26
0.0314817 0.0625995 -0.0337599 70 50 42
0.0437384 0.0266011 0.00845609 74 49 41
0.0650442 0.0417173 -0.0591471 0 0 0
0.063819 0.0357184 -0.0593588 0 0 0
0.0416624 0.0416647 -0.0332024 68 43 36
0.028443 0.0405147 -0.0351821 0 0 0
0.0717461 0.0697457 -0.0506063 0 0 0
0.0588449 0.0304453 0.00716233 81 54 45
0.0547878 0.0329299 -0.0127175 74 48 40
0.0649938 0.0564959 -0.046814 61 39 31
0.0349233 0.0375701 -0.0319636 0 0 0
0.0633448 0.0357988 -0.0571168 0 0 0
0.0671044 0.0358556 -0.0585392 0 0 0
0.0550362 0.0306173 0.0187017 67 42 35
0.0667569 0.0412111 -0.0379558 124 89 77
0.0689869 0.0451386 -0.0519772 0 0 0
0.0578317 0.0524781 -0.0299076 70 45 37
0.0570146 0.041149 -0.060321 0 0 0
0.0632522 0.0462998 -0.0602863 0 0 0
0.0368983 0.0259357 -0.026255 0 0 0
0.0554476 0.0371253 -0.0532737 0 0 0
0.0578587 0.0298987 -0.0187303 60 38 31
0.0603341 0.0296629 -0.00929683 73 49 41
0.0546025 0.0315612 -0.0114283 67 43 35
0.0331267 0.0387142 0.00457899 48 30 25
0.0710053 0.0355326 -0.030271 123 89 76
0.0660296 0.0467002 -0.00786847 83 54 45
0.0368338 0.0356976 -0.0115346 51 32 26
0.0597979 0.0363421 -0.050426 0 0 0
0.0588921 0.0222392 -0.0351346 0 0 0
0.0618901 0.0315781 -0.058669 0 0 0
0.0660795 0.0364197 -0.0553834 0 0 0
0.0382429 0.0384654 -0.00668061 70 45 37
0.0712993 0.0635433 -0.0395714 58 36 30
0.0386422 0.0766791 -0.016297 53 33 28
0.0405032 0.0371858 0.00272407 73 48 39
0.0458173 0.0390755 0.00544251 72 46 38
0.0690573 0.0644388 -0.0338893 53 34 27
0.0436382 0.0581541 0.00165606 77 51 41
0.0372592 0.0772862 -0.0224178 0 0 0
0.0558753 0.0269366 -0.00360042 77 52 43
0.0682519 0.0651774 -0.00647962 67 42 34
0.0629882 0.0709903 -0.0189796 61 38 30
0.054641 0.0590626 -0.0266761 69 41 33
0.060919 0.0410523 -0.0514109 80 52 44
0.0534208 0.064862 -0.0426323 45 29 24
0.0800974 0.0572027 -0.0141518 82 57 47
0.0877752 0.070008 -0.0117756 66 44 36
0.0797785 0.0364532 -0.0401465 74 49 41
0.0478366 0.0488837 -0.0206314 75 49 40
0.0607808 0.0275458 -0.00449516 73 49 41
0.0732028 0.0638983 -0.012203 64 40 32
0.060846 0.0749755 -0.0207818 65 43 35
0.0461168 0.0597976 -0.0543638 44 28 23
0.0603711 0.0532475 -0.0502667 71 48 39
0.0611034 0.0435782 -0.0315937 69 44 36
0.0414517 0.0603111 -0.0478675 47 29 24
0.080865 0.0585358 -0.0227065 85 60 50
0.0854944 0.0840336 -0.0225087 58 41 33
0.0801274 0.0492357 -0.0458921 0 0 0
0.0572312 0.0266025 -0.03567 0 0 0
0.0540784 0.0252729 -0.0332191 0 0 0
0.056483 0.0277784 -0.0365659 0 0 0
0.0520825 0.052954 -0.0055927 77 50 40
0.0560904 0.0276252 -0.0393818 0 0 0
0.058628 0.0293144 -0.0387255 0 0 0
0.0351793 0.026322 -0.0247706 0 0 0
0.0580819 0.0303581 -0.0392417 0 0 0
0.0595394 0.0273802 -0.0417951 0 0 0
0.0745674 0.0421076 -0.0508337 0 0 0
0.0583454 0.0279541 -0.0375663 0 0 0
0.0677588 0.0419046 -0.0575088 0 0 0
0.0304784 0.0334453 -0.0257618 0 0 0
0.0631894 0.0319921 -0.0329037 72 47 38
0.0543194 0.025635 0.00050793 74 49 41
0.0473773 0.0314807 -0.00133576 76 51 42
0.0504439 0.0426821 -0.04136 65 42 34
0.0548212 0.0370011 -0.0278205 66 43 36
0.0687496 0.0407071 -0.059002 0 0 0
0.0689018 0.0345644 -0.0338332 100 71 60
0.0717089 0.058535 -0.0275921 63 40 33
0.07549 0.0604541 -0.0399923 55 35 28
0.0618584 0.039505 -0.051823 66 43 35
0.0611711 0.0561195 -0.00124948 75 49 40
0.0663785 0.0636994 0.0175821 72 46 37
0.0699914 0.0468126 -0.0386006 95 68 57
0.0391109 0.0386353 -0.0113406 71 45 37
0.0721788 0.0441065 -0.0339654 113 82 70
0.0284336 0.0429771 -0.031046 0 0 0
0.0720933 0.0604972 -0.0452272 0 0 0
0.0696038 0.0425044 -0.0356512 121 87 75
0.072773 0.0641656 -0.044736 0 0 0
0.0367753 0.0570204 -0.0218696 67 44 36
0.0750941 0.0716707 -0.0408278 0 0 0
0.0742355 0.053907 -0.0355948 76 53 44
0.075962 0.0791432 -0.0396631 0 0 0
0.0316818 0.0665805 -0.0320376 62 42 35
0.0754532 0.0749997 -0.0496063 0 0 0
0.0263227 0.0621399 0.00529748 71 49 41
0.0743134 0.0678542 -0.0216853 73 50 41
0.0732671 0.0847102 -0.0176398 53 34 28
0.0728273 0.0801733 -0.0219114 59 39 32
0.0839542 0.0845512 -0.0325236 0 0 0
0.0570661 0.0281482 -0.0389114 0 0 0
0.057933 0.028316 -0.0364616 0 0 0
0.0573439 0.0278439 -0.0368438 0 0 0
0.0433761 0.0227285 -0.0274955 0 0 0
0.0723022 0.0325765 -0.046136 0 0 0
0.0322852 0.0346234 -0.028168 0 0 0
0.0541177 0.0296046 -0.0418212 0 0 0
0.0321263 0.0329348 -0.0297823 0 0 0
0.0536809 0.0339745 -0.0277235 61 38 32
0.0298573 0.0527613 -0.033604 0 0 0
0.0378676 0.0559864 -0.0156001 80 54 45
0.0591761 0.0492612 -0.0143761 77 51 41
0.0310442 0.0543296 -0.035708 0 0 0
0.0758501 0.0774548 -0.0427456 0 0 0
0.0726678 0.071136 -0.048883 0 0 0
0.0377237 0.0581773 -0.0184227 66 42 35
0.0745677 0.0538032 -0.052999 0 0 0
0.0493833 0.0572362 -0.0130867 73 47 38
0.0304059 0.0509019 -0.0348324 0 0 0
0.0740974 0.0763605 -0.044139 0 0 0
0.063692 0.058412 -0.0146092 70 44 36
0.0586578 0.0531522 -0.00451946 78 52 43
0.0611197 0.0326832 -0.0513392 0 0 0
0.0369727 0.038743 -0.0515365 0 0 0
0.0563296 0.0353181 -0.0498043 0 0 0
0.0576253 0.0436727 -0.0222972 65 42 34
0.040342 0.0203384 -0.0313504 0 0 0
0.0555021 0.0384688 -0.0540776 0 0 0
0.0530034 0.0539422 -0.0130012 76 50 40
0.0337766 0.0265418 -0.0284375 0 0 0
0.0491342 0.0252867 -0.0062785 67 44 37
0.0620996 0.037051 -0.0527603 0 0 0
0.0621516 0.0371863 -0.0538428 0 0 0
0.0599395 0.0358851 -0.0510016 0 0 0
0.0599403 0.0372665 -0.0516248 0 0 0
0.0487512 0.0486608 -0.0412908 68 44 35
0.0690631 0.0471826 -0.0188323 87 60 50
0.062608 0.0408692 -0.0601342 0 0 0
0.0736101 0.063488 -0.043223 0 0 0
0.0656313 0.0681888 -0.0495146 0 0 0
0.0756877 0.0586813 -0.0432246 0 0 0
0.0309646 0.0508006 -0.0343424 0 0 0
0.0705676 0.061158 -0.0406032 60 38 31
0.0758706 0.0772761 -0.0436094 0 0 0
0.0580266 0.0351829 -0.0512185 0 0 0
0.0293153 0.0448408 -0.0359486 0 0 0
0.0648435 0.0386199 -0.0580167 0 0 0
0.0687811 0.0343001 -0.0507854 0 0 0
0.0683229 0.0403883 -0.0552278 0 0 0
0.0574587 0.029549 -0.0446402 0 0 0
0.0650334 0.0526182 -0.0445469 75 52 42
0.0321114 0.0556394 -0.0346592 0 0 0
0.0680146 0.0318649 -0.048115 0 0 0
0.0661125 0.0386557 -0.0615735 0 0 0
0.0581981 0.0306865 -0.0397808 0 0 0
0.0637995 0.0359077 -0.0590751 0 0 0
0.0637544 0.0317316 -0.00107849 76 50 42
0.0347348 0.0359504 -0.0280157 0 0 0
0.0695535 0.0325993 -0.0623792 0 0 0
0.0474501 0.0292563 0.00822842 90 64 56
0.0710906 0.0424045 -0.0344323 118 85 73
0.0692483 0.0474481 -0.0521284 0 0 0
0.0541442 0.0390044 -0.055957 0 0 0
0.0454037 0.0644549 -0.0175699 69 44 36
0.0634273 0.0381011 -0.0631166 0 0 0
0.0498362 0.0465609 0.0169136 74 49 40
0.0423594 0.0562371 -0.00280352 83 56 47
0.0605925 0.0319979 -0.0572043 0 0 0
0.066369 0.0353987 -0.0540886 0 0 0
0.06949 0.0628973 -0.0328314 57 36 30
0.0688071 0.0418368 -0.0344121 127 93 80
0.039564 0.0575413 -0.01603 71 48 40
0.0422935 0.0762682 -0.0107357 76 49 40
0.0577972 0.0208361 -0.0301822 0 0 0
0.0530825 0.0449819 -0.00414367 77 51 41
0.038809 0.0794624 -0.0128594 0 0 0
0.0391018 0.065668 -0.00858931 81 54 46
0.0611752 0.0245176 -0.00333692 66 42 35
0.0622486 0.0340054 -0.0141702 64 40 32
0.0662114 0.0354733 -0.0148609 66 41 34
0.0596517 0.0437576 -0.036622 78 52 44
0.0363217 0.0574088 -0.0278068 66 42 34
0.0605281 0.0313545 -0.0134965 70 46 38
0.0410025 0.0495134 -0.0763793 0 0 0
0.0526316 0.0218682 -0.0346021 0 0 0
0.0587299 0.027179 -0.0267466 68 45 37
0.0449999 0.016058 -0.0235882 0 0 0
0.0545812 0.0252634 -0.0334257 0 0 0
0.033756 0.0344882 -0.0175761 0 0 0
0.0560936 0.0260137 -0.0384876 0 0 0
0.0496487 0.0245573 -0.0290526 0 0 0
0.0634067 0.0424489 -0.0187461 85 56 47
0.0622527 0.0275591 -0.041588 0 0 0
0.0544266 0.0288476 -0.036429 0 0 0
0.0585305 0.0296773 -0.0381287 0 0 0
0.0332519 0.0294605 -0.0191533 0 0 0
0.0560469 0.0286025 -0.0395867 0 0 0
0.0575313 0.0300328 -0.038532 0 0 0
0.0557317 0.0294218 -0.0414416 0 0 0
0.0632753 0.0510076 -0.0451685 86 60 49
0.0552316 0.0307696 -0.0471737 0 0 0
0.0507988 0.0250512 0.00264063 73 49 41
0.0575798 0.0391613 0.000885471 75 49 40
0.0568592 0.046338 -0.034242 83 56 47
0.050995 0.0328384 -0.00564301 83 58 49
0.0704428 0.0568924 -0.0567154 0 0 0
0.0649754 0.0453358 -0.0552242 0 0 0
0.0659167 0.0469297 -0.0224987 95 67 56
0.0763513 0.0510387 -0.032133 89 63 52
0.0647145 0.0556219 -0.0199941 68 43 35
0.029091 0.0363806 -0.0185138 0 0 0
0.0307148 0.0530692 -0.0338205 0 0 0
0.0691398 0.0426961 -0.0299978 94 68 57
0.0297657 0.0450424 -0.0302311 0 0 0
0.0730516 0.0651779 -0.0427065 0 0 0
0.0655053 0.0500244 0.00280994 76 50 40
0.0565226 0.0521998 -0.00422167 81 55 45
0.0579417 0.0545492 -0.00115437 77 50 41
0.0684283 0.0738925 -0.0307437 50 32 26
0.0799748 0.0573146 -0.0379638 0 0 0
0.0369736 0.0587461 -0.0292334 72 48 41
0.0385746 0.0608132 -0.0287296 62 38 31
0.0742366 0.0679103 -0.0362167 54 34 28
0.0726521 0.0822662 -0.034234 0 0 0
0.0752816 0.0688819 -0.0476579 0 0 0
0.0317909 0.0747444 0.00555777 85 58 49
0.083454 0.0837181 -0.0321971 0 0 0
0.0577787 0.0288101 -0.0384731 0 0 0
0.058115 0.0277707 -0.0370466 0 0 0
0.048939 0.0186039 -0.0340711 0 0 0
0.0335748 0.0353725 -0.0269321 0 0 0
0.0641545 0.0314383 -0.0498778 0 0 0
0.0317906 0.0325655 -0.0298276 0 0 0
0.0477597 0.0354972 -0.0348903 59 37 31
0.0590172 0.0533746 -0.0440772 63 40 33
0.0294591 0.0474803 -0.0334814 0 0 0
0.0517043 0.0513889 -0.0128241 78 51 41
0.0734711 0.0625119 -0.0363376 65 42 34
0.0310794 0.0536161 -0.0359799 0 0 0
0.0755549 0.0767733 -0.0416952 0 0 0
0.0705495 0.0738446 -0.0482206 0 0 0
0.0639343 0.0617294 -0.0111564 69 44 36
0.0545672 0.0510291 -0.00931326 77 51 41
0.0309456 0.0518123 -0.034672 0 0 0
0.0737315 0.0763371 -0.0433448 0 0 0
0.0528443 0.0481422 -0.00130069 77 51 41
0.0595642 0.0514948 -0.00924639 77 52 42
0.0444147 0.0246186 -0.0288121 0 0 0
0.042886 0.0202312 -0.0222845 0 0 0
0.0607631 0.0317422 -0.0508853 0 0 0
0.0494322 0.0523826 -0.0416457 75 48 39
0.0438487 0.0220797 -0.0286035 0 0 0
0.0609173 0.0364 -0.0491782 0 0 0
0.05997 0.0366046 -0.0529807 0 0 0
