ply
format ascii 1.0
comment Created by Open3D
element vertex 1185
property double x
property double y
property double z
property uchar red
property uchar green
property uchar blue
end_header
0.0755758 0.180103 -0.0541316 244 157 142
0.0711541 0.183633 -0.0502336 167 94 85
0.0692792 0.19414 -0.047184 255 176 164
0.083033 0.190285 -0.0460131 201 117 105
0.0641411 0.184595 -0.0364899 158 85 79
0.0852635 0.180131 -0.0255021 247 151 137
0.0643967 0.128985 -0.0375228 70 44 43
0.0814756 0.184889 -0.044776 220 125 115
0.0703376 0.19505 -0.0466531 255 154 141
0.068191 0.194848 -0.0282602 241 140 124
0.0648447 0.194856 -0.0289818 255 160 144
0.0689177 0.100137 -0.0504731 255 255 255
0.0840828 0.178768 -0.0278512 213 144 129
0.0702366 0.164219 -0.0327152 107 59 52
0.080949 0.185344 -0.0449132 113 58 51
0.0697961 0.128761 -0.0344574 88 57 52
0.061227 0.192514 -0.0363509 255 231 205
0.0761695 0.191099 -0.0498937 255 176 158
0.0672484 0.20506 -0.0376514 255 150 133
0.0855684 0.205797 -0.0370961 255 218 200
0.08421 0.178147 -0.028671 182 110 101
0.0754467 0.190148 -0.0221987 255 158 141
0.0629827 0.177936 -0.0337106 126 63 60
0.0826204 0.174523 -0.0409322 161 100 91
0.0623352 0.12862 -0.0380175 71 45 42
0.0801263 0.183984 -0.0469076 81 40 35
0.0725441 0.188384 -0.0460944 160 92 85
0.0676487 0.184652 -0.029597 230 124 108
0.0528992 0.074266 -0.0439566 0 0 0
0.0623799 0.183243 -0.0375862 149 41 34
0.0704179 0.192023 -0.026392 248 149 131
0.0600313 0.190625 -0.0355936 255 233 210
0.0775037 0.143922 -0.0476039 60 25 21
0.091103 0.192997 -0.0360439 255 255 254
0.0875057 0.19118 -0.0256074 244 145 130
0.0639754 0.185709 -0.0392259 163 90 83
0.07147 0.166834 -0.0366149 138 89 82
0.0650401 0.200558 -0.0384218 255 162 144
0.0657307 0.201361 -0.0402778 255 167 149
0.0877106 0.199146 -0.0335553 255 180 161
0.0679683 0.186384 -0.0449024 55 21 17
0.0645639 0.197079 -0.0315936 255 146 128
0.0861346 0.205845 -0.0380358 255 223 204
0.0576285 0.148235 -0.0439292 0 0 0
0.0836215 0.186091 -0.0464503 0 0 0
0.0645964 0.185067 -0.0369193 172 93 85
0.0631514 0.18601 -0.0406386 224 134 121
0.0623771 0.185111 -0.0407077 120 74 68
0.0840235 0.179888 -0.025275 255 255 255
0.0871145 0.193914 -0.0355371 255 176 159
0.0610308 0.128585 -0.0402962 20 2 0
0.0884102 0.202656 -0.0367641 245 88 76
0.0844299 0.190219 -0.0445879 255 163 151
0.0823675 0.193154 -0.0216496 255 206 188
0.0696945 0.130523 -0.0338867 74 46 43
0.0661121 0.15657 -0.0347747 142 91 83
0.0780864 0.162844 -0.0438838 156 100 91
0.0778134 0.162231 -0.0479057 129 84 79
0.0678639 0.185527 -0.0451019 86 46 40
0.0645673 0.186469 -0.0400758 170 99 91
0.0623343 0.18764 -0.0472531 255 157 138
0.0638625 0.178714 -0.0487316 189 116 104
0.0807564 0.187999 -0.0227992 255 162 147
0.0698357 0.193076 -0.0502563 255 176 156
0.0595976 0.179884 -0.0435992 161 109 100
0.0624594 0.177699 -0.0346734 97 44 39
0.0608273 0.130998 -0.038873 75 50 47
0.0624281 0.184588 -0.0425857 15 32 28
0.0654242 0.13012 -0.0372662 65 38 35
0.0635144 0.184281 -0.0405538 132 67 63
0.0879157 0.198404 -0.0356871 255 199 188
0.0667099 0.130118 -0.0367434 67 46 43
0.0625418 0.19053 -0.0353346 233 139 126
0.0604373 0.185749 -0.0399896 238 167 148
0.0629515 0.182123 -0.0333913 214 115 103
0.0646505 0.185239 -0.0335282 228 146 128
0.0629579 0.118514 -0.0443021 46 39 37
0.0776933 0.161122 -0.0496107 140 101 89
0.0709401 0.128216 -0.0357355 85 56 52
0.057997 0.133541 -0.0412609 91 59 53
0.065533 0.165711 -0.0486112 155 93 84
0.0788241 0.161072 -0.0282572 139 87 78
0.0748441 0.195686 -0.0493101 255 174 155
0.0649356 0.185301 -0.0311916 240 157 138
0.0703372 0.187374 -0.0505323 255 185 156
0.0789385 0.177976 -0.0540518 209 126 117
0.079843 0.160258 -0.0411152 150 94 86
0.0716945 0.186596 -0.0280532 240 143 126
0.0627411 0.178314 -0.0325036 157 103 93
0.0638307 0.178891 -0.0328838 133 82 74
0.0643464 0.186087 -0.0438978 145 101 92
0.0659919 0.185474 -0.0317793 246 159 143
0.0852477 0.180499 -0.0270588 223 144 131
0.0833115 0.183694 -0.0454863 225 123 111
0.0714955 0.194865 -0.0497521 255 171 157
0.0642721 0.18413 -0.0369703 81 67 67
0.0660103 0.184618 -0.0333854 127 81 74
0.0863959 0.206088 -0.0336731 255 189 173
0.0788941 0.185023 -0.0474079 80 42 38
0.0577122 0.132108 -0.0390755 91 58 53
0.0635234 0.186271 -0.0343507 133 76 69
0.0675253 0.127686 -0.0362254 80 45 38
0.0661195 0.180463 -0.0287551 194 108 97
0.0719412 0.129423 -0.0362972 86 53 49
0.0800041 0.157441 -0.0434032 122 65 60
0.0798768 0.185969 -0.0461485 67 26 22
0.0644861 0.186813 -0.033985 253 154 133
0.0659509 0.187968 -0.0295095 233 138 122
0.0660063 0.188767 -0.0291289 252 160 145
0.0789254 0.159011 -0.0461969 129 85 79
0.0869456 0.188937 -0.035633 195 93 81
0.0833543 0.189532 -0.0407595 211 123 112
0.0680611 0.185912 -0.0286911 252 153 135
0.0873538 0.185272 -0.0340848 217 122 108
0.0739589 0.193475 -0.0227826 255 255 255
0.0655037 0.186158 -0.0491701 255 198 182
0.0855189 0.178986 -0.0303544 195 110 99
0.0717194 0.195233 -0.0238899 255 201 180
0.0845591 0.174055 -0.0398187 173 100 89
0.0684383 0.185634 -0.0452833 77 38 35
0.0647581 0.197664 -0.0339662 255 162 146
0.059595 0.190512 -0.0404031 130 26 16
0.0763788 0.164596 -0.0508029 135 90 84
0.0669583 0.180531 -0.0498039 200 118 104
0.0787461 0.157622 -0.0457618 143 87 77
0.0801668 0.185204 -0.0467236 41 16 10
0.0842667 0.180371 -0.0456898 255 192 181
0.078711 0.15921 -0.047068 130 86 79
0.0633948 0.181848 -0.0344572 189 113 103
0.0878986 0.181668 -0.0354672 240 188 166
0.0662009 0.188072 -0.0429014 130 78 70
0.0870648 0.191321 -0.0347561 199 112 98
0.0816576 0.186539 -0.0447081 233 136 126
0.067077 0.186553 -0.0307999 255 156 137
0.0623042 0.159345 -0.0380392 143 88 80
0.0870288 0.175193 -0.0331112 255 123 112
0.081123 0.190698 -0.0493712 252 153 139
0.0744089 0.135738 -0.0513883 69 47 44
0.0592974 0.17263 -0.0404636 199 95 88
0.082195 0.178861 -0.0481186 94 52 44
0.0682143 0.168806 -0.0304181 156 88 78
0.0586813 0.177835 -0.0345446 255 171 165
0.0839323 0.181611 -0.0271689 231 150 137
0.0757199 0.13488 -0.0378629 129 83 79
0.0829941 0.184143 -0.0235793 206 124 112
0.0684566 0.177965 -0.0302057 143 85 77
0.0733056 0.200756 -0.0254233 255 240 222
0.0657272 0.181273 -0.028518 227 118 105
0.0852105 0.178379 -0.0321084 113 62 56
0.068695 0.152637 -0.0357475 99 60 53
0.0641541 0.129311 -0.0375079 77 43 45
0.0798074 0.183805 -0.0469548 65 34 31
0.0641501 0.185497 -0.0408309 142 78 71
0.066622 0.186797 -0.0308387 245 151 137
0.083986 0.190667 -0.0410796 209 121 110
0.0858333 0.201831 -0.0376018 255 114 101
0.0579409 0.139194 -0.0457626 100 66 62
0.0772336 0.162672 -0.049838 137 89 81
0.0601597 0.131337 -0.0383692 69 43 41
0.067072 0.127189 -0.0357345 56 29 19
0.0787956 0.178759 -0.0273808 133 81 72
0.0729581 0.139328 -0.0313131 98 68 65
0.0687096 0.158891 -0.036986 104 65 60
0.0739648 0.127547 -0.036937 105 74 70
0.0799268 0.178906 -0.0265437 238 147 135
0.0754889 0.127922 -0.036498 90 61 58
0.0831569 0.193002 -0.049716 228 142 130
0.0744032 0.168568 -0.0287705 125 72 63
0.0815903 0.168882 -0.0496003 89 45 39
0.0604617 0.172415 -0.0465083 189 103 94
0.0831201 0.190613 -0.0461496 112 68 63
0.0756967 0.202359 -0.0247347 255 214 189
0.0770178 0.176506 -0.0546483 214 140 131
0.0829418 0.167404 -0.0402971 120 72 65
0.0602292 0.182169 -0.0421252 161 64 61
0.085027 0.177685 -0.0324116 92 69 61
0.0578247 0.137365 -0.0382792 78 53 51
0.0645515 0.186285 -0.0417126 147 94 86
0.0619909 0.180422 -0.043629 167 99 91
0.0791746 0.161009 -0.0510474 141 92 84
0.0621569 0.111955 -0.0376072 130 97 85
0.0628281 0.186112 -0.0400727 187 122 111
0.0633523 0.186161 -0.0415281 103 45 42
0.0643107 0.166634 -0.044964 155 96 86
0.0810289 0.184358 -0.0457749 4 0 0
0.0702834 0.196394 -0.048817 255 166 151
0.0657411 0.184624 -0.0335748 125 72 65
0.0646761 0.184682 -0.0342896 107 49 46
0.0651382 0.184639 -0.0364138 148 98 91
0.0821656 0.177548 -0.0284175 138 92 85
0.076751 0.193417 -0.0487345 255 175 161
0.0708181 0.1893 -0.0484173 102 64 60
0.0836639 0.174053 -0.0289213 109 73 66
0.0806868 0.185393 -0.0459589 22 0 0
0.0803256 0.189802 -0.0493496 222 127 115
0.0706384 0.183223 -0.0290891 248 162 145
0.0870657 0.19323 -0.0396217 255 160 143
0.0794076 0.183101 -0.0474865 16 13 11
0.0830141 0.184249 -0.0418789 194 103 93
0.0801112 0.175655 -0.0539266 142 76 70
0.0765228 0.202519 -0.0248279 255 221 201
0.062042 0.162756 -0.0484642 168 82 74
0.0767901 0.133143 -0.0529161 76 47 44
0.0690415 0.161716 -0.0326759 117 70 63
0.0778981 0.184869 -0.047893 45 22 18
0.0557498 0.142075 -0.0396493 62 35 32
0.0774311 0.136278 -0.0503219 91 52 49
0.0772586 0.170316 -0.0544705 93 44 38
0.0716973 0.18605 -0.0270065 224 133 116
0.0605856 0.119668 -0.0450865 60 42 40
0.0800889 0.156245 -0.0298967 164 106 94
0.0738947 0.170477 -0.0274997 144 87 75
0.0760729 0.201877 -0.0261539 255 237 214
0.0764332 0.145433 -0.0415176 58 48 45
0.074843 0.124917 -0.0379234 17 17 15
0.0737567 0.166825 -0.0345875 154 100 93
0.0689514 0.13505 -0.0332782 126 84 80
0.0584566 0.177721 -0.0371826 110 54 50
0.0650513 0.188008 -0.0330802 249 146 131
0.0631469 0.179709 -0.0324003 144 84 80
0.0651682 0.185344 -0.0349911 170 103 95
0.0643347 0.187398 -0.0467071 245 136 122
0.0630678 0.178259 -0.0457306 125 68 62
0.0800528 0.159351 -0.0476479 139 87 79
0.0803212 0.184536 -0.0465213 77 37 32
0.0649806 0.185265 -0.0345755 135 71 63
0.0779197 0.160868 -0.0451595 135 86 79
0.0797362 0.18896 -0.0508446 235 160 145
0.0567667 0.136139 -0.0427617 77 52 48
0.0643266 0.180918 -0.0302521 252 159 134
0.0729303 0.167779 -0.0513881 185 121 111
0.0746993 0.14017 -0.0308245 81 48 46
0.0693481 0.199067 -0.0464732 255 190 170
0.0869981 0.202616 -0.0372645 250 87 71
0.0793884 0.184358 -0.0472661 88 49 46
0.0807611 0.171545 -0.0522792 152 84 79
0.08089 0.184985 -0.045808 21 0 0
0.0858719 0.196159 -0.0385298 255 185 162
0.081099 0.179242 -0.0264853 218 136 122
0.0785113 0.19483 -0.0500036 255 188 175
0.0831162 0.180755 -0.0250879 215 138 125
0.0790756 0.191998 -0.0517916 255 188 164
0.0721857 0.173744 -0.0298517 132 74 66
0.0703596 0.189071 -0.0255742 248 194 177
0.0606963 0.177928 -0.0394187 218 111 101
0.0874128 0.184673 -0.0378077 111 0 0
0.0768925 0.135034 -0.0411063 82 58 54
0.0863408 0.183896 -0.0392827 199 90 79
0.0817837 0.172431 -0.0495746 119 60 55
0.0811668 0.167516 -0.0435626 95 50 46
0.0847546 0.190526 -0.0426078 239 169 152
0.0667023 0.156209 -0.0354512 142 88 80
0.0807393 0.180432 -0.0531106 198 109 100
0.0743531 0.135286 -0.0482913 72 51 49
0.0816261 0.164297 -0.0441066 121 62 54
0.087467 0.181667 -0.0302722 213 128 115
0.0635086 0.185838 -0.0371744 230 129 114
0.0864328 0.188649 -0.0381077 255 194 177
0.0608866 0.178535 -0.0406674 150 97 88
0.0772854 0.184632 -0.0480296 37 21 17
0.0762805 0.190514 -0.0244084 217 122 108
0.0764545 0.128226 -0.0380815 102 65 61
0.0775932 0.19918 -0.0254995 247 106 82
0.060882 0.19242 -0.0401235 255 255 255
0.0821915 0.186637 -0.0407988 209 128 117
0.0849702 0.179603 -0.0335671 103 57 49
0.0818674 0.187025 -0.0447155 184 100 90
0.0627472 0.193584 -0.0394898 217 117 103
0.0687575 0.196881 -0.0473407 255 202 182
0.0807995 0.187647 -0.0430943 66 31 26
0.0846776 0.177148 -0.0410574 167 102 91
0.0786927 0.159144 -0.0478483 135 88 78
0.0678564 0.186263 -0.0453556 37 2 3
0.0645759 0.191133 -0.0390294 236 134 123
0.0781279 0.161296 -0.0495743 162 99 91
0.0652787 0.186238 -0.0316373 252 160 147
0.0762613 0.179873 -0.0546767 223 150 139
0.0752088 0.184172 -0.0251611 179 92 81
0.0674188 0.180104 -0.0497353 180 107 96
0.0658201 0.184945 -0.0340067 84 78 73
0.0792542 0.184817 -0.0474195 46 10 0
0.0757136 0.193132 -0.0495919 255 187 169
0.0755578 0.188076 -0.0243622 212 116 104
0.0838208 0.190755 -0.0463597 255 144 131
0.0775879 0.162535 -0.0488113 135 90 82
0.0697108 0.194432 -0.0458533 67 54 52
0.0834392 0.172302 -0.0434634 159 88 81
0.0705176 0.106338 -0.0343854 228 172 161
0.0707119 0.143438 -0.0334483 144 102 97
0.0837688 0.174937 -0.0472743 138 88 80
0.0859431 0.181913 -0.0423884 0 0 0
0.0638143 0.188286 -0.0420346 238 140 130
0.0616126 0.185278 -0.0412101 97 16 11
0.0796773 0.194317 -0.0490528 255 183 164
0.0672784 0.184474 -0.0300823 253 177 156
0.0797322 0.17287 -0.0539824 116 62 54
0.072224 0.193663 -0.0259877 255 179 158
0.082786 0.177947 -0.0438525 163 101 94
0.0839129 0.180337 -0.0254321 222 143 129
0.0722036 0.182892 -0.0261485 224 179 168
0.0582208 0.135547 -0.0430562 102 65 62
0.0636931 0.16526 -0.0446657 152 97 87
0.0782396 0.167156 -0.0514254 69 29 25
0.0789559 0.185276 -0.0474199 39 0 0
0.0801776 0.188321 -0.0230218 246 151 138
0.0870476 0.192456 -0.0402649 255 204 184
0.0800613 0.178864 -0.053903 174 98 88
0.0856429 0.186211 -0.0376267 218 120 108
0.0850392 0.189069 -0.0384688 237 157 141
0.0770707 0.132715 -0.0467762 79 53 50
0.0843926 0.183923 -0.0240736 205 124 112
0.0652319 0.188488 -0.0303178 231 127 116
0.0869839 0.187483 -0.0391215 255 198 180
0.0761488 0.171891 -0.0528142 123 77 72
0.0832871 0.176242 -0.0420008 178 102 92
0.0603879 0.175784 -0.0403124 180 94 87
0.0636094 0.178986 -0.0315449 164 105 97
0.0784214 0.197245 -0.0228074 255 189 163
0.0832636 0.180361 -0.0265763 216 138 125
0.0903313 0.177554 -0.0211503 255 255 255
0.0589176 0.156201 -0.0462947 134 70 64
0.0594042 0.160087 -0.0442423 143 92 84
0.0630285 0.165292 -0.047435 142 66 59
0.0840542 0.174314 -0.0389554 179 106 96
0.081673 0.161553 -0.0416197 93 55 50
0.0822952 0.185413 -0.044901 229 142 129
0.0856882 0.182188 -0.0286562 244 144 130
0.0739159 0.186807 -0.0277346 218 133 118
0.0592465 0.171326 -0.0438157 183 92 85
0.0744234 0.180405 -0.0547832 211 118 109
0.083456 0.184641 -0.0453756 199 119 108
0.064883 0.191967 -0.0284452 220 116 106
0.0606552 0.194112 -0.0359061 255 255 238
0.0689394 0.11801 -0.0488817 47 39 36
0.0855716 0.174062 -0.0376781 156 89 82
0.0723493 0.112435 -0.0541649 71 49 45
0.0834697 0.175342 -0.0430554 188 95 88
0.0603862 0.176536 -0.0397539 197 111 102
0.0852363 0.184782 -0.0404552 224 108 96
0.0705194 0.172621 -0.0290191 171 101 91
0.0870245 0.178766 -0.030386 255 175 151
0.0607724 0.174928 -0.0402496 124 61 56
0.0770507 0.177785 -0.0552956 240 165 150
0.0604932 0.170238 -0.0363834 142 83 75
0.0703844 0.18097 -0.027659 199 255 255
0.0744086 0.167992 -0.0562704 114 57 51
0.0784451 0.194336 -0.0238497 251 146 133
0.0713847 0.15715 -0.0334662 145 94 86
0.0606808 0.179586 -0.035932 210 119 109
0.0642026 0.185099 -0.0343758 246 148 132
0.0591635 0.152973 -0.0397949 120 79 71
0.0641257 0.194963 -0.0380662 239 145 131
0.067878 0.168958 -0.0305921 174 107 96
0.0850394 0.18163 -0.0337657 220 120 111
0.0863168 0.182783 -0.0268505 236 144 129
0.0831397 0.180298 -0.0251775 239 155 140
0.060521 0.17763 -0.035136 219 112 101
0.0734164 0.175896 -0.0274893 204 129 117
0.0609249 0.175128 -0.033214 255 225 197
0.0686015 0.102194 -0.0499813 255 255 255
0.0629655 0.184149 -0.0368596 171 93 86
0.0626295 0.182791 -0.0443556 227 132 117
0.0747581 0.181784 -0.0294162 140 74 65
0.06448 0.187017 -0.038872 156 103 94
0.0668369 0.184966 -0.044294 81 43 32
0.0854586 0.178479 -0.0276472 197 92 82
0.0835188 0.181784 -0.0395331 201 84 73
0.0683513 0.186642 -0.0449534 57 28 25
0.086085 0.185357 -0.0463155 0 0 0
0.0864995 0.191798 -0.0341102 217 128 115
0.0708163 0.126859 -0.0319091 38 0 0
0.0630859 0.185492 -0.0407207 63 24 34
0.0638467 0.185554 -0.04063 168 99 91
0.0758513 0.194342 -0.0497155 255 197 178
0.0811321 0.158171 -0.0400702 154 96 87
0.0782855 0.159258 -0.0470371 142 95 87
0.077922 0.189895 -0.0238977 221 106 91
0.0645451 0.15912 -0.0377779 156 94 86
0.0735989 0.137525 -0.0308528 91 66 63
0.073572 0.157168 -0.0321187 164 102 93
0.0813389 0.170053 -0.0450362 88 39 33
0.0668804 0.187139 -0.0435123 89 50 43
0.0700889 0.186154 -0.0299979 243 153 134
0.0576651 0.134155 -0.0410297 78 49 45
0.0668269 0.184532 -0.0324266 109 59 51
0.0787008 0.185683 -0.0474874 39 8 6
0.0742786 0.193397 -0.0243083 255 168 148
0.0826669 0.176862 -0.0440623 169 102 94
0.065112 0.184619 -0.0449867 89 43 34
0.0811395 0.185154 -0.0450371 0 0 0
0.0644523 0.185508 -0.034481 133 54 51
0.0791129 0.159287 -0.0424561 131 83 76
0.078321 0.191584 -0.0496206 255 171 157
0.0861513 0.169786 -0.0385338 115 68 62
0.0860011 0.172508 -0.0298635 130 79 69
0.0790761 0.18506 -0.0474458 52 24 18
0.0831627 0.190395 -0.0459094 128 78 71
0.0665922 0.187041 -0.0288398 244 160 144
0.0750776 0.188168 -0.0243902 255 168 149
0.0643766 0.184956 -0.0344335 236 134 121
0.0643547 0.189726 -0.0374502 246 145 134
0.0584602 0.155952 -0.0404628 131 88 82
0.0609695 0.180404 -0.0396594 183 109 102
0.0752129 0.179809 -0.0289556 152 92 83
0.0593702 0.168387 -0.0377373 173 113 105
0.0807767 0.173801 -0.0527138 132 81 72
0.0709203 0.115695 -0.0478275 54 40 37
0.0821355 0.157487 -0.0366898 171 109 98
0.0746531 0.180429 -0.0283651 163 88 79
0.0821152 0.17152 -0.0434885 147 84 75
0.0659983 0.15637 -0.035646 150 94 86
0.0861453 0.169612 -0.0245775 247 208 185
0.0841734 0.165355 -0.0384708 157 102 93
0.0617847 0.176407 -0.043146 122 78 71
0.0731179 0.17996 -0.0541243 225 138 125
0.0726894 0.182117 -0.0269612 233 175 157
0.0718468 0.174872 -0.0278832 222 133 120
0.0818694 0.165259 -0.0418311 113 62 55
0.0783444 0.172249 -0.0536538 139 86 79
0.0865858 0.187403 -0.0363346 219 121 110
0.0622882 0.189029 -0.0455378 255 151 135
0.0728668 0.173657 -0.029577 138 75 68
0.0884008 0.18264 -0.0341527 255 169 152
0.0604985 0.173049 -0.0351437 157 93 84
0.071458 0.168144 -0.0297673 187 112 101
0.0793578 0.171559 -0.0507806 61 22 19
0.0657576 0.196132 -0.0458325 255 215 190
0.0628136 0.179144 -0.036895 183 99 89
0.0852319 0.172203 -0.0388691 100 51 47
0.0781506 0.175198 -0.0267321 202 132 121
0.0791925 0.155779 -0.0318079 173 104 90
0.0632228 0.161892 -0.0484033 168 94 83
0.077278 0.173354 -0.0550699 160 80 71
0.0749766 0.192549 -0.0241047 255 155 136
0.0656744 0.187066 -0.0328593 253 152 136
0.0557114 0.138767 -0.0402544 19 3 0
0.0770714 0.181046 -0.0278114 143 78 69
0.0891576 0.185251 -0.0366806 198 88 78
0.0785464 0.179462 -0.027366 127 69 61
0.0770179 0.195949 -0.0242845 255 157 142
0.0665601 0.172334 -0.0299435 164 96 84
0.0801531 0.200292 -0.0475619 255 232 212
0.0761896 0.165304 -0.0303753 104 59 50
0.0856644 0.171539 -0.0291386 175 97 88
0.0634315 0.168549 -0.0516641 153 81 72
0.0624598 0.175365 -0.0295083 165 98 89
0.073578 0.174077 -0.0546363 172 82 74
0.0603713 0.193822 -0.0360421 255 255 255
0.0583162 0.137677 -0.0434589 95 60 57
0.0826768 0.180053 -0.0496222 146 89 81
0.0752011 0.173728 -0.0539274 110 65 58
0.0696674 0.187722 -0.0446441 62 31 28
0.0752223 0.131906 -0.0487325 92 64 60
0.0810029 0.158515 -0.047171 119 69 61
0.0750533 0.172674 -0.0284619 138 80 72
0.0851564 0.189858 -0.0430252 255 167 150
0.0791392 0.157524 -0.0451153 117 73 67
0.0693302 0.196145 -0.0468562 255 146 132
0.0814894 0.187537 -0.0425368 224 130 118
0.06988 0.196416 -0.0479163 255 159 142
0.0813136 0.185054 -0.0441238 109 64 58
0.0852919 0.180154 -0.0286563 206 106 95
0.0638635 0.184516 -0.03725 181 93 85
0.081196 0.181303 -0.024859 232 142 130
0.06556 0.201724 -0.0405624 255 167 151
0.0627541 0.188324 -0.0429225 216 124 117
0.0827275 0.192709 -0.0220167 255 202 187
0.0625285 0.18909 -0.0453968 255 169 151
0.0701649 0.193159 -0.050048 255 177 156
0.0600553 0.119394 -0.0398417 50 30 29
0.0647898 0.185722 -0.0313699 236 158 145
0.0681472 0.193207 -0.0447801 114 70 65
0.0661273 0.166399 -0.0490663 163 98 89
0.0711996 0.18722 -0.0493011 173 73 59
0.079883 0.159512 -0.0416668 130 81 73
0.0673038 0.186311 -0.0300448 235 156 136
0.064457 0.186556 -0.0488562 255 190 176
0.0857428 0.180013 -0.031597 190 105 96
0.0717089 0.194375 -0.0247813 255 162 143
0.0602993 0.161154 -0.0402154 138 90 83
0.0823893 0.177393 -0.0467487 97 47 40
0.0802972 0.182771 -0.0468452 56 29 24
0.0742745 0.132844 -0.0374136 94 61 58
0.0774328 0.162164 -0.0515023 136 82 74
0.0633283 0.166016 -0.0424921 172 105 95
0.0647352 0.185458 -0.0352293 135 68 61
0.0601858 0.172779 -0.0422274 148 84 80
0.0821785 0.184634 -0.0421982 200 82 70
0.0714306 0.186716 -0.0270114 250 155 138
0.0631884 0.190287 -0.0334166 240 141 127
0.0755356 0.187141 -0.0261226 217 143 130
0.0805473 0.172969 -0.0528067 166 103 94
0.0794968 0.184582 -0.0473184 38 0 0
0.0862164 0.193157 -0.0399465 255 198 180
0.0798635 0.195781 -0.0499147 255 172 167
0.085868 0.195521 -0.0407409 255 202 190
0.067337 0.171791 -0.0289292 178 102 92
0.0863478 0.171629 -0.032888 126 71 63
0.0783784 0.189121 -0.0209996 255 185 161
0.0790838 0.188556 -0.0464474 230 148 136
0.069084 0.196737 -0.046994 255 189 170
0.0811807 0.186668 -0.0422334 72 26 19
0.0646461 0.186168 -0.0425069 88 48 39
0.0789365 0.185653 -0.0474818 45 0 0
0.0819257 0.195443 -0.0500829 255 169 160
0.0757375 0.189963 -0.0258558 255 182 161
0.0598337 0.175256 -0.0392955 215 108 102
0.0594346 0.160127 -0.0414278 154 97 91
0.0615919 0.178178 -0.0407219 130 66 60
0.0606888 0.178849 -0.0365866 198 104 93
0.0859628 0.170665 -0.029498 169 97 90
0.0664546 0.170663 -0.0286481 175 115 105
0.0600711 0.161067 -0.0408412 152 96 88
0.0838456 0.191541 -0.0456767 0 0 0
0.0840902 0.181963 -0.037465 212 108 95
0.0851727 0.188533 -0.0435672 42 0 0
0.0814393 0.158911 -0.0388066 161 104 95
0.0868568 0.189457 -0.0393711 239 155 137
0.077317 0.187844 -0.0248811 236 129 119
0.0747993 0.184326 -0.0251251 242 183 166
0.0650414 0.184692 -0.0447252 104 50 37
0.0848295 0.166976 -0.035177 93 53 44
0.0631899 0.186834 -0.035032 252 159 139
0.08292 0.189305 -0.0452063 114 66 60
0.0847163 0.192397 -0.0403089 242 135 123
0.0592078 0.154092 -0.0397664 141 83 75
0.0703112 0.171293 -0.0287812 164 99 91
0.0659414 0.163853 -0.0462352 165 112 105
0.0673824 0.196377 -0.0431671 255 198 178
0.0615382 0.177927 -0.0370678 161 78 72
0.0765624 0.192281 -0.0233228 255 121 105
0.0738667 0.182488 -0.0298596 144 75 67
0.0599262 0.176786 -0.0437682 172 97 87
0.0805191 0.201576 -0.0460812 255 255 239
0.070781 0.203636 -0.028509 255 194 174
0.0709673 0.202683 -0.0407703 255 236 210
0.0619111 0.187807 -0.0456341 255 148 134
0.0669024 0.171133 -0.0295001 154 98 88
0.0849977 0.167791 -0.0387949 165 93 83
0.0707743 0.184896 -0.0307343 255 171 151
0.0889823 0.186414 -0.0345783 217 123 108
0.0801374 0.192232 -0.0230053 227 115 102
0.0749455 0.185576 -0.0262391 255 188 170
0.0700988 0.185452 -0.0278169 246 163 145
0.064057 0.188174 -0.0377286 243 155 137
0.063621 0.169468 -0.0490778 93 56 52
0.0795944 0.176007 -0.0263906 157 95 86
0.0787193 0.169876 -0.0533231 72 37 29
0.0632352 0.187579 -0.0414499 233 145 130
0.0619995 0.16181 -0.0416566 145 92 83
0.0854884 0.179529 -0.0379104 251 163 144
0.0696208 0.137443 -0.058574 86 55 52
0.0772291 0.19106 -0.0233257 219 111 97
0.0717051 0.168205 -0.030101 163 103 94
0.0910783 0.176436 -0.0249867 255 255 255
0.0615809 0.174663 -0.0357195 188 115 104
0.0692292 0.164315 -0.0323247 140 89 80
0.0575991 0.136834 -0.0498753 94 62 58
0.060967 0.108721 -0.0436384 42 42 39
0.071514 0.185239 -0.0258849 185 106 96
0.0778897 0.191109 -0.0238248 251 150 137
0.0653205 0.163977 -0.0507732 146 86 78
0.0722865 0.191878 -0.0241365 243 126 112
0.0621757 0.193205 -0.0395188 229 129 118
0.0775311 0.160856 -0.051063 140 98 92
0.0740822 0.183494 -0.0258398 150 114 108
0.0729852 0.185866 -0.0298916 229 146 132
0.0722788 0.185239 -0.0294175 231 148 133
0.0659815 0.164394 -0.0515101 163 99 89
0.082201 0.157659 -0.0305584 137 93 83
0.0764153 0.184512 -0.0277308 224 134 121
0.079491 0.147644 -0.0340849 66 45 42
0.0805564 0.169529 -0.0516618 85 39 33
0.0510068 0.105948 -0.0444343 214 156 150
0.0825784 0.130591 -0.0326165 0 0 0
0.0726891 0.168082 -0.0572508 160 85 76
0.0752692 0.186236 -0.0271382 235 149 132
0.082545 0.148696 -0.0349443 40 19 17
0.0805562 0.15582 -0.0328757 182 118 107
0.0668373 0.166124 -0.038051 144 92 83
0.0852138 0.165768 -0.0339847 114 68 61
0.0810135 0.161192 -0.0429239 121 70 64
0.0724195 0.182227 -0.0298909 144 75 70
0.0806674 0.161977 -0.0353089 209 131 118
0.0537952 0.102775 -0.0416839 140 90 84
0.062234 0.184677 -0.0366692 247 160 139
0.0861479 0.193934 -0.0452637 255 181 159
0.0887734 0.186626 -0.0303532 240 151 138
0.0875239 0.182451 -0.0312676 211 131 122
0.089756 0.195013 -0.0374736 255 255 255
0.071057 0.192894 -0.0252436 255 233 210
0.0906166 0.197593 -0.0327362 238 137 126
0.0822982 0.158065 -0.041815 130 84 73
0.0629307 0.190077 -0.0327292 233 135 121
0.0775423 0.183438 -0.0214745 255 255 255
0.0620131 0.189849 -0.041978 226 141 130
0.0589318 0.183535 -0.0483527 255 219 204
0.0791563 0.176156 -0.0514139 81 45 39
0.0860432 0.200844 -0.037377 255 193 173
0.0807205 0.177137 -0.0281747 88 63 58
0.0635906 0.169091 -0.02937 169 107 97
0.0594994 0.167134 -0.0431207 138 75 69
0.085446 0.181913 -0.0356814 231 159 141
0.0734245 0.187202 -0.0258919 206 138 122
0.0814825 0.182793 -0.0225027 255 194 174
0.0815772 0.157397 -0.0340054 175 115 104
0.0816867 0.158613 -0.0379927 173 108 99
0.0886554 0.184191 -0.0285348 184 109 98
0.0835407 0.177982 -0.046059 126 76 71
0.0925085 0.177674 -0.0242244 255 255 255
0.0645317 0.198106 -0.0375506 210 112 105
0.0595581 0.174985 -0.0377221 223 113 105
0.0653468 0.167147 -0.0392621 146 93 84
0.0855571 0.194251 -0.0387001 255 155 139
0.0787503 0.16065 -0.0491749 154 101 92
0.0697634 0.18536 -0.0278579 242 162 141
0.077281 0.180729 -0.0264006 230 147 135
0.0641725 0.194886 -0.0327143 215 117 105
0.075198 0.187244 -0.0257149 237 155 139
0.0809062 0.158937 -0.0368127 156 97 88
0.0627998 0.163509 -0.0492034 180 101 90
0.0751223 0.186336 -0.0274907 215 121 107
0.063999 0.138538 -0.0574738 82 56 53
0.0802282 0.154681 -0.032236 158 103 95
0.070557 0.103313 -0.0607971 59 41 39
0.0706741 0.185953 -0.0461126 80 40 36
0.0628314 0.18924 -0.0359837 244 159 145
0.0587658 0.165029 -0.0415849 122 65 59
0.079457 0.140057 -0.0298669 59 37 34
0.0521536 0.108538 -0.0423171 253 201 189
0.056727 0.13589 -0.046881 87 54 51
0.0712681 0.11854 -0.0539914 63 48 45
0.0808364 0.144065 -0.0401768 58 25 24
0.0671766 0.160809 -0.0369316 148 93 84
0.068113 0.162478 -0.0542445 144 91 83
0.0872941 0.189199 -0.0357565 195 96 85
0.0802347 0.164358 -0.0448347 84 41 36
0.0683719 0.19664 -0.0442506 255 201 180
0.0617708 0.178975 -0.0466958 255 168 149
0.0583904 0.172707 -0.0374727 255 181 165
0.0846578 0.176775 -0.047268 222 120 115
0.0846991 0.168758 -0.0375472 158 100 92
0.0831062 0.174377 -0.0552742 242 134 119
0.0753771 0.130142 -0.0347545 116 80 74
0.0771778 0.162457 -0.0277317 141 88 82
0.0861938 0.1572 -0.035155 192 117 108
0.0761586 0.130969 -0.0329844 72 46 42
0.0821962 0.130189 -0.0426758 0 0 0
0.0862994 0.185857 -0.046313 255 197 190
0.0864293 0.199414 -0.0355736 229 133 117
0.0714856 0.0908375 -0.0584336 0 0 0
0.080039 0.155895 -0.032831 186 117 105
0.0851914 0.199819 -0.0372496 255 145 131
0.0694969 0.191196 -0.0275502 238 138 122
0.0796136 0.170134 -0.0590128 192 123 114
0.081168 0.189425 -0.0226243 255 175 158
0.0698512 0.182383 -0.0241587 255 255 250
0.0801569 0.152852 -0.0303904 174 114 105
0.0648996 0.156476 -0.0276166 0 0 0
0.0857491 0.203554 -0.0385186 255 172 153
0.0715859 0.186466 -0.0280763 241 147 128
0.0827897 0.164636 -0.0428388 100 50 41
0.0767066 0.159855 -0.0556312 145 98 92
0.0733671 0.139673 -0.0288275 88 59 57
0.0682024 0.185272 -0.0496625 255 206 185
0.0744962 0.0724247 -0.0501858 0 0 0
0.0612504 0.137911 -0.0565007 84 55 52
0.0525123 0.121403 -0.055883 46 30 28
0.0877334 0.183052 -0.0331219 221 131 121
0.0715394 0.10149 -0.0381303 32 29 25
0.073032 0.188301 -0.0219401 255 255 255
0.0656663 0.200354 -0.0353618 255 165 142
0.0618575 0.178372 -0.0375877 116 35 25
0.0773382 0.127886 -0.0318644 92 68 62
0.0875498 0.165662 -0.0481489 255 221 189
0.0479394 0.117871 -0.0368567 0 0 0
0.0750112 0.0718419 -0.0448757 0 0 0
0.0674446 0.186673 -0.0284752 255 157 142
0.0844622 0.19042 -0.0417862 255 168 152
0.069292 0.172382 -0.0537874 117 68 61
0.054909 0.14349 -0.0475903 56 40 40
0.0601586 0.163722 -0.0511192 169 91 78
0.0716886 0.118627 -0.051851 47 30 30
0.0787774 0.159285 -0.0466265 129 82 75
0.0702118 0.184589 -0.0298846 244 160 142
0.0550375 0.132683 -0.044888 87 57 54
0.0461898 0.10171 -0.0520098 0 0 0
0.0865436 0.179636 -0.0318211 238 148 132
0.0598094 0.164211 -0.0365903 164 102 90
0.0546362 0.119814 -0.0569226 12 10 7
0.0654619 0.188394 -0.0286608 255 229 211
0.0622129 0.181586 -0.0479329 255 243 217
0.0870874 0.167951 -0.0311951 163 83 73
0.0568875 0.134146 -0.0546154 94 60 56
0.0699242 0.165757 -0.0310391 157 84 73
0.0704539 0.104721 -0.0357969 100 71 65
0.0579686 0.165537 -0.0404827 169 106 101
0.0794981 0.140678 -0.0351308 68 44 41
0.0792004 0.166791 -0.0235369 255 123 103
0.0652659 0.107311 -0.0416485 45 38 36
0.0542707 0.0849622 -0.0559741 0 0 0
0.0745276 0.185585 -0.0479052 37 11 7
0.069182 0.135672 -0.0277736 255 214 184
0.0723774 0.135418 -0.0572425 81 40 36
0.0742592 0.157107 -0.0309946 163 101 91
0.0748014 0.13088 -0.0326831 91 60 54
0.0596557 0.15572 -0.0462914 141 87 82
0.0858122 0.173452 -0.0388652 160 89 79
0.0797202 0.162006 -0.0276893 160 97 84
0.0656295 0.0918244 -0.0645547 0 0 0
0.0635296 0.162824 -0.0554149 213 134 123
0.0806717 0.165352 -0.021364 255 204 158
0.0625288 0.0992383 -0.0372251 140 95 96
0.0866367 0.179481 -0.0346108 159 84 77
0.0724057 0.116453 -0.0488261 44 38 36
0.0799191 0.158961 -0.0521675 134 83 76
0.0697943 0.186641 -0.0270428 255 176 157
0.0665816 0.117797 -0.0390943 44 38 35
0.0737824 0.135951 -0.0583577 86 55 52
0.0847429 0.20198 -0.0395522 255 108 96
0.0582905 0.112726 -0.0559232 70 44 42
0.0600238 0.175452 -0.0285029 0 0 0
0.0676243 0.169958 -0.0277501 255 207 189
0.0744108 0.139037 -0.0265408 255 242 223
0.0714488 0.193755 -0.0213866 255 255 255
0.0724085 0.193571 -0.0265699 239 130 112
0.0574559 0.118514 -0.0429573 53 40 37
0.07111 0.176259 -0.0532883 115 69 63
0.0844077 0.19119 -0.0419718 255 165 149
0.0802323 0.193465 -0.025813 255 150 135
0.0771882 0.184852 -0.0263721 199 115 101
0.0549303 0.137197 -0.0456674 86 58 53
0.0607696 0.164337 -0.0457722 142 90 82
0.0859854 0.173769 -0.0318268 188 88 76
0.0813605 0.167948 -0.0531973 255 128 114
0.0755869 0.134853 -0.0446802 74 58 55
0.0819302 0.180119 -0.0255754 238 159 142
0.064812 0.194919 -0.0362833 211 109 98
0.0784564 0.140695 -0.0638489 70 42 39
0.061867 0.173055 -0.0344031 178 96 88
0.0558362 0.135142 -0.0506771 86 53 48
0.0821929 0.181318 -0.0224207 255 173 158
0.0797177 0.165789 -0.0279625 126 76 68
0.0586427 0.149115 -0.0301975 255 208 191
0.0711066 0.163187 -0.0313813 121 69 63
0.0868223 0.171543 -0.0312809 241 137 125
0.0718036 0.157733 -0.0322203 156 99 88
0.0804482 0.15741 -0.0424382 150 95 86
0.0848411 0.151776 -0.0358141 161 86 76
0.0714613 0.168324 -0.0253755 255 255 255
0.0870869 0.182862 -0.0341374 226 131 121
0.0791831 0.167846 -0.0263812 160 94 86
0.0843578 0.169009 -0.0496501 255 170 151
0.0679498 0.109774 -0.0619091 47 40 38
0.0820219 0.17967 -0.0505988 164 101 93
0.0783494 0.189403 -0.0228326 221 94 82
0.0703116 0.185038 -0.0259881 186 122 110
0.073954 0.178711 -0.0539621 218 125 115
0.089052 0.190212 -0.0351455 255 255 252
0.0740158 0.189918 -0.0287911 243 152 137
0.0655912 0.199149 -0.0346008 255 157 140
0.0613709 0.161049 -0.0405379 150 89 80
0.0644147 0.189312 -0.0325459 220 115 106
0.0655697 0.156772 -0.0361159 148 91 81
0.0827885 0.181018 -0.0235624 165 93 82
0.0753153 0.166093 -0.0338438 189 114 102
0.0783142 0.177344 -0.0552877 221 146 143
0.0712431 0.184934 -0.0258183 236 130 117
0.077748 0.179802 -0.0263116 193 117 107
0.0736456 0.16649 -0.0558345 86 39 34
0.0869898 0.173911 -0.0372644 154 99 91
0.0633094 0.172734 -0.031408 183 110 99
0.0748593 0.195006 -0.0501462 255 168 151
0.0719813 0.179704 -0.0253159 255 255 255
0.0546262 0.0735344 -0.0467445 0 0 0
0.0654744 0.167897 -0.0324847 123 73 65
0.0684161 0.145639 -0.0630612 59 34 31
0.0677575 0.186625 -0.0251604 255 255 255
0.076038 0.169904 -0.0276403 161 101 91
0.0596999 0.115694 -0.0470389 73 59 54
0.0748779 0.132002 -0.0476271 83 55 50
0.0712423 0.117089 -0.0551589 57 40 39
0.0831548 0.165912 -0.0277177 129 85 79
0.0748556 0.163949 -0.022801 207 89 69
0.0862906 0.166721 -0.0341914 135 83 74
0.0648963 0.171637 -0.0315168 154 92 83
0.0585967 0.135279 -0.0558404 80 51 48
0.0559467 0.115619 -0.0553156 49 39 35
0.0627118 0.17333 -0.0482813 125 64 58
0.0839248 0.176229 -0.0467436 97 74 71
0.0748202 0.191408 -0.024168 231 142 128
0.061958 0.177229 -0.0455216 116 72 66
0.0812228 0.157855 -0.0280189 164 99 87
0.0557225 0.11398 -0.0438051 76 56 51
0.0756038 0.161279 -0.0336662 168 109 99
0.0859175 0.175084 -0.0328187 155 82 71
0.0872436 0.182885 -0.0342871 222 132 121
0.0659106 0.16917 -0.0287474 172 114 101
0.0751281 0.176795 -0.054474 255 196 172
0.0608766 0.165633 -0.0364716 141 89 80
0.0807437 0.155736 -0.0287301 201 131 119
0.063475 0.174288 -0.0283654 242 132 114
0.0822493 0.16618 -0.020425 255 250 228
0.0751213 0.191337 -0.0237598 238 102 88
0.0805954 0.181908 -0.0228614 255 219 196
0.0746261 0.161222 -0.0548394 153 109 103
0.0594239 0.159986 -0.0405328 97 64 50
0.0713515 0.193297 -0.0259878 255 198 176
0.0836468 0.181077 -0.025306 212 127 114
0.0531731 0.0759786 -0.0449469 0 0 0
0.0613855 0.161047 -0.0405617 140 85 78
0.0557867 0.119407 -0.045084 50 38 35
0.0616741 0.109548 -0.0653787 0 0 0
0.0721452 0.166 -0.0294719 132 71 66
0.0594749 0.135518 -0.0551731 95 61 56
0.0775166 0.0697566 -0.0454182 0 0 0
0.0533812 0.118844 -0.0579728 71 38 35
0.0844631 0.170594 -0.0291433 128 80 72
0.0724832 0.169103 -0.0311344 121 72 64
0.0766691 0.0693501 -0.0422132 0 0 0
0.0500378 0.109147 -0.0334795 0 0 0
0.0824398 0.189936 -0.0428442 239 154 142
0.0604525 0.118939 -0.0518326 55 44 42
0.0988774 0.179695 -0.0426081 255 255 255
0.0826097 0.157932 -0.0307695 140 91 82
0.0806019 0.181397 -0.0254265 227 138 124
0.0842345 0.190391 -0.0446518 255 181 164
0.0822657 0.173693 -0.0502093 165 99 91
0.06553 0.166809 -0.0534774 112 75 69
0.0811674 0.159835 -0.0281757 134 85 75
0.077058 0.138698 -0.0310066 57 35 36
0.0806371 0.188652 -0.0553859 255 188 176
0.0619406 0.171904 -0.0388949 99 56 49
0.0758258 0.156277 -0.0313746 164 101 88
0.0806067 0.155844 -0.0321138 181 118 108
0.0645509 0.157305 -0.036917 147 93 83
0.0681458 0.155408 -0.0330013 132 86 77
0.0851134 0.177011 -0.0305658 151 91 83
0.0824543 0.176847 -0.026756 255 167 155
0.0772927 0.177718 -0.0553289 255 143 120
0.0610711 0.164775 -0.044169 124 55 51
0.0943918 0.176433 -0.0250087 255 255 255
0.0755015 0.188843 -0.0259022 255 182 162
0.0631717 0.0953757 -0.0696253 57 87 79
0.0840625 0.155669 -0.0325836 173 111 103
0.0647303 0.157663 -0.035215 144 93 85
0.0550992 0.129868 -0.0290389 255 255 255
0.0566278 0.168775 -0.0449502 255 180 154
0.0850119 0.186127 -0.0398385 226 152 136
0.0617312 0.135802 -0.0585379 81 49 46
0.0769776 0.168695 -0.0245198 240 137 123
0.0605615 0.173938 -0.0427745 131 77 71
0.0654079 0.177842 -0.0313535 128 82 75
0.0738394 0.180525 -0.0283938 222 133 118
0.07603 0.188439 -0.0253019 255 193 174
0.0616579 0.183046 -0.0411581 242 163 149
0.0833272 0.196549 -0.0385081 255 153 136
0.0749828 0.188999 -0.0231736 255 255 255
0.0779253 0.193207 -0.0511309 255 200 181
0.0649738 0.161962 -0.033521 128 76 68
0.0752247 0.185364 -0.0262152 222 132 120
0.0842026 0.162268 -0.0377753 92 49 43
0.0607416 0.100604 -0.0382027 167 110 109
0.0788416 0.170597 -0.0527239 100 53 46
0.0821325 0.171312 -0.0515494 177 89 80
0.0812448 0.193519 -0.0246566 246 155 139
0.0864747 0.177079 -0.0307037 242 150 143
0.0864685 0.179345 -0.0309339 251 168 149
0.0730806 0.157289 -0.0316099 163 103 91
0.0836296 0.17577 -0.0416407 188 99 87
0.0747334 0.179675 -0.0539641 193 103 91
0.0599369 0.174775 -0.0367753 174 104 98
0.0623129 0.174922 -0.0478372 132 77 70
0.064426 0.177144 -0.0316133 172 94 85
0.0857115 0.168702 -0.0323877 138 101 94
0.0860882 0.174407 -0.0288989 174 100 94
0.0653467 0.173969 -0.028587 179 111 101
0.0777242 0.132106 -0.0344005 65 40 37
0.0791961 0.130747 -0.0380607 74 44 41
0.0799075 0.15551 -0.0306014 191 118 102
0.0863497 0.166059 -0.0285127 255 157 143
0.0599545 0.107256 -0.0450977 49 44 40
0.0859016 0.164317 -0.0376893 133 71 61
0.0820299 0.131186 -0.036917 97 51 45
0.0797105 0.164857 -0.0534892 164 90 83
0.0625707 0.169177 -0.0345528 113 61 54
0.0809658 0.159295 -0.0384565 155 103 94
0.0735914 0.136311 -0.0555829 82 54 51
0.061203 0.159063 -0.0538314 217 121 106
0.0803436 0.154943 -0.0420223 139 90 81
0.0501161 0.113106 -0.0398202 255 255 255
0.0843608 0.169695 -0.0441909 255 194 170
0.0596127 0.1043 -0.0415028 125 108 100
0.069751 0.199422 -0.0422121 255 249 219
0.042844 0.12139 -0.0451302 0 0 0
0.0872352 0.162334 -0.0303415 255 171 158
0.0826577 0.16868 -0.0283392 127 78 71
0.0694171 0.0847569 -0.0704189 0 0 0
0.0657833 0.0826937 -0.0616496 0 0 0
0.0738191 0.161511 -0.0301706 110 71 66
0.0662485 0.163418 -0.0542074 164 101 92
0.0765694 0.158365 -0.0327042 175 106 96
0.0788897 0.155292 -0.0310889 166 104 95
0.0651872 0.186167 -0.0511718 255 185 159
0.0767432 0.175129 -0.0272719 191 133 123
0.0654879 0.162672 -0.0531174 147 84 75
0.0701835 0.185003 -0.0271804 255 249 223
0.0872032 0.170855 -0.032939 255 135 121
0.0799068 0.155305 -0.0308829 173 108 98
0.0706026 0.185659 -0.0204311 255 255 255
0.0835197 0.160906 -0.0313026 112 67 61
0.0675951 0.114309 -0.0388114 56 47 44
0.0545965 0.0987017 -0.0410752 112 86 80
0.0750004 0.177016 -0.0261521 191 122 110
0.0594876 0.173839 -0.0402373 141 65 56
0.060318 0.159566 -0.052318 201 116 102
0.0774978 0.152437 -0.0579513 255 111 94
0.0849058 0.14045 -0.0309443 255 206 183
0.0725094 0.175035 -0.0542882 189 85 76
0.0653026 0.114678 -0.0513091 48 39 37
0.0772946 0.156105 -0.0315146 175 108 97
0.083526 0.167942 -0.0479946 198 122 113
0.0531669 0.107908 -0.0482127 92 68 60
0.0608974 0.171864 -0.0379448 137 80 73
0.0744937 0.174983 -0.0287126 202 130 120
0.0780468 0.159131 -0.0551744 173 112 97
0.0621278 0.178224 -0.0441357 93 62 57
0.0700048 0.160737 -0.0562591 147 97 88
0.0787629 0.156017 -0.0315675 182 110 96
0.085529 0.15953 -0.0341401 138 87 79
0.0823798 0.156323 -0.0308666 174 116 106
0.0705929 0.152626 -0.0591333 255 139 108
0.0669002 0.162182 -0.0323431 140 87 78
0.087193 0.186331 -0.0298968 183 105 93
0.0558091 0.104283 -0.065661 0 0 0
0.0739717 0.102907 -0.0439453 42 40 36
0.0458885 0.114433 -0.041665 0 0 0
0.0747063 0.105664 -0.0418468 42 43 39
0.0746358 0.186059 -0.0263598 248 166 150
0.0754192 0.156785 -0.0308911 166 103 92
0.0548546 0.128169 -0.0422002 110 57 47
0.0788153 0.141452 -0.0344271 66 44 40
0.0774123 0.196113 -0.0258795 255 144 131
0.0728675 0.160306 -0.0584825 152 111 107
0.0656964 0.186381 -0.0307612 254 148 133
0.0759157 0.192253 -0.0255917 249 148 132
0.0679125 0.168957 -0.0306675 166 101 91
0.0604321 0.10488 -0.0386708 111 80 72
0.0705056 0.170182 -0.0563751 113 71 65
0.0674271 0.196699 -0.0425421 255 211 185
0.071377 0.157953 -0.0321319 147 95 89
0.0672277 0.0806334 -0.0695439 43 44 40
0.0840785 0.154266 -0.0321083 161 101 92
0.0670085 0.162055 -0.0582136 236 98 86
0.0716388 0.201634 -0.0297273 255 188 174
0.0726887 0.170832 -0.0537614 55 28 26
0.060633 0.11007 -0.0636134 28 26 23
0.0946637 0.176994 -0.0437731 255 255 255
0.0672598 0.118784 -0.0556873 41 35 33
0.0679106 0.166701 -0.056221 185 102 88
0.0655466 0.165066 -0.0504842 173 99 89
0.0597126 0.167664 -0.0422991 139 74 66
0.0790254 0.138524 -0.0309768 38 12 10
0.0658631 0.170599 -0.0292913 190 114 103
0.0619269 0.170543 -0.0462477 107 53 47
0.0839747 0.160505 -0.0583949 255 255 248
0.057183 0.167833 -0.0244317 255 255 237
0.0896054 0.173453 -0.02711 255 155 140
0.0726713 0.198688 -0.0261272 255 171 153
0.0842466 0.159431 -0.0338261 124 82 74
0.0734673 0.181749 -0.0261883 214 127 115
0.0721833 0.13788 -0.0596013 68 43 40
0.0570711 0.109535 -0.059193 55 46 43
0.0600017 0.171786 -0.042431 114 57 53
0.0846771 0.157754 -0.0356082 138 88 80
0.0723672 0.186684 -0.0269879 220 124 110
0.0857348 0.205257 -0.0380633 255 205 184
0.0855777 0.201726 -0.0359108 255 167 148
0.0694227 0.189723 -0.0238123 216 132 118
0.0639699 0.190763 -0.0356086 220 126 114
0.0884988 0.179047 -0.0292209 233 146 133
0.0845573 0.195041 -0.0423871 230 117 102
0.0628167 0.185529 -0.0370643 250 171 150
0.0740539 0.201668 -0.0266253 255 236 213
0.0722042 0.184841 -0.0304302 255 190 174
0.0784859 0.167088 -0.0533187 122 67 62
0.0789136 0.171795 -0.0542993 97 46 38
0.0592471 0.16178 -0.0415164 120 79 76
0.0735548 0.193217 -0.0271147 197 102 89
0.0890155 0.194095 -0.0448523 254 157 143
0.0751829 0.18701 -0.0253161 251 177 159
0.0613354 0.174311 -0.0341272 212 128 119
0.0847146 0.182558 -0.023718 241 126 116
0.0863209 0.179795 -0.0312972 241 153 137
0.0874333 0.183912 -0.037489 154 0 0
0.074658 0.184503 -0.0253648 255 212 191
0.0811899 0.167683 -0.0428876 88 45 39
0.0702836 0.158562 -0.0322247 134 86 79
0.0815309 0.192091 -0.0460565 255 146 134
0.0834073 0.172187 -0.0436261 143 68 61
0.0727071 0.186783 -0.0273963 234 136 120
0.0778818 0.173035 -0.0549031 136 71 63
0.0717729 0.114404 -0.0551501 53 38 37
0.0624599 0.174378 -0.0461908 96 63 59
0.0567758 0.153992 -0.043785 131 108 99
0.0584013 0.155753 -0.0448444 115 59 51
0.0798726 0.182112 -0.0205617 255 255 255
0.0820111 0.183857 -0.0239563 195 111 100
0.0607083 0.174876 -0.0390327 154 70 63
0.0858393 0.189695 -0.0440402 199 151 143
0.0584525 0.175832 -0.0340479 153 92 82
0.0626341 0.173053 -0.0352063 120 73 66
0.0842735 0.181409 -0.0346777 109 62 55
0.0841544 0.190118 -0.0369277 200 73 59
0.061749 0.179082 -0.0323089 194 112 101
0.0601156 0.171459 -0.0439158 134 76 71
0.0707066 0.181319 -0.029305 243 144 125
0.0622276 0.182798 -0.0411587 144 100 94
0.075573 0.191394 -0.0228514 255 166 149
0.0709412 0.180972 -0.0287283 252 167 147
0.0716412 0.157191 -0.0326699 156 99 92
0.0784633 0.180817 -0.024259 223 146 133
0.0845656 0.190255 -0.0424228 171 93 86
0.0603482 0.172111 -0.0362894 171 92 84
0.084715 0.175391 -0.0305207 117 78 69
0.0737071 0.110627 -0.0399858 39 35 30
0.0679455 0.118318 -0.0485687 62 63 61
0.081668 0.159745 -0.0342621 155 94 86
0.0611072 0.177224 -0.0416147 110 68 63
0.0850765 0.171876 -0.0372103 102 72 64
0.074681 0.172987 -0.0268176 247 143 127
0.0662732 0.198335 -0.0383969 223 125 113
0.0621258 0.174206 -0.0374657 122 70 63
0.0658614 0.161456 -0.032879 122 75 67
0.0803454 0.174531 -0.0262549 194 121 110
0.0599823 0.174214 -0.0399213 139 76 70
0.0602206 0.170036 -0.042537 115 60 53
0.0757345 0.175074 -0.0282513 205 133 122
0.0825808 0.156301 -0.0307019 181 118 109
0.0743726 0.182717 -0.0272812 255 173 157
0.0819792 0.17498 -0.043754 91 46 40
0.0722284 0.134651 -0.057588 69 59 55
0.0651695 0.192487 -0.0327103 198 103 92
0.0680918 0.136687 -0.0596125 82 50 48
0.0911712 0.173282 -0.0243085 255 255 255
0.0586792 0.104861 -0.0394865 140 91 88
0.0663505 0.107658 -0.0349181 195 159 150
0.0747654 0.134604 -0.0465764 76 53 51
0.0718354 0.183998 -0.0287889 238 162 145
0.0666663 0.0972806 -0.0347357 167 111 103
0.0713654 0.1002 -0.0531077 47 43 39
0.0824244 0.156853 -0.0387787 144 92 82
0.080768 0.18294 -0.0242785 211 126 114
0.0837164 0.16187 -0.0394248 88 43 35
0.0849671 0.160459 -0.0313226 135 70 62
0.0642227 0.188125 -0.0421225 229 124 111
0.08665 0.168276 -0.0361218 146 75 68
0.0571738 0.172518 -0.0417269 255 236 212
0.0729878 0.184914 -0.0272404 240 154 133
0.0819364 0.128557 -0.0409128 0 0 0
0.0870598 0.174211 -0.0362469 162 69 60
0.0750009 0.132248 -0.0568647 97 43 42
0.0611534 0.0795173 -0.0662938 0 0 0
0.0637195 0.173892 -0.0495464 133 73 67
0.0801831 0.169113 -0.0223206 238 143 124
0.0667112 0.184842 -0.0263868 255 226 205
0.0842181 0.186803 -0.0415131 243 155 137
0.0682289 0.116045 -0.0568146 56 39 38
0.0769712 0.163791 -0.0300679 97 55 48
0.0770112 0.15884 -0.0539482 133 95 90
0.0593157 0.116598 -0.0612622 41 41 39
0.0739371 0.134356 -0.0575695 83 46 45
0.078846 0.181553 -0.0251825 236 148 133
0.078703 0.159654 -0.0545081 176 119 109
0.0857351 0.180846 -0.0326465 233 142 128
0.0790709 0.165865 -0.0544709 159 97 89
0.087149 0.174405 -0.03917 255 175 142
0.0781082 0.167961 -0.054787 134 79 73
0.060272 0.164528 -0.0449675 167 103 94
0.0689482 0.105253 -0.0642434 34 39 37
0.067045 0.110548 -0.063898 22 25 22
0.068025 0.191599 -0.0283835 218 119 108
0.0861933 0.173234 -0.0348365 109 76 69
0.0758487 0.185505 -0.047928 31 5 3
0.073153 0.193553 -0.0208195 255 255 240
0.0883045 0.188506 -0.0323675 209 121 107
0.0858754 0.18174 -0.0424647 183 95 82
0.083539 0.182399 -0.0368808 98 45 38
0.0812305 0.14228 -0.0380553 55 32 29
0.0598209 0.169706 -0.044734 163 84 73
0.092804 0.177251 -0.0365164 255 255 255
0.052943 0.0974652 -0.0617687 62 46 41
0.064642 0.0951841 -0.0539295 59 54 50
0.0855146 0.183847 -0.0362909 223 149 133
0.0530765 0.164755 -0.0501272 255 255 255
0.0784342 0.199875 -0.0273776 255 223 202
0.0720031 0.186425 -0.0264894 255 185 165
0.0838749 0.181052 -0.0364207 58 37 32
0.0686384 0.0955555 -0.0616248 71 77 73
0.0695021 0.186017 -0.0456315 69 31 25
0.0596129 0.157029 -0.0246721 255 255 242
0.070328 0.105407 -0.0594779 56 41 40
0.0555705 0.170376 -0.0282814 255 255 247
0.0632624 0.189589 -0.0373907 250 151 140
0.0588664 0.165856 -0.0399727 132 80 73
0.0718301 0.189957 -0.0472436 200 94 82
0.0914509 0.171255 -0.0413277 255 255 255
0.0567796 0.153282 -0.0379622 172 115 100
0.0784232 0.192677 -0.0464208 238 149 138
0.0808068 0.188521 -0.0244575 211 122 108
0.0668744 0.169031 -0.0472451 47 19 17
0.0676019 0.171848 -0.0258333 255 158 141
0.070787 0.102951 -0.0430515 46 42 42
0.088832 0.180596 -0.0334127 225 144 126
0.0818389 0.169067 -0.0437779 137 75 67
0.0765538 0.160828 -0.0540999 135 97 92
0.0727876 0.195517 -0.0198339 225 117 106
0.0533393 0.0924969 -0.0598775 121 92 87
0.0655607 0.19764 -0.0392109 194 102 91
0.0609236 0.176524 -0.0340026 255 151 137
0.0586886 0.0955835 -0.0542029 54 38 36
0.074292 0.185956 -0.0272402 212 115 102
0.0777911 0.164627 -0.0532453 108 61 53
0.0816152 0.188884 -0.0452547 255 167 153
0.073384 0.183244 -0.0254238 237 136 120
0.0711133 0.165592 -0.0526482 178 110 100
0.0840922 0.172225 -0.0390624 83 41 35
0.0629228 0.137253 -0.0586184 88 54 49
0.0824309 0.156121 -0.0330125 161 99 90
0.074374 0.163525 -0.05432 140 88 80
0.0842134 0.187554 -0.0416204 214 129 114
0.0831634 0.189414 -0.0463397 242 144 129
0.0851381 0.196142 -0.0385459 255 197 178
0.0865983 0.177516 -0.0254996 237 146 132
0.0705335 0.178243 -0.0197545 255 255 255
0.0754317 0.188177 -0.0266709 204 109 97
0.0721757 0.175563 -0.026008 255 156 139
0.0811226 0.187556 -0.0239851 195 115 101
0.088186 0.195313 -0.0382544 255 255 255
0.0816404 0.1862 -0.0410099 82 32 26
0.0685345 0.176548 -0.024965 255 255 255
0.0935908 0.170416 -0.0442865 255 255 255
0.0739078 0.135282 -0.0547532 77 52 52
0.0628637 0.191134 -0.0403911 219 132 124
0.0789267 0.130242 -0.0374425 73 41 37
0.0806541 0.172979 -0.0250828 255 171 147
0.0807434 0.158275 -0.0414511 132 82 74
0.0639976 0.163932 -0.0541426 172 94 84
0.0769582 0.186765 -0.024439 217 125 114
0.0654377 0.161497 -0.033714 115 71 63
0.0737458 0.191558 -0.0225804 255 175 158
0.0718218 0.186498 -0.0263962 222 122 105
0.0620165 0.164635 -0.0364532 127 76 68
0.0827236 0.157378 -0.0339313 126 78 71
0.0758311 0.131691 -0.0465497 88 56 51
0.0778174 0.191268 -0.0242514 242 151 135
0.0629105 0.189436 -0.0405578 233 136 126
0.0643864 0.189563 -0.038703 242 146 134
0.0809241 0.164758 -0.0491994 91 51 48
0.0777117 0.135661 -0.032206 66 38 39
0.061741 0.185557 -0.0408435 255 171 154
0.070519 0.183511 -0.0246836 255 190 172
0.0825353 0.180132 -0.0441102 126 74 68
0.0855805 0.174228 -0.0387757 166 89 77
0.0713064 0.170573 -0.0561796 161 84 76
0.0583772 0.0804483 -0.0649994 0 0 0
0.080543 0.129416 -0.0362763 68 44 41
0.0866662 0.167689 -0.0321543 255 121 100
0.0828021 0.181051 -0.0254677 224 146 131
0.073526 0.16112 -0.0572398 129 83 78
0.0899048 0.164978 -0.0236223 255 204 182
0.0680141 0.167165 -0.0509013 155 94 85
0.0715366 0.136099 -0.0582605 87 52 49
0.0785805 0.18177 -0.0246478 212 136 123
0.0641031 0.172648 -0.0493821 101 64 58
0.0805078 0.097744 -0.0275375 255 255 255
0.0584664 0.157604 -0.0407385 155 93 84
0.0912752 0.173779 -0.0447433 255 102 105
0.0854968 0.164047 -0.0310438 124 68 60
0.0567514 0.168654 -0.040933 167 69 57
0.0686174 0.0977477 -0.0563008 42 43 40
0.0878472 0.188963 -0.0457337 255 205 191
0.072665 0.18025 -0.0272437 220 124 110
0.0523349 0.136092 -0.0405042 255 204 175
0.0684268 0.195213 -0.0255523 243 143 126
