ply
format ascii 1.0
comment Created by Open3D
element vertex 1198
property double x
property double y
property double z
property uchar red
property uchar green
property uchar blue
end_header
0.0567282 0.0792732 -0.0708231 118 69 0
0.0477255 0.0892635 -0.0752637 55 28 22
0.0588151 0.0831452 -0.0940304 114 81 55
0.0665736 0.0889594 -0.105705 105 64 45
0.0663597 0.0878285 -0.108112 143 117 109
0.0586924 0.0935244 -0.10555 164 57 46
0.0607438 0.0892589 -0.101376 83 22 18
0.0607692 0.0798897 -0.0928195 155 103 37
0.0578657 0.0883074 -0.0970383 101 50 34
0.0598587 0.0811609 -0.0945931 113 92 59
0.0630843 0.0853102 -0.100905 118 64 45
0.0606018 0.0814961 -0.0934766 106 56 27
0.0695221 0.0861263 -0.103372 108 62 40
0.0583939 0.0801749 -0.0856394 126 27 0
0.071618 0.0876835 -0.0888619 121 49 40
0.0514684 0.104401 -0.102012 135 79 57
0.0628598 0.0858513 -0.101298 95 43 32
0.0688407 0.107281 -0.0946218 120 72 55
0.0504038 0.104438 -0.102006 221 125 82
0.0593262 0.0808977 -0.080723 78 0 0
0.0648001 0.0896724 -0.105476 149 131 90
0.0505202 0.10392 -0.102216 193 255 203
0.0539868 0.0902077 -0.0991624 26 28 0
0.0591302 0.0876236 -0.0994812 119 85 76
0.0621121 0.0849952 -0.0991866 121 76 52
0.0718486 0.0871577 -0.105227 144 126 80
0.0745237 0.0935152 -0.0994921 144 103 48
0.0528627 0.108263 -0.106555 255 168 117
0.0593461 0.0805136 -0.0864526 98 46 29
0.0498134 0.0849623 -0.0669974 44 24 22
0.0664637 0.088568 -0.104763 105 70 56
0.0601255 0.0805353 -0.0881317 106 58 36
0.0540232 0.0850862 -0.0881869 125 67 66
0.0490851 0.0879574 -0.0744811 59 31 23
0.0604336 0.079583 -0.0926615 137 87 49
0.0721916 0.102439 -0.097203 123 57 46
0.0650933 0.0825809 -0.0804412 120 71 47
0.0528527 0.0892036 -0.0888599 93 46 33
0.0584954 0.0944042 -0.104138 135 84 65
0.0637655 0.0813317 -0.0899278 99 55 28
0.0632795 0.0805604 -0.0948009 113 81 63
0.0740219 0.0951136 -0.100245 123 78 51
0.0589829 0.0940746 -0.103602 119 66 50
0.0612802 0.0885492 -0.102607 131 81 54
0.0614663 0.087984 -0.10262 181 98 80
0.0589225 0.0828881 -0.0940649 118 82 61
0.0534887 0.0886319 -0.092724 97 38 17
0.0624566 0.0916266 -0.107853 119 39 35
0.0739344 0.0894709 -0.0883481 84 21 12
0.0554442 0.0833452 -0.0875967 145 87 57
0.0705123 0.0869493 -0.10552 172 173 123
0.0595697 0.0937955 -0.106085 111 60 45
0.0452247 0.108754 -0.0996436 93 0 0
0.0507442 0.109965 -0.104486 247 188 155
0.0504142 0.110502 -0.0920145 93 47 24
0.0495891 0.108282 -0.0940883 141 55 41
0.0521509 0.111422 -0.0919665 188 119 89
0.0510654 0.111044 -0.0913982 238 120 109
0.0524471 0.111979 -0.0925088 199 133 109
0.0507711 0.11218 -0.09443 139 86 68
0.054169 0.106119 -0.107446 191 114 81
0.0516581 0.0772106 -0.0437429 29 19 17
0.0496294 0.107309 -0.0932304 103 54 37
0.0510054 0.109942 -0.0906508 0 0 0
0.0526203 0.0993108 -0.0969804 112 59 45
0.050077 0.0930677 -0.0813929 80 46 36
0.0486485 0.109392 -0.0968643 182 98 76
0.0551739 0.0889201 -0.0643625 38 20 16
0.0503533 0.110701 -0.0922888 124 72 55
0.049201 0.0934994 -0.0812539 76 37 26
0.0518097 0.111275 -0.0917848 154 88 70
0.0534012 0.107366 -0.106418 215 124 83
0.0506532 0.110878 -0.0921458 255 180 169
0.049702 0.106562 -0.0933609 130 78 58
0.0506434 0.10977 -0.0906441 139 61 26
0.0534897 0.106267 -0.105864 177 93 63
0.0525419 0.0992903 -0.0969199 103 55 42
0.0518162 0.10961 -0.106007 243 170 133
0.0486976 0.107467 -0.0955348 158 88 67
0.0484778 0.109239 -0.098442 180 108 85
0.047777 0.111081 -0.0991874 205 124 99
0.0465022 0.0883847 -0.069927 52 29 24
0.0741017 0.100802 -0.0926424 193 143 103
0.0573748 0.0928482 -0.0999521 102 54 38
0.0541232 0.087439 -0.0938771 134 54 44
0.0477863 0.111872 -0.0983419 218 135 104
0.0528604 0.100496 -0.0962117 129 80 63
0.0575514 0.0884392 -0.0992629 216 89 40
0.0496576 0.108097 -0.0935204 120 77 61
0.0615142 0.0875241 -0.101411 115 59 40
0.051347 0.0769742 -0.0441067 28 20 16
0.0595091 0.0861312 -0.0981206 122 66 47
0.0529878 0.107365 -0.106648 221 142 77
0.051497 0.102076 -0.0967004 138 89 68
0.0568998 0.0889234 -0.0989819 42 0 0
0.0718277 0.102944 -0.0948842 132 82 58
0.0477975 0.110284 -0.0988065 193 117 90
0.0582705 0.0915193 -0.101069 114 69 52
0.0563281 0.0922359 -0.101648 130 91 68
0.0585915 0.0957343 -0.107209 184 108 82
0.0515383 0.106969 -0.10282 179 98 71
0.055527 0.0983635 -0.105728 135 72 53
0.0493522 0.0851121 -0.0664412 19 14 12
0.0592861 0.0833246 -0.0933544 123 70 47
0.0561305 0.0898136 -0.0959474 95 46 33
0.0751592 0.0947837 -0.0939777 123 35 27
0.0656622 0.0891049 -0.105239 95 22 21
0.0506481 0.106934 -0.102519 152 157 120
0.0719733 0.103022 -0.095557 132 78 64
0.0511438 0.108726 -0.103855 223 145 112
0.0644923 0.0802938 -0.0939391 100 49 28
0.0594129 0.0816182 -0.0963981 124 147 70
0.064415 0.0908505 -0.106071 130 119 84
0.0553925 0.0803202 -0.0481363 21 15 14
0.065339 0.0805632 -0.0939454 79 49 28
0.0614698 0.0865939 -0.100836 126 72 62
0.0627921 0.0825719 -0.0981931 175 122 73
0.0623323 0.0915024 -0.0689616 59 30 23
0.0614077 0.0807457 -0.0888632 127 75 51
0.0676686 0.0852308 -0.104329 144 171 170
0.0743091 0.0992027 -0.0896054 151 60 67
0.0727909 0.0975452 -0.0900439 105 55 40
0.0735345 0.085909 -0.0903135 63 29 44
0.0628775 0.0814063 -0.0835545 110 67 57
0.06651 0.0929002 -0.108074 111 77 60
0.0535211 0.0852458 -0.0644992 0 16 16
0.0539725 0.0869343 -0.101235 135 88 51
0.047754 0.0865285 -0.0676632 20 16 12
0.0594377 0.0819573 -0.080478 91 52 44
0.0674681 0.0816241 -0.0945723 110 58 46
0.0758069 0.0916785 -0.0979665 133 97 90
0.049097 0.110027 -0.10151 222 139 107
0.0506608 0.0908884 -0.0860154 81 36 23
0.0607253 0.0890878 -0.10197 122 61 46
0.0566439 0.0955317 -0.10638 154 84 61
0.0588787 0.094571 -0.106125 151 78 64
0.0589989 0.0852893 -0.0933134 84 35 23
0.0505441 0.109185 -0.103271 226 143 110
0.0635878 0.089466 -0.104902 205 105 84
0.0536916 0.0796038 -0.0475118 26 18 13
0.0597601 0.0799847 -0.0752999 121 54 31
0.0608415 0.0796008 -0.0935705 137 110 70
0.0711096 0.0932164 -0.10394 115 63 45
0.0641732 0.0828319 -0.0969894 107 59 38
0.0620136 0.0817688 -0.097632 201 162 96
0.0595683 0.0820887 -0.0942051 120 89 63
0.0672245 0.0852962 -0.104484 168 181 173
0.0671423 0.0852253 -0.0816111 154 62 47
0.0746493 0.100306 -0.0988261 119 58 45
0.0611068 0.0803025 -0.0892337 96 65 45
0.0642778 0.0839454 -0.097655 104 55 36
0.0532518 0.0991485 -0.0985049 129 85 68
0.0551355 0.0855287 -0.0928313 126 52 37
0.0684705 0.0844586 -0.087845 128 60 37
0.050862 0.110804 -0.0921987 40 0 0
0.051186 0.109426 -0.0901697 38 0 0
0.0536015 0.0994651 -0.0970186 136 82 62
0.0504742 0.0922659 -0.0825991 97 60 45
0.0712195 0.103544 -0.0944747 121 66 46
0.0507046 0.109418 -0.0903674 46 0 0
0.0527161 0.0993603 -0.0968261 106 68 53
0.0514177 0.102118 -0.0964054 147 93 72
0.0518556 0.100776 -0.0960364 125 80 60
0.0530586 0.0996822 -0.0970092 134 79 64
0.0572377 0.0904957 -0.0991515 50 0 0
0.0615419 0.0878966 -0.100757 102 49 34
0.0620104 0.0863845 -0.100465 106 55 42
0.0483903 0.109956 -0.100081 205 124 98
0.0536976 0.0990439 -0.0985318 112 96 84
0.0524442 0.111877 -0.0926893 160 103 83
0.0532336 0.108981 -0.106593 209 136 97
0.0523142 0.10367 -0.102636 223 187 150
0.0616829 0.0881285 -0.10397 181 118 83
0.0514301 0.101621 -0.0953467 100 56 37
0.0567857 0.0894676 -0.0986271 41 0 0
0.0713136 0.103815 -0.0957343 122 63 48
0.0595033 0.0926844 -0.0680856 45 18 0
0.0713099 0.103491 -0.0941923 121 73 52
0.0627048 0.0864048 -0.102633 84 24 9
0.0622625 0.0855696 -0.0987621 101 48 33
0.0589378 0.0808433 -0.0760257 149 101 91
0.0532808 0.0980309 -0.0995672 110 58 25
0.0671616 0.0824536 -0.0901468 101 58 30
0.054585 0.0723244 -0.0380709 45 26 44
0.0771558 0.0921148 -0.0938841 128 125 29
0.0589505 0.0954026 -0.0656228 33 23 20
0.0586334 0.0878894 -0.0971313 98 47 33
0.0708755 0.10012 -0.086191 107 56 42
0.0484027 0.111304 -0.102423 232 147 117
0.0613155 0.0883579 -0.103039 188 118 70
0.071173 0.101125 -0.0889846 102 48 38
0.0501767 0.107428 -0.10189 183 159 123
0.0477639 0.110993 -0.102338 221 143 121
0.072681 0.0860568 -0.089942 69 0 0
0.0682608 0.0887935 -0.106291 122 67 53
0.0647473 0.0932544 -0.106396 113 61 45
0.0555416 0.09165 -0.102166 133 62 46
0.0645273 0.089517 -0.106289 178 132 97
0.0534148 0.0988453 -0.102166 127 80 61
0.0515809 0.105054 -0.102657 155 79 54
0.0668077 0.0894309 -0.105135 112 52 33
0.0518439 0.0896383 -0.0904812 85 38 23
0.0602655 0.0827188 -0.0990999 198 135 128
0.070419 0.104652 -0.0975616 124 65 50
0.0511688 0.0939604 -0.0922222 85 39 27
0.0687646 0.089901 -0.106138 124 74 62
0.0602948 0.0911573 -0.105693 130 79 62
0.066061 0.0854966 -0.0817703 129 59 44
0.0789533 0.0891799 -0.0971053 125 238 166
0.067054 0.0860892 -0.10495 149 155 123
0.0778989 0.0938732 -0.096338 160 103 81
0.0704282 0.0857158 -0.0910057 122 63 45
0.0646233 0.0906828 -0.105596 102 42 24
0.0664567 0.0891823 -0.104164 105 62 41
0.0616575 0.0856917 -0.100869 84 31 17
0.0538325 0.0721595 -0.0383597 39 25 25
0.0746757 0.0869609 -0.0935153 91 91 49
0.0594254 0.0862719 -0.0978236 108 60 41
0.0497013 0.106708 -0.101116 200 228 187
0.0484375 0.1105 -0.102048 219 138 110
0.0576522 0.0859031 -0.0952842 106 62 44
0.0637727 0.089737 -0.105358 248 151 143
0.0525446 0.0877409 -0.0926853 0 0 0
0.0676866 0.0895235 -0.105673 114 68 43
0.0632446 0.0885225 -0.0697772 46 32 21
0.0644875 0.0931695 -0.106696 110 62 44
0.0676586 0.0836135 -0.088058 90 0 0
0.0568174 0.0929386 -0.103013 112 65 49
0.0609971 0.0844746 -0.0975413 117 65 43
0.0572972 0.0816646 -0.084818 98 47 33
0.062446 0.081787 -0.0969151 138 106 68
0.0645975 0.0906066 -0.107015 153 162 134
0.0604807 0.0809837 -0.094134 122 79 43
0.0612041 0.0922958 -0.105101 137 74 52
0.0709416 0.102484 -0.0927606 103 52 39
0.0583349 0.0842747 -0.0932189 142 89 70
0.065109 0.0810607 -0.0946906 95 46 32
0.0646358 0.0879739 -0.0708328 71 37 27
0.0518541 0.0907056 -0.0903125 93 47 36
0.0630133 0.0806887 -0.0903056 90 50 21
0.0589914 0.0859443 -0.0978627 116 75 55
0.0530633 0.0967638 -0.102362 133 69 54
0.0649255 0.0923109 -0.107288 117 86 74
0.0667838 0.0943921 -0.107139 115 63 42
0.0593499 0.0861944 -0.0722653 64 30 23
0.063094 0.0906377 -0.0696303 59 31 23
0.0686892 0.0908693 -0.106162 114 63 49
0.0760073 0.092816 -0.0908343 136 121 114
0.0618842 0.093591 -0.070051 62 31 23
0.0627614 0.0915742 -0.109571 173 112 96
0.0735426 0.0837383 -0.0804589 155 93 93
0.0501778 0.110334 -0.0921618 58 34 39
0.0525212 0.110359 -0.0903521 161 93 79
0.0517546 0.111601 -0.0927978 161 104 84
0.0508754 0.110821 -0.0916549 138 123 73
0.0496235 0.107156 -0.0996315 144 87 67
0.0504939 0.110684 -0.0923445 97 56 38
0.048674 0.109485 -0.0972364 183 107 86
0.0506181 0.109445 -0.0903312 38 0 0
0.0502026 0.110602 -0.0923025 154 87 69
0.0511527 0.110988 -0.0920305 183 109 100
0.0514219 0.110944 -0.0919995 163 104 85
0.0501495 0.077923 -0.0460322 20 14 12
0.0493411 0.0926752 -0.0818407 90 49 34
0.0518823 0.110995 -0.0919335 131 100 82
0.0497993 0.110356 -0.0926844 147 103 104
0.0506696 0.11094 -0.0915469 0 0 0
0.0498391 0.109621 -0.0921132 148 88 70
0.0523995 0.109221 -0.0890922 109 66 46
0.0490804 0.0938693 -0.0809687 38 8 3
0.059697 0.0879853 -0.101032 151 70 45
0.0600411 0.0890056 -0.10112 98 30 16
0.0582786 0.0901535 -0.10085 174 91 51
0.0616646 0.0880967 -0.102518 106 43 24
0.0519285 0.111843 -0.0927368 206 134 107
0.0479185 0.110238 -0.0988959 199 120 87
0.0592087 0.0895203 -0.100192 71 3 0
0.0545196 0.0881797 -0.0913264 91 48 36
0.05761 0.0912086 -0.100115 118 70 50
0.0499843 0.106138 -0.0940451 125 75 57
0.052408 0.0994323 -0.0980951 134 78 63
0.0497549 0.106865 -0.0933698 111 67 53
0.0624833 0.0859102 -0.10022 109 57 42
0.0611384 0.0886453 -0.101944 77 60 49
0.062659 0.0880101 -0.10491 185 109 75
0.0505779 0.112179 -0.0943184 182 108 91
0.0538457 0.0877082 -0.0933826 123 48 33
0.0562915 0.0943904 -0.100669 117 64 50
0.0539293 0.0850971 -0.0642432 0 0 0
0.0602347 0.0821038 -0.0944622 113 70 45
0.0528396 0.0830832 -0.0612697 61 34 28
0.047435 0.109939 -0.101101 180 72 46
0.070819 0.0840783 -0.0907766 98 60 46
0.0656521 0.0871151 -0.104509 188 135 100
0.0644981 0.0891164 -0.105737 158 100 66
0.0535505 0.0978427 -0.10283 154 74 38
0.0567321 0.0902217 -0.100699 187 116 108
0.0560238 0.0932929 -0.102161 152 92 73
0.0745923 0.0953145 -0.104839 142 76 58
0.0684494 0.0823399 -0.090457 100 88 63
0.0715932 0.0964996 -0.102082 120 64 47
0.0637122 0.0937093 -0.0700079 53 22 15
0.0602506 0.0797039 -0.0844545 130 54 42
0.0671735 0.089182 -0.106318 132 80 58
0.0553861 0.0885557 -0.0932665 93 45 30
0.0679948 0.0889941 -0.105242 124 64 43
0.0670515 0.0871637 -0.104604 135 129 103
0.0537511 0.0958453 -0.102249 118 53 34
0.0643251 0.0810285 -0.0839143 110 74 64
0.0484006 0.11014 -0.102198 201 124 103
0.0674276 0.0880235 -0.105464 122 93 66
0.065144 0.0916092 -0.106691 103 89 69
0.0628145 0.0805529 -0.0890797 93 60 47
0.0536521 0.088674 -0.0907231 109 62 51
0.0519059 0.0828248 -0.0614912 24 20 17
0.0693352 0.0811816 -0.100421 48 37 8
0.0771191 0.099391 -0.0929509 180 151 89
0.0521098 0.0895662 -0.0922955 59 9 0
0.0464669 0.109397 -0.101963 242 85 98
0.0577885 0.093686 -0.103951 158 97 65
0.0629101 0.0862468 -0.101726 93 44 33
0.0501294 0.10853 -0.103525 189 155 131
0.0734394 0.100881 -0.0877848 124 54 48
0.0634346 0.0918423 -0.0703723 55 27 21
0.0528304 0.100774 -0.100006 135 82 58
0.0611476 0.0867118 -0.100672 159 102 86
0.0582859 0.0811133 -0.0863827 122 41 26
0.0661801 0.0897405 -0.10588 137 63 43
0.055789 0.0881255 -0.0938051 98 44 29
0.053465 0.100239 -0.100789 135 88 63
0.0659478 0.0818593 -0.0994846 155 108 85
0.0490281 0.110432 -0.102311 232 148 113
0.0756965 0.094342 -0.0929447 139 77 67
0.0753748 0.0948845 -0.100526 135 99 59
0.0582154 0.0821999 -0.0781633 71 31 16
0.0550213 0.088227 -0.0909682 93 47 34
0.0582979 0.0830067 -0.0915704 104 47 36
0.0506116 0.110457 -0.0920292 223 111 78
0.0498628 0.107924 -0.0938677 116 67 51
0.052578 0.106728 -0.104311 177 108 60
0.0514185 0.111075 -0.0916654 255 195 174
0.0516284 0.111804 -0.0926853 133 99 72
0.0518031 0.110952 -0.0915672 205 139 109
0.0529511 0.0902585 -0.0805391 55 19 12
0.0508396 0.110721 -0.0918138 133 92 62
0.07128 0.104044 -0.0939329 125 73 55
0.0522512 0.100489 -0.0966119 132 81 65
0.0505858 0.110739 -0.0920726 138 77 63
0.0511269 0.111329 -0.0917908 196 128 106
0.0517207 0.109173 -0.0891468 134 68 53
0.0516659 0.111085 -0.091913 192 138 116
0.0518192 0.101088 -0.0958985 125 77 59
0.0523311 0.110361 -0.0903017 165 97 79
0.0523451 0.111247 -0.0919291 156 88 75
0.0552474 0.0837404 -0.0567946 40 27 26
0.0494821 0.108586 -0.0939917 142 91 75
0.0596942 0.0877373 -0.101052 160 73 50
0.0501774 0.0853122 -0.0908502 255 235 223
0.0599428 0.0891011 -0.100569 87 28 19
0.0570575 0.0857742 -0.0918555 59 37 26
0.0544044 0.0909335 -0.0956865 102 64 47
0.0493147 0.108474 -0.0938963 167 120 105
0.0580653 0.0917462 -0.100162 107 53 36
0.0568691 0.0912874 -0.100011 140 93 53
0.06237 0.0847591 -0.099875 159 96 67
0.0712519 0.103703 -0.0951078 125 73 56
0.0582366 0.0901717 -0.100616 137 62 32
0.0590371 0.0895912 -0.100076 73 14 12
0.0474351 0.11153 -0.101674 215 140 112
0.0599779 0.0869273 -0.100234 153 102 83
0.0568027 0.0887699 -0.0988331 47 0 0
0.0505322 0.10758 -0.101808 184 105 77
0.061651 0.0880671 -0.101684 125 63 41
0.0623202 0.0880255 -0.103348 98 38 28
0.0499182 0.106575 -0.0935546 110 63 49
0.065005 0.0817511 -0.0924829 148 112 95
0.0516682 0.110405 -0.105977 255 222 187
0.0506247 0.107397 -0.101156 142 72 52
0.0539559 0.0989607 -0.102408 135 70 47
0.0539248 0.0880895 -0.0934989 87 40 27
0.0521939 0.0998218 -0.0963186 153 79 62
0.0643831 0.0896398 -0.105029 115 63 49
0.0525916 0.0994101 -0.0964174 101 63 48
0.0483397 0.110355 -0.101973 210 131 104
0.0709759 0.103402 -0.092493 101 51 36
0.0526593 0.0994973 -0.0965016 112 63 47
0.0640826 0.0902968 -0.10486 110 56 43
0.0541697 0.0994099 -0.0996599 138 89 65
0.0638445 0.0859213 -0.100399 103 50 33
0.0602394 0.0931199 -0.105321 152 86 67
0.0539742 0.0989229 -0.100133 73 83 53
0.0588958 0.0876522 -0.0981263 102 53 36
0.0485149 0.0694332 -0.0384418 22 20 17
0.068289 0.0771547 -0.104267 255 255 225
0.0540484 0.101633 -0.103643 130 68 46
0.0521717 0.0741636 -0.0424475 22 16 13
0.0691096 0.0821324 -0.0989488 113 52 37
0.065295 0.0809619 -0.0901045 49 75 64
0.0727757 0.0978109 -0.086771 110 71 59
0.0526458 0.0846268 -0.0866128 86 23 22
0.0659289 0.080677 -0.096064 69 50 46
0.0496917 0.0892461 -0.0763936 56 27 21
0.071863 0.102446 -0.0980901 125 64 51
0.0613562 0.0842165 -0.0981154 129 76 54
0.0532273 0.0880572 -0.0805054 91 49 35
0.0737695 0.0969717 -0.0958989 109 69 48
0.0571024 0.0880541 -0.0681455 61 28 23
0.0657742 0.0819933 -0.0998643 203 160 116
0.0565303 0.0959893 -0.104468 127 69 50
0.0587708 0.0908174 -0.068422 60 29 22
0.0508194 0.0914207 -0.0850365 93 47 35
0.0608037 0.0807936 -0.088369 106 51 34
0.0549319 0.10025 -0.106372 153 87 70
0.0741012 0.0939877 -0.0907524 114 42 0
0.0653872 0.081667 -0.0994275 176 128 92
0.0581505 0.0901767 -0.102113 110 62 47
0.0536692 0.0868444 -0.0826314 92 46 34
0.0559013 0.0850163 -0.0818395 95 55 40
0.0556273 0.0970603 -0.103539 118 60 43
0.0527798 0.0981598 -0.0999107 188 134 120
0.0584125 0.0832938 -0.0939758 113 90 59
0.0682781 0.0833078 -0.102352 67 56 62
0.0557789 0.0883027 -0.0943269 99 57 42
0.0757739 0.0952565 -0.0985117 147 99 53
0.0533953 0.0886743 -0.0821844 99 56 40
0.0536168 0.0989079 -0.0987969 118 91 79
0.0671743 0.0861104 -0.0790677 126 59 43
0.0574936 0.0799215 -0.0821379 112 56 36
0.0524042 0.0885213 -0.0908523 46 0 0
0.0702404 0.0970503 -0.0819077 94 46 33
0.0682984 0.0890944 -0.106588 117 112 81
0.0555673 0.0847616 -0.0911066 33 15 11
0.0627192 0.0916955 -0.0640207 77 40 30
0.0648631 0.0872092 -0.103961 137 95 82
0.0629184 0.0867246 -0.10191 115 63 44
0.0638687 0.0905338 -0.106339 146 114 78
0.0673012 0.0796723 -0.104899 255 250 190
0.0571842 0.095723 -0.105475 132 73 51
0.0720988 0.0947499 -0.098508 122 65 46
0.0733247 0.0875891 -0.0943789 123 81 55
0.0589323 0.0787936 -0.0809141 111 71 46
0.0647781 0.0845168 -0.0817935 119 54 48
0.0631387 0.08125 -0.0832315 143 96 75
0.0670096 0.0932333 -0.106846 111 55 39
0.0623544 0.0821782 -0.097591 150 117 68
0.0611866 0.0852494 -0.0986655 113 64 44
0.0670751 0.0844997 -0.104429 159 172 131
0.0583329 0.0834558 -0.0934522 125 90 65
0.0740741 0.09669 -0.0965133 117 59 42
0.0591814 0.0898184 -0.0693154 64 33 26
0.0591643 0.0913957 -0.0682327 59 26 19
0.0726452 0.0807623 -0.0780541 158 77 142
0.0549018 0.0994483 -0.106058 144 81 64
0.0739598 0.0939087 -0.0908749 89 55 52
0.0671956 0.108105 -0.0991682 117 53 43
0.0564804 0.0853064 -0.0907696 88 40 26
0.0708796 0.0869324 -0.0858958 99 66 31
0.0749594 0.0929719 -0.0934088 133 54 29
0.0634005 0.0836951 -0.0995588 120 70 59
0.0553949 0.0897601 -0.0943126 88 43 30
0.0601643 0.0805447 -0.0868661 132 52 47
0.0554005 0.0996888 -0.0995934 135 88 69
0.0587682 0.0886565 -0.0691152 62 32 26
0.0548383 0.0863107 -0.0918752 102 59 51
0.0524995 0.0893264 -0.0866141 92 46 32
0.062721 0.0896751 -0.109132 135 94 70
0.0635003 0.085394 -0.101369 119 75 47
0.0748603 0.0920991 -0.0880664 160 88 48
0.0712271 0.0943612 -0.0771864 52 32 26
0.063162 0.0850342 -0.0794403 90 47 38
0.066946 0.0813092 -0.101659 103 99 64
0.0551915 0.0965973 -0.103475 123 64 44
0.067847 0.0880317 -0.106197 138 124 98
0.0752274 0.0964694 -0.0923931 106 79 58
0.0659324 0.0896076 -0.106128 147 89 72
0.0638276 0.0912027 -0.107531 118 78 81
0.0534233 0.105699 -0.104788 183 104 78
0.0525559 0.11302 -0.0941929 168 104 83
0.0479311 0.102615 -0.097649 255 255 255
0.0525272 0.110344 -0.0903567 153 92 71
0.0517289 0.111801 -0.0926758 183 127 103
0.0522185 0.0909313 -0.08112 82 42 29
0.0533573 0.106379 -0.105519 185 92 58
0.0517268 0.111785 -0.0929355 158 96 75
0.0504077 0.0919501 -0.0823518 83 53 41
0.0528476 0.0993358 -0.0965149 114 64 52
0.0491772 0.10786 -0.0986497 161 92 67
0.0518793 0.111238 -0.0922339 141 85 63
0.050381 0.110548 -0.0922907 169 84 72
0.0514124 0.11111 -0.0918715 130 94 72
0.0521167 0.109262 -0.0888622 161 108 88
0.0524343 0.109167 -0.0892551 139 99 81
0.0522214 0.109641 -0.0894168 150 117 97
0.0534829 0.106397 -0.105544 177 86 59
0.0496446 0.107914 -0.0936797 134 90 76
0.0535719 0.106675 -0.10625 171 94 65
0.0509307 0.107273 -0.102839 193 135 99
0.049514 0.108485 -0.0937024 119 68 52
0.0572295 0.0911052 -0.100267 149 110 85
0.0478566 0.110787 -0.100127 210 127 101
0.0586281 0.0844037 -0.0929756 74 22 19
0.056393 0.0863804 -0.0905769 96 49 35
0.0520427 0.101023 -0.0957288 128 79 63
0.0619814 0.0882643 -0.101285 104 51 36
0.0648226 0.0894895 -0.10479 72 16 8
0.0516175 0.111778 -0.0926872 157 117 98
0.0619764 0.0872667 -0.102538 116 47 24
0.05387 0.101854 -0.104756 154 88 70
0.0627181 0.0901457 -0.103882 109 59 41
0.0668252 0.107948 -0.100087 126 64 52
0.0662497 0.0902687 -0.0712538 15 0 0
0.0613584 0.0893912 -0.10365 152 93 60
0.0596616 0.0904619 -0.0689809 63 32 25
0.0550613 0.0991598 -0.106453 135 72 50
0.0521881 0.0886107 -0.091726 49 0 0
0.0498761 0.0926632 -0.0858488 82 37 24
0.0498738 0.109531 -0.104336 244 189 158
0.0503292 0.109888 -0.104665 243 172 136
0.0670179 0.0913986 -0.107237 104 51 35
0.0554387 0.0864899 -0.0874509 85 40 27
0.0581896 0.0948119 -0.106884 131 80 61
0.0530199 0.0797973 -0.0467977 24 17 14
0.0670553 0.0841678 -0.10081 115 63 67
0.0687169 0.0889192 -0.069449 0 0 0
0.0654073 0.0819408 -0.0993944 171 113 87
0.061708 0.0854965 -0.100409 156 73 62
0.0544593 0.100879 -0.10077 158 92 72
0.0569543 0.0880117 -0.0931441 103 52 38
0.0574032 0.0908605 -0.100251 147 102 80
0.0556348 0.0891515 -0.0948057 94 46 33
0.0605104 0.0799621 -0.0837014 133 86 73
0.0549248 0.0866256 -0.091725 111 55 38
0.0629656 0.0825588 -0.101158 106 58 43
0.06208 0.0881858 -0.102498 103 43 24
0.0749763 0.0924577 -0.0941702 129 59 33
0.0612298 0.0862885 -0.0984932 101 50 33
0.0627634 0.0932078 -0.10616 132 76 56
0.0529875 0.0827316 -0.0888982 111 0 0
0.0546511 0.100385 -0.102972 148 88 67
0.0506314 0.0921531 -0.0885812 92 45 34
0.0645149 0.0902048 -0.106214 156 153 109
0.0680829 0.0925579 -0.0802191 65 26 17
0.0757461 0.0913463 -0.0910308 130 77 70
0.0640671 0.0863625 -0.101133 102 50 34
0.0480462 0.0834321 -0.0657012 33 23 18
0.0476779 0.0928163 -0.0827329 147 83 54
0.0503554 0.0914731 -0.0843737 87 41 28
0.0511979 0.0824507 -0.0657415 50 28 23
0.075551 0.0963164 -0.0975489 165 180 144
0.0505781 0.09235 -0.0876519 89 44 32
0.050793 0.108338 -0.105589 224 182 147
0.0563545 0.0946789 -0.10517 185 92 65
0.0594532 0.0856944 -0.096282 103 54 38
0.0542455 0.0853432 -0.0868282 117 79 61
0.0588498 0.0953757 -0.106706 128 75 61
0.0526631 0.079835 -0.0478257 24 17 14
0.0756598 0.0901605 -0.0884617 96 98 87
0.0521958 0.0903893 -0.0819309 100 58 42
0.0619292 0.0873274 -0.100976 127 64 42
0.0569765 0.091296 -0.100527 149 99 71
0.0641704 0.0814729 -0.0985453 140 86 46
0.053413 0.0876867 -0.0837366 93 47 33
0.062504 0.0811194 -0.0832383 124 95 62
0.0509497 0.109256 -0.104801 236 161 122
0.0543077 0.0865905 -0.0903151 118 53 33
0.0654507 0.0813572 -0.100077 151 108 84
0.0606551 0.0869571 -0.0994192 108 53 39
0.0538705 0.0869435 -0.0889811 50 12 0
0.0627727 0.0929159 -0.10659 133 74 54
0.0754317 0.0875409 -0.09132 137 96 63
0.0641682 0.0909211 -0.104848 110 55 40
0.0621242 0.0808155 -0.0893616 103 57 39
0.0508357 0.0918477 -0.0893844 90 45 33
0.0525533 0.106417 -0.103689 161 121 85
0.0523473 0.110945 -0.0914739 163 93 80
0.0509794 0.110115 -0.090541 180 113 87
0.0515132 0.111139 -0.0916048 206 119 105
0.0524661 0.110184 -0.0904737 141 89 73
0.0520843 0.111698 -0.0927246 162 104 85
0.0518871 0.0906126 -0.0811323 80 61 34
0.0556575 0.0996661 -0.106785 139 72 55
0.0535178 0.107212 -0.10576 169 90 64
0.0519243 0.111453 -0.0921083 216 125 84
0.0504118 0.110487 -0.0923191 153 84 60
0.0513794 0.111194 -0.0918401 159 121 97
0.051908 0.111193 -0.0917576 191 102 69
0.0506855 0.110804 -0.0922192 169 94 73
0.051681 0.101469 -0.095703 130 82 64
0.057646 0.0913182 -0.0994639 48 0 0
0.0523597 0.109092 -0.0891554 113 68 47
0.0538471 0.0993289 -0.0982039 122 94 79
0.0528011 0.0897027 -0.082102 100 59 44
0.0549591 0.0901827 -0.0966528 112 67 44
0.0510775 0.106977 -0.102804 183 141 110
0.0490566 0.108597 -0.0936506 139 86 67
0.0567833 0.091913 -0.100031 146 109 94
0.0710095 0.102555 -0.0917028 106 52 40
0.0711678 0.104582 -0.0953203 125 69 52
0.048181 0.110542 -0.100287 207 133 105
0.0567373 0.0889281 -0.0987363 50 0 0
0.052248 0.0832348 -0.0624894 46 33 25
0.0482919 0.10926 -0.098078 173 103 78
0.0486549 0.110494 -0.102299 220 138 108
0.0631569 0.0863434 -0.10131 96 47 35
0.0496659 0.0930737 -0.0843845 86 43 31
0.0536185 0.0996894 -0.0993959 135 84 59
0.0521092 0.10106 -0.0960359 133 81 64
0.0527026 0.100591 -0.0960374 129 78 63
0.0505424 0.106733 -0.102178 178 101 72
0.0582885 0.0856617 -0.0931403 71 19 8
0.0547224 0.079734 -0.0475402 24 17 13
0.0714329 0.10357 -0.0943571 120 71 56
0.0513766 0.102144 -0.0963106 144 90 69
0.0527469 0.0998638 -0.0978532 127 79 64
0.0511416 0.11151 -0.0929263 170 97 78
0.0549697 0.0862054 -0.0922231 124 64 45
0.0576055 0.0920411 -0.0999316 95 45 29
0.0534522 0.0993974 -0.097877 136 85 68
0.0708092 0.103281 -0.0931199 102 49 33
0.0588705 0.0876523 -0.0981059 99 48 31
0.0534198 0.101547 -0.103171 148 80 54
0.0569614 0.0955053 -0.103452 126 73 54
0.0549528 0.0983402 -0.10522 156 86 70
0.0649179 0.0888137 -0.104608 175 133 96
0.0522067 0.10104 -0.0958652 130 81 64
0.0522169 0.100019 -0.0969939 119 68 53
0.0547644 0.0850177 -0.088155 125 67 44
0.0542199 0.10074 -0.101374 147 94 69
0.0617647 0.0889156 -0.10265 114 61 44
0.0557152 0.0980025 -0.104911 112 62 44
0.0644633 0.0861286 -0.101174 103 55 37
0.0562023 0.0875987 -0.094247 100 70 54
0.0493666 0.0672075 -0.036498 22 21 17
0.0479298 0.111621 -0.10107 221 130 104
0.0479234 0.109934 -0.100723 190 106 75
0.058356 0.0897855 -0.100372 175 88 50
0.0498501 0.0653345 -0.0351176 16 18 17
0.0707851 0.0831774 -0.0994624 53 54 96
0.0651164 0.0846581 -0.0774563 113 61 36
0.066652 0.0853023 -0.104203 177 174 141
0.0519093 0.0928478 -0.0923759 82 36 23
0.0482277 0.115615 -0.10389 255 193 167
0.0570705 0.09402 -0.103392 124 75 59
0.0504903 0.109317 -0.104584 230 176 145
0.062236 0.0837247 -0.0987974 136 90 58
0.0516351 0.109694 -0.105393 240 165 128
0.0457668 0.109362 -0.0989987 171 87 74
0.0519653 0.0903751 -0.0847492 91 50 38
0.0764524 0.0822774 -0.0953503 183 76 36
0.0519441 0.0907749 -0.0893145 96 50 38
0.0708314 0.103444 -0.0963539 125 73 56
0.0550169 0.0892462 -0.0942251 68 21 11
0.0607616 0.0905964 -0.102626 112 60 42
0.0621929 0.0812859 -0.0841402 94 33 18
0.0575109 0.0896958 -0.101994 140 77 54
0.0643685 0.0946336 -0.109037 114 59 46
0.0522293 0.0812896 -0.0913095 30 61 52
0.0606611 0.0806276 -0.0861207 94 54 37
0.058017 0.0944365 -0.105124 157 76 54
0.0470125 0.0990185 -0.0925426 100 28 15
0.0643829 0.0892127 -0.10531 123 88 82
0.0535532 0.102408 -0.101855 161 96 77
0.0546687 0.100596 -0.102318 142 90 67
0.0562381 0.0810758 -0.0851157 142 53 33
0.0539115 0.0891981 -0.0924566 42 0 0
0.0530494 0.102396 -0.101296 153 91 69
0.0552013 0.0969639 -0.103774 129 61 45
0.0651764 0.0812624 -0.099364 154 106 67
0.0605038 0.0768173 -0.0814323 149 80 55
0.0729897 0.0867086 -0.0886942 49 0 0
0.0670329 0.089627 -0.105119 120 72 52
0.0745004 0.0908372 -0.092149 145 113 77
0.0536469 0.103562 -0.102818 142 79 58
0.0717731 0.083456 -0.0786254 161 97 43
0.0536955 0.0882903 -0.0913079 123 56 51
0.0553709 0.0996386 -0.106733 113 72 56
0.0744236 0.0942051 -0.0918904 74 31 28
0.0564781 0.085696 -0.0803379 83 40 25
0.0761683 0.101755 -0.0956045 125 86 74
0.0749296 0.0920357 -0.0904849 133 75 64
0.0483291 0.0788641 -0.0580282 65 63 63
0.0508867 0.0944818 -0.0981173 255 216 205
0.049925 0.0926093 -0.0845124 86 43 31
0.0512306 0.068037 -0.0376461 16 17 15
0.0523883 0.10916 -0.106648 225 169 128
0.0735137 0.100849 -0.0950145 150 124 95
0.0476229 0.110723 -0.100604 204 121 99
0.058233 0.0899525 -0.100411 177 80 41
0.0693128 0.0857497 -0.101008 91 52 42
0.0472533 0.0659993 -0.0350423 20 20 21
0.0672091 0.0830687 -0.101642 103 82 90
0.0652682 0.0865735 -0.104828 159 129 96
0.0744925 0.0947398 -0.0982781 155 96 85
0.0496603 0.106936 -0.103124 206 137 98
0.0510934 0.0905754 -0.0875622 95 48 35
0.0595853 0.0877204 -0.100127 128 81 74
0.050242 0.092342 -0.0851493 87 45 33
0.0761424 0.0873694 -0.0973739 209 150 61
0.0662684 0.0789884 -0.0929534 97 28 6
0.0612402 0.0812754 -0.0860544 98 58 45
0.0510835 0.0910584 -0.0897322 91 45 33
0.0720594 0.101626 -0.0924849 102 50 29
0.0706741 0.10295 -0.0961046 120 70 47
0.054289 0.0892301 -0.0924267 113 59 43
0.0607347 0.0909747 -0.103149 116 70 45
0.0619215 0.0806604 -0.0843795 75 56 39
0.061653 0.0888141 -0.102492 115 58 38
0.0712444 0.0830536 -0.0790655 140 89 59
0.0606674 0.08904 -0.101668 133 61 43
0.0603762 0.0812063 -0.0874065 105 45 34
0.0530516 0.102527 -0.102426 143 79 56
0.0602177 0.0889629 -0.100726 107 55 43
0.0510357 0.101844 -0.0994939 124 73 53
0.063745 0.0902126 -0.104596 108 55 40
0.0608696 0.0901672 -0.10308 116 66 46
0.054122 0.100526 -0.101656 122 92 54
0.0752569 0.0866952 -0.101006 163 111 57
0.062047 0.0892278 -0.103871 168 93 51
0.0519139 0.0840065 -0.0859236 84 55 34
0.0536111 0.105719 -0.105949 79 31 19
0.0539385 0.0864986 -0.0917255 27 0 0
0.0600559 0.0814338 -0.0865144 108 54 32
0.0528058 0.101721 -0.102247 145 73 44
0.0541296 0.0960741 -0.103488 178 109 87
0.0538052 0.0808221 -0.0564446 74 55 49
0.0533918 0.0884041 -0.0830849 99 54 39
0.0645767 0.0870545 -0.103773 114 59 43
0.0578954 0.0792632 -0.083099 128 54 27
0.0608353 0.0891251 -0.0711394 68 35 26
0.0748612 0.0888053 -0.0816261 59 31 0
0.0615146 0.0719234 -0.087257 165 106 89
0.0669832 0.0818884 -0.101666 104 114 93
0.0540708 0.101057 -0.102091 153 95 72
0.0675956 0.0834661 -0.0926872 113 60 42
0.0661588 0.0866235 -0.101991 104 53 36
0.0628712 0.0876149 -0.101599 104 51 33
0.0498008 0.11096 -0.0941295 160 83 70
0.0522381 0.106224 -0.10331 155 124 100
0.0504677 0.113396 -0.0953897 185 105 89
0.0504699 0.102203 -0.0948485 112 73 50
0.0503686 0.110602 -0.0918434 137 77 64
0.0496452 0.109782 -0.0936028 128 72 55
0.0525014 0.110985 -0.0914412 129 73 46
0.0530267 0.105936 -0.103817 182 102 79
0.0500312 0.0998914 -0.0934282 191 140 117
0.048226 0.102364 -0.0981732 255 255 255
0.0506194 0.109795 -0.0904275 105 18 0
0.0504687 0.112505 -0.094765 153 82 66
0.0511885 0.11375 -0.0949344 204 120 102
0.0516766 0.109045 -0.0890999 255 166 106
0.0522884 0.109226 -0.0893419 127 91 69
0.0542899 0.106499 -0.107723 165 94 69
0.0514282 0.111567 -0.0928844 152 104 77
0.050503 0.11073 -0.0917132 112 110 105
0.0517694 0.110851 -0.0916318 169 112 89
0.0541214 0.106161 -0.107555 186 111 78
0.0509403 0.0767299 -0.0440656 20 12 10
0.0525486 0.0903043 -0.0811011 70 30 21
0.0515343 0.109913 -0.0903424 228 148 83
0.0505766 0.111596 -0.0933567 178 95 80
0.0493977 0.106257 -0.0939647 154 83 69
0.0502322 0.110682 -0.0923157 135 74 61
0.0504655 0.110684 -0.0918074 95 53 44
0.0518841 0.109642 -0.0897108 134 83 60
0.0510272 0.109641 -0.0901941 38 0 0
0.051112 0.110939 -0.0914769 170 89 83
0.0527816 0.0993162 -0.0963495 113 66 52
0.0642496 0.0890771 -0.104938 164 100 80
0.0502309 0.110668 -0.0921826 148 95 68
0.0513007 0.109175 -0.0893787 107 61 38
0.0588021 0.091371 -0.0666063 29 0 0
0.052409 0.109544 -0.089508 177 111 83
0.0518314 0.10912 -0.0891893 156 103 85
0.0506223 0.110908 -0.0923895 180 114 98
0.052506 0.10909 -0.0889459 152 97 75
0.0496191 0.0931179 -0.0815614 83 46 27
0.0514928 0.111145 -0.0918572 184 142 115
0.050392 0.111034 -0.0928967 176 94 74
0.052381 0.109649 -0.0893942 141 87 72
0.0520591 0.10901 -0.0891198 16 0 0
0.0577677 0.0911315 -0.0997169 95 28 0
0.0532675 0.108538 -0.107109 223 151 115
0.0505926 0.10963 -0.0907147 148 94 44
0.0512141 0.102286 -0.0958656 136 83 62
0.0503953 0.109758 -0.0904979 156 28 0
0.0523763 0.109187 -0.0890852 127 81 58
0.0480502 0.112177 -0.102045 232 148 121
0.0471028 0.0970254 -0.0794637 78 39 29
0.0474689 0.110801 -0.100006 201 118 90
0.0497885 0.10446 -0.0952162 146 86 69
0.0493373 0.109282 -0.100361 201 119 91
0.0494059 0.109971 -0.103284 225 148 115
0.0546821 0.0909366 -0.0963576 106 75 56
0.053332 0.106689 -0.106381 189 92 60
0.0562914 0.0892714 -0.0962009 84 41 28
0.0506062 0.0764181 -0.0527473 3 10 12
0.0496674 0.108367 -0.0937451 116 71 56
0.0502569 0.109918 -0.0906594 224 161 113
0.0547629 0.0997319 -0.0981911 134 79 58
0.0566818 0.0916948 -0.0999787 141 98 83
0.051045 0.0978057 -0.0937943 143 87 71
0.071351 0.103775 -0.0945453 121 71 52
0.0532876 0.106105 -0.103975 133 68 46
0.0479688 0.111886 -0.103237 232 158 131
0.0504046 0.110497 -0.0917516 215 143 116
0.0579996 0.0901364 -0.0692562 58 27 21
0.0518176 0.106048 -0.103505 203 121 80
0.0515293 0.105384 -0.0965068 124 73 56
0.0576166 0.0915189 -0.100919 144 94 70
0.0506187 0.10756 -0.102268 176 95 71
0.0489376 0.109156 -0.0983472 191 111 81
0.052428 0.0920483 -0.0957081 109 58 42
0.0611343 0.0887031 -0.101858 117 51 32
0.0703747 0.102972 -0.0944363 98 45 33
0.0589182 0.089344 -0.0991814 102 56 41
0.0485584 0.110231 -0.10152 209 130 103
0.0632349 0.0864541 -0.100929 101 52 35
0.0500406 0.109776 -0.0906193 165 83 59
0.0569166 0.0876314 -0.0941153 93 43 28
0.057362 0.0982446 -0.106562 126 70 50
0.0498958 0.106614 -0.0935946 116 68 49
0.0606935 0.0890234 -0.101878 87 30 12
0.0523026 0.100583 -0.0965247 136 83 66
0.0577922 0.0982429 -0.107146 121 71 51
0.0505241 0.106763 -0.102193 172 110 77
0.0511939 0.108156 -0.103462 207 125 93
0.0507554 0.108116 -0.103248 202 143 110
0.0519418 0.100632 -0.0962522 132 81 62
0.0532095 0.0995263 -0.0969868 119 69 56
0.0613034 0.0882869 -0.101442 112 58 40
0.0486745 0.109952 -0.0999257 212 132 104
0.0703858 0.0998406 -0.0854246 111 51 36
0.0534029 0.099698 -0.0974673 146 90 72
0.0555272 0.0878985 -0.0925466 95 50 38
0.0504117 0.101062 -0.0960665 139 78 66
0.0546974 0.0831712 -0.0570965 49 30 25
0.0646387 0.0891676 -0.10481 118 66 52
0.0593825 0.0907562 -0.101886 119 74 55
0.0533781 0.101658 -0.103498 144 99 75
0.0601908 0.0909773 -0.068433 62 32 25
0.0538385 0.0891032 -0.0810933 80 38 28
0.0536559 0.102012 -0.104001 162 98 76
0.0541353 0.100743 -0.100949 137 91 66
0.0525891 0.0899928 -0.0816111 92 48 33
0.0501429 0.0922895 -0.0892647 87 40 28
0.0524247 0.0996425 -0.0979321 108 59 45
0.0528941 0.102751 -0.102242 146 79 61
0.0595969 0.0875017 -0.100161 132 81 72
0.0539082 0.0899803 -0.0925212 84 43 30
0.0524812 0.104462 -0.102774 140 84 66
0.0535006 0.105823 -0.105722 83 35 21
0.0496178 0.0950861 -0.0871482 76 32 23
0.0675374 0.086848 -0.105829 135 109 91
0.0441694 0.0662985 -0.037005 22 20 16
0.0479484 0.100719 -0.0948725 135 56 35
0.0565378 0.088563 -0.0660566 44 18 14
0.0481923 0.0969081 -0.0851376 69 31 21
0.061117 0.0878987 -0.101073 114 57 49
0.0502316 0.103288 -0.0959326 149 91 73
0.0766912 0.099853 -0.0918254 120 150 139
0.0589019 0.097784 -0.107708 130 74 55
0.0496616 0.09567 -0.088136 90 46 36
0.0500594 0.110327 -0.103998 243 164 129
0.0568018 0.10158 -0.10803 120 57 34
0.0508188 0.109841 -0.104299 235 148 114
0.0476045 0.112774 -0.102633 213 114 104
0.0605999 0.0903922 -0.102015 106 52 35
0.0509785 0.10765 -0.102933 196 130 98
0.0597193 0.0912632 -0.103102 132 70 51
0.0652122 0.0819063 -0.0994065 153 135 92
0.0594829 0.0884841 -0.10079 168 68 0
0.0581944 0.0869039 -0.0700143 60 28 24
0.0696145 0.105588 -0.0969158 121 64 51
0.0525434 0.0902436 -0.0901668 96 50 37
0.0621894 0.0880618 -0.101938 110 61 41
0.0666779 0.0908863 -0.105836 119 74 57
0.0646297 0.0927066 -0.0691402 26 0 0
0.0471018 0.112189 -0.1029 212 137 115
0.0529335 0.100793 -0.0997602 140 87 67
0.0495646 0.103927 -0.0980784 149 81 57
0.0530199 0.088743 -0.08156 93 41 25
0.0636268 0.0814987 -0.0841918 189 78 59
0.0652956 0.089191 -0.10387 103 55 36
0.0556919 0.0834009 -0.0874006 112 52 30
0.0625587 0.0863168 -0.101539 124 63 52
0.0695527 0.0942743 -0.0788237 75 28 8
0.069535 0.0939004 -0.0801116 87 44 29
0.0763753 0.0879388 -0.0828014 105 72 57
0.0591458 0.0961696 -0.106723 123 68 51
0.0611899 0.0873559 -0.0997348 106 54 37
0.0600384 0.090968 -0.102213 117 69 49
0.0673192 0.0922848 -0.0810331 55 16 7
0.0701499 0.0806713 -0.0809685 172 33 14
0.0649062 0.0858146 -0.10068 103 54 38
0.0557791 0.0962709 -0.102871 124 65 47
0.0498416 0.0938007 -0.0897397 83 37 24
0.0591764 0.0845762 -0.062957 81 45 36
0.0432656 0.0665947 -0.0368464 22 19 15
0.0491667 0.0868316 -0.071389 48 23 17
0.0554638 0.0871292 -0.0652489 40 20 17
0.0557652 0.105855 -0.108671 119 65 42
0.0597376 0.0875993 -0.100813 148 65 29
0.0576214 0.104823 -0.107724 126 67 48
0.0522703 0.0685155 -0.0386194 18 16 14
0.0583363 0.0994883 -0.10807 130 71 55
0.0478083 0.112907 -0.104259 255 159 133
0.0507554 0.107723 -0.104436 183 236 188
0.049511 0.0576813 -0.0231254 0 0 0
0.0492465 0.0956564 -0.0876757 105 58 46
0.0498228 0.110646 -0.104524 244 173 140
0.0630282 0.0811606 -0.0892598 109 0 0
0.0489295 0.0912607 -0.0893101 153 121 81
0.0615136 0.0893732 -0.103793 150 94 61
0.0471713 0.112125 -0.101967 201 95 88
0.0596019 0.0852364 -0.0977769 110 65 45
0.0608467 0.0898407 -0.102268 120 71 50
0.0495431 0.106609 -0.103047 213 150 105
0.0582682 0.093646 -0.102774 124 71 54
0.0643709 0.0817645 -0.0982534 163 108 64
0.063477 0.0928414 -0.107001 131 73 55
0.0670117 0.0734285 -0.0834054 69 48 44
0.0614031 0.0925181 -0.105348 111 56 40
0.0571364 0.0855428 -0.0702879 51 22 20
0.0523019 0.101248 -0.102585 116 75 41
0.0717786 0.0943706 -0.0820135 0 0 0
0.0535066 0.100957 -0.100255 149 86 66
0.0518174 0.108594 -0.105111 232 165 123
0.0700083 0.106515 -0.0969749 131 76 54
0.0618723 0.0877254 -0.101989 126 59 43
0.0672465 0.0883849 -0.1078 118 66 48
0.0662302 0.0824857 -0.100352 132 90 91
0.0672412 0.0902204 -0.105045 111 64 41
0.0590892 0.0821072 -0.0875855 109 51 36
0.0738004 0.0880207 -0.0974898 160 90 81
0.0651326 0.0923326 -0.0698303 23 0 0
0.0710347 0.0837982 -0.0822243 255 131 137
0.0460043 0.1115 -0.101827 235 150 129
0.0486662 0.109212 -0.0989771 201 120 92
0.0543122 0.0881082 -0.0820146 93 50 35
0.0577885 0.0962883 -0.106191 152 89 68
0.0526487 0.100834 -0.0993524 130 76 59
0.0581771 0.0956128 -0.104594 129 78 60
0.0606143 0.0899181 -0.102328 128 62 34
0.053802 0.100687 -0.100807 133 93 66
0.075371 0.0811861 -0.0808592 182 117 138
0.0721526 0.0935394 -0.0996835 124 66 43
0.0651053 0.0860734 -0.101371 98 44 29
0.0641313 0.0909792 -0.0713618 45 19 15
0.0507435 0.113885 -0.0956233 188 113 93
0.0503565 0.113322 -0.0954771 185 103 86
0.0478875 0.101644 -0.0840322 54 30 22
0.0506336 0.102276 -0.0945746 131 80 65
0.0499556 0.111886 -0.0942356 143 83 66
0.0505784 0.110538 -0.0919156 142 98 79
0.0495783 0.109704 -0.0940027 131 80 60
0.0521274 0.11094 -0.0914838 128 62 32
0.0489183 0.112291 -0.0955634 206 124 96
0.052968 0.105968 -0.103745 172 95 72
0.0483827 0.103147 -0.0850067 67 34 26
0.0507897 0.110011 -0.090625 183 104 75
0.0515058 0.111071 -0.0913641 156 95 73
0.0512931 0.110866 -0.0918185 186 148 117
0.0510248 0.109738 -0.0904543 98 21 0
0.0528821 0.106022 -0.103905 177 111 86
0.0516446 0.109821 -0.0900723 67 9 0
0.0402618 0.063735 -0.0339569 26 19 17
0.0504791 0.110466 -0.0914367 170 129 106
0.0493949 0.105751 -0.0922606 75 26 15
0.0511114 0.0914238 -0.0814401 87 57 40
0.0503122 0.10518 -0.0944596 123 72 57
0.05354 0.10669 -0.105816 154 96 69
0.050556 0.111636 -0.0933396 170 95 82
0.0503297 0.110715 -0.0922848 149 79 69
0.0507858 0.112138 -0.094214 156 96 77
0.0501783 0.0927223 -0.0814013 86 47 34
0.0503818 0.11072 -0.092121 154 92 73
0.0512295 0.10919 -0.0893701 102 57 37
0.0589908 0.0918724 -0.0662355 32 0 0
0.0509213 0.10957 -0.0900241 20 0 0
0.0508309 0.110938 -0.0923557 164 98 77
0.0524878 0.109231 -0.0888513 156 102 80
0.053329 0.106079 -0.106531 168 90 63
0.0524691 0.108902 -0.105947 227 153 110
0.0501531 0.111018 -0.0930143 214 129 100
0.0536158 0.10852 -0.107828 194 124 92
0.0519906 0.107919 -0.104192 205 123 92
0.0581871 0.0908607 -0.100114 106 34 0
0.0504214 0.109832 -0.0905767 137 95 59
0.0512131 0.102244 -0.0952879 80 35 20
0.055073 0.0976897 -0.104634 143 73 57
0.0475135 0.111309 -0.0992181 210 126 99
0.0495286 0.108373 -0.094023 155 82 62
0.053691 0.107847 -0.107504 194 119 85
0.0498003 0.106193 -0.0938152 108 58 45
0.0488288 0.0952412 -0.0857345 75 31 20
0.0513727 0.0909344 -0.0819844 96 56 40
0.0492117 0.110258 -0.103346 234 155 119
0.0550087 0.0896101 -0.0957431 110 54 39
0.0590234 0.0862068 -0.0989805 178 106 117
0.0564108 0.0894987 -0.0966089 90 41 27
0.0568326 0.0914374 -0.0999908 154 107 73
0.0712803 0.104515 -0.0948582 124 70 52
0.0480994 0.11162 -0.103374 240 164 134
0.057712 0.0956196 -0.109213 255 197 172
0.0502486 0.11015 -0.0918998 179 99 67
0.0511667 0.110021 -0.0905194 156 116 94
0.0539063 0.107422 -0.106379 163 90 62
0.0538378 0.107387 -0.107002 177 110 88
0.056651 0.0889722 -0.0987395 65 0 0
0.0553986 0.100101 -0.105671 117 65 48
0.0522615 0.109773 -0.106688 232 161 118
0.0485611 0.109447 -0.0983382 197 122 94
0.0613006 0.0890119 -0.101944 103 46 29
0.0487093 0.1102 -0.102505 212 128 102
0.0503091 0.109694 -0.0906543 155 100 78
0.0569549 0.0868095 -0.0929712 76 40 29
0.0515827 0.105369 -0.102147 138 75 55
0.0507684 0.112292 -0.0943445 150 83 66
0.052541 0.100957 -0.096288 134 83 66
0.0506248 0.109051 -0.103638 223 140 106
0.0616673 0.0865444 -0.100469 108 62 44
0.0513082 0.0906342 -0.0902636 81 35 23
0.0533699 0.0994731 -0.0977738 130 84 68
0.063869 0.0924379 -0.0701521 53 24 17
0.058801 0.0903157 -0.0687662 60 29 22
0.055343 0.100626 -0.106826 145 83 66
0.0596838 0.0915757 -0.0680338 61 28 20
0.0554441 0.0994377 -0.106239 135 72 57
0.0672247 0.108443 -0.0985724 127 74 53
0.0525632 0.109211 -0.0892271 123 73 56
0.0646783 0.0892778 -0.104944 71 28 13
0.0535928 0.101836 -0.1037 153 96 74
0.0543694 0.100736 -0.1012 145 89 69
0.057503 0.0916463 -0.0999222 106 48 30
0.0522895 0.100902 -0.095823 123 74 58
0.0611163 0.0905979 -0.103445 114 59 41
0.0539132 0.0843911 -0.0630813 0 0 0
0.0534547 0.0897829 -0.0924779 37 0 0
0.050898 0.0672809 -0.0378079 16 18 17
0.0596619 0.0873775 -0.100134 137 84 74
0.0532124 0.103379 -0.103107 144 94 71
0.0524236 0.0997474 -0.0975847 106 59 44
0.054024 0.106655 -0.108015 187 113 85
0.0534604 0.105471 -0.105427 142 71 52
0.0567328 0.0980378 -0.106149 126 71 51
0.0505421 0.107975 -0.10336 197 139 111
0.048318 0.109981 -0.1007 200 117 89
0.0563104 0.086254 -0.0919609 95 51 36
0.0528759 0.1033 -0.103049 158 102 76
0.0608656 0.0899636 -0.103075 119 66 47
0.0601215 0.0890589 -0.101469 120 70 52
0.0492285 0.0967261 -0.0876486 84 42 32
0.0474253 0.112965 -0.102262 221 115 96
0.0603055 0.0900608 -0.101516 102 54 35
0.0536755 0.100784 -0.100524 134 91 64
0.0699617 0.105924 -0.096806 122 64 47
0.0526416 0.0692368 -0.0379089 0 17 14
0.064441 0.0812173 -0.0985562 149 102 60
0.0483856 0.10961 -0.0983924 191 119 93
0.0523724 0.100772 -0.0991759 125 73 54
0.0691382 0.0957074 -0.0783721 32 0 0
0.0455671 0.0697072 -0.0403606 21 19 15
0.0506444 0.0574526 -0.026018 0 0 0
0.043061 0.0581502 -0.0242995 28 24 17
0.0507778 0.10306 -0.104658 227 255 255
0.0457977 0.0650947 -0.0369915 22 21 18
0.052106 0.108337 -0.105607 252 183 131
0.0512588 0.0620587 -0.028225 0 0 0
0.0517626 0.0707267 -0.0360426 0 20 20
0.0482987 0.0631102 -0.0346232 16 18 18
0.0527203 0.0853508 -0.0727791 54 26 20
0.0531489 0.059125 -0.0228333 0 0 0
0.0762018 0.0991516 -0.0945612 158 147 122
0.0755468 0.100389 -0.0927429 198 194 147
0.0596119 0.0909873 -0.101337 106 55 40
0.0500763 0.107862 -0.10334 192 145 112
0.0588132 0.0896606 -0.100073 119 59 46
0.0477547 0.110284 -0.104355 255 113 104
0.0460568 0.109311 -0.101553 180 71 80
0.0566227 0.0804925 -0.0886119 70 44 29
0.0474776 0.112958 -0.101789 233 140 117
0.0501924 0.10656 -0.103862 207 133 100
0.0492532 0.0955859 -0.0887525 89 46 36
0.0592977 0.0817716 -0.0946977 110 78 41
0.060071 0.0890163 -0.101477 159 88 59
0.0597465 0.0814131 -0.0915504 49 0 0
0.0653047 0.081868 -0.0887245 97 70 65
0.0751957 0.10145 -0.0917816 138 39 3
0.0600955 0.0836217 -0.0942152 104 61 41
0.0596692 0.0905665 -0.102122 119 77 48
0.0634914 0.0808427 -0.0902879 127 65 36
0.064806 0.0826198 -0.0995418 149 102 68
0.078801 0.0870647 -0.0814896 239 122 80
0.053535 0.0862498 -0.0753255 64 29 19
0.0544939 0.0877929 -0.078959 69 32 21
0.0728957 0.0959693 -0.100707 119 67 47
0.0525001 0.10385 -0.101892 152 81 63
0.0524547 0.10084 -0.0991284 127 71 53
0.0605995 0.0871333 -0.101272 127 70 61
0.0743261 0.0885156 -0.0969475 106 82 47
0.060066 0.090618 -0.102513 122 72 42
0.0568685 0.0834811 -0.0879524 109 68 39
0.0706839 0.0955153 -0.0841113 89 43 31
0.0519488 0.0848724 -0.0812058 109 28 12
0.06216 0.0850068 -0.0693317 93 57 35
0.0602128 0.0939676 -0.106638 149 77 63
0.056229 0.082978 -0.0869465 111 52 37
0.0725879 0.0881581 -0.0895058 97 29 21
0.0508206 0.1076 -0.102666 199 124 101
0.0650646 0.0911349 -0.0698233 44 10 6
0.0526822 0.072134 -0.0385949 34 24 20
0.048007 0.113099 -0.102956 238 144 117
0.0647732 0.0806284 -0.0932484 111 74 58
0.0622136 0.0815799 -0.0944246 110 56 31
0.0600394 0.0822271 -0.0938553 121 74 49
0.0632306 0.0913741 -0.105781 126 69 42
0.0712367 0.0871928 -0.0835441 0 0 0
0.0524977 0.0994581 -0.0983176 93 64 54
0.0662162 0.0822049 -0.100175 155 108 71
0.0617221 0.0807408 -0.0866712 48 23 30
0.0736888 0.0992163 -0.0993212 128 76 56
0.0691611 0.086653 -0.0856528 112 61 54
0.0553293 0.087258 -0.0794538 62 22 15
0.0626217 0.0891943 -0.104257 140 98 70
0.0684068 0.0919307 -0.0774493 73 37 30
0.0735694 0.0933995 -0.091432 106 55 38
0.0649892 0.0850062 -0.0814098 138 71 46
0.0527633 0.0879797 -0.0778611 68 36 26
0.0661285 0.0909944 -0.0811925 62 32 15
0.0464913 0.069153 -0.0395154 21 19 17
0.0510863 0.0578701 -0.0253055 0 0 0
0.0459623 0.0558779 -0.0250964 0 14 13
0.0508854 0.102883 -0.104664 218 255 255
0.0671558 0.0775488 -0.0862422 187 116 145
0.0472396 0.0662452 -0.0370943 24 20 18
0.0521777 0.108136 -0.105977 255 195 134
0.0501625 0.0600824 -0.0287489 0 0 0
0.0511618 0.0709578 -0.0377839 0 20 16
0.0509681 0.0849401 -0.0724795 58 29 22
0.0521821 0.0575242 -0.0232082 0 0 0
0.0525425 0.0812871 -0.0662312 72 46 40
0.0666662 0.0820032 -0.102072 149 96 72
0.0545462 0.0850983 -0.0667371 44 25 25
0.074986 0.100071 -0.0918414 230 189 89
0.0521179 0.10709 -0.105054 236 203 122
0.0477244 0.113618 -0.103493 249 166 139
0.0577666 0.0914894 -0.102913 164 98 68
0.0504089 0.108306 -0.102608 204 140 113
0.058371 0.0907679 -0.101453 139 85 58
0.0478891 0.11216 -0.103821 240 155 126
0.0452851 0.109875 -0.100557 196 81 85
0.0477828 0.113282 -0.100978 235 144 120
0.0630212 0.0829019 -0.0954888 101 52 36
0.071713 0.102099 -0.0953275 138 98 83
0.059407 0.0895639 -0.100849 150 78 40
0.0490733 0.106383 -0.0958878 175 106 86
0.0731906 0.0950219 -0.0977821 132 96 63
0.073177 0.0999279 -0.0913766 94 40 32
0.0598239 0.0895822 -0.101857 111 75 52
0.0684323 0.100966 -0.0849563 103 47 33
0.0704814 0.09296 -0.102479 110 61 43
0.0649516 0.0816662 -0.0991611 172 136 92
0.0615313 0.0822578 -0.0958061 122 77 53
0.0726085 0.0967922 -0.0984716 115 70 48
0.0596181 0.084836 -0.0935759 88 39 24
0.0535526 0.0999144 -0.0985107 162 100 81
0.0515869 0.101732 -0.0975755 150 89 71
0.0715147 0.0924773 -0.101066 114 61 45
0.0588191 0.0872757 -0.0981107 114 63 43
0.0603313 0.091513 -0.102914 117 66 48
0.0518999 0.0863829 -0.0863425 86 32 23
0.0610199 0.085668 -0.0719487 108 61 45
0.064607 0.0817964 -0.0991925 183 132 87
0.0753331 0.0992909 -0.0967042 141 125 98
0.069071 0.0926209 -0.0738022 67 32 18
0.0603809 0.0910334 -0.104545 208 102 76
0.0550655 0.0848335 -0.0873122 94 48 30
0.0479196 0.0914871 -0.0912974 255 255 190
0.0492601 0.107218 -0.0970555 174 101 84
0.0603078 0.0842506 -0.0937786 93 44 29
0.0518611 0.0721982 -0.0416692 19 17 15
0.047862 0.112202 -0.103047 237 142 116
0.0653183 0.0813472 -0.0947217 100 53 40
0.0628728 0.091375 -0.104186 110 56 40
0.0643408 0.0947328 -0.0734186 61 30 20
0.066884 0.0855414 -0.10319 80 16 8
0.065206 0.0917771 -0.0725771 56 27 19
0.0706517 0.084845 -0.0988225 110 58 35
0.0550124 0.0872079 -0.080048 75 36 26
0.0644503 0.0951845 -0.0726804 68 34 24
0.0658645 0.0860343 -0.104188 156 142 120
0.0737296 0.099316 -0.0985115 123 63 48
0.0506387 0.102141 -0.0947753 130 90 72
0.0471465 0.0798795 -0.0576356 29 29 31
0.0529333 0.105935 -0.103781 175 97 73
0.0519228 0.110916 -0.0914547 215 149 131
0.0511706 0.10983 -0.0903675 111 24 0
0.052956 0.105875 -0.104069 184 105 73
