ply
format ascii 1.0
comment Created by Open3D
element vertex 1194
property double x
property double y
property double z
property uchar red
property uchar green
property uchar blue
end_header
0.0701327 0.0396859 -0.0200383 16 0 0
0.0298495 0.0538573 -0.0296501 14 0 0
0.040953 0.079131 -0.0132203 88 56 48
0.0413046 0.0196912 -0.0353539 255 154 136
0.0343407 0.0286478 -0.0394623 255 255 255
0.0356436 0.0222515 -0.0399359 255 255 234
0.038543 0.0208647 -0.0361902 255 239 222
0.037591 0.0220018 -0.0380588 255 255 255
0.045676 0.0277635 -0.0321334 230 204 200
0.0438127 0.0282787 -0.0313658 255 255 255
0.0340497 0.0246948 -0.0387552 222 153 120
0.0395203 0.029898 -0.0314326 148 125 115
0.0345103 0.0260736 -0.03818 255 255 255
0.0332846 0.0294242 -0.0386927 255 168 176
0.0370287 0.0280139 -0.0328408 141 99 84
0.0394411 0.0237577 -0.0286626 156 138 122
0.0348549 0.0268753 -0.0300582 0 0 0
0.033519 0.0317612 -0.0292237 157 134 121
0.0356784 0.0301384 -0.0323167 0 0 0
0.0322912 0.0279387 -0.0223408 200 241 222
0.0338073 0.0314607 -0.0290816 183 171 153
0.0326381 0.0319122 -0.0284051 255 213 243
0.0307111 0.0339336 -0.0275308 255 255 255
0.0319043 0.0333986 -0.0199867 161 115 88
0.033505 0.0325759 -0.0234703 126 95 84
0.0319808 0.0306387 -0.0188501 141 100 76
0.040019 0.0298301 -0.0133924 215 177 164
0.0381221 0.0316804 -0.0202202 211 153 152
0.0391784 0.0293822 -0.01756 255 206 188
0.0332863 0.0333775 -0.0227581 165 111 93
0.027867 0.0325826 -0.0298681 217 170 171
0.0263484 0.0324894 -0.0290835 143 114 98
0.0344945 0.0368211 -0.0218643 82 53 45
0.0282983 0.0346377 -0.017598 255 255 255
0.0270514 0.035207 -0.0179759 212 177 155
0.0349995 0.0364983 -0.0107479 0 0 0
0.0266366 0.0354976 -0.0254884 0 0 0
0.0290345 0.0397849 -0.0264352 0 0 0
0.0279221 0.0373913 -0.0204713 151 91 65
0.0267667 0.0410789 -0.0228232 230 159 118
0.0238988 0.039258 -0.0249582 54 0 0
0.0254492 0.0411682 -0.0250201 255 255 255
0.0273192 0.0404633 -0.0268916 255 255 255
0.0251725 0.0424492 -0.0293263 255 255 255
0.033767 0.047686 -0.0143201 0 0 0
0.0372028 0.0478856 -0.0122366 81 53 44
0.0228693 0.0449857 -0.0263959 255 255 255
0.0248058 0.0463666 -0.0185482 0 0 0
0.0241104 0.0437326 -0.0293919 255 255 255
0.0373051 0.0473832 -0.00972037 0 0 0
0.0367325 0.0479965 -0.00717804 93 63 54
0.0243625 0.0437371 -0.0278743 255 255 255
0.0240962 0.0480129 -0.0268373 255 170 144
0.0248009 0.04546 -0.0235934 251 160 123
0.0351038 0.0491432 -0.0113545 8 0 0
0.0251854 0.0433508 -0.018452 128 82 67
0.0288524 0.0465211 -0.0104832 0 0 0
0.02205 0.0445384 -0.0294613 21 50 54
0.0226141 0.0443862 -0.0283854 255 234 217
0.0223572 0.0448959 -0.0277039 0 0 0
0.0273289 0.0485526 -0.018376 187 152 129
0.0228556 0.0469666 -0.0270628 0 0 0
0.0246734 0.0489164 -0.0266863 212 160 136
0.0233555 0.0458824 -0.0283744 130 14 0
0.0355063 0.0546308 -0.0111554 124 95 82
0.0250946 0.049408 -0.0138284 187 150 123
0.0256825 0.0511309 -0.0147973 233 195 162
0.023621 0.0436559 -0.0256981 0 0 0
0.0553863 0.0590905 0.00443886 203 168 153
0.0263275 0.0508376 -0.014517 190 151 122
0.0230509 0.0531444 -0.0327992 0 0 0
0.0282369 0.0542039 -0.0214237 0 0 0
0.0244666 0.0482503 -0.0280061 167 134 110
0.0291605 0.0566799 -0.018387 149 115 100
0.0263272 0.0540834 -0.0238026 13 0 0
0.0279921 0.0557476 -0.0196033 0 0 0
0.0242232 0.0512385 -0.0221221 0 0 0
0.0278437 0.054006 -0.0202699 0 0 0
0.0255533 0.0511715 -0.0311298 220 150 125
0.0287166 0.0544985 -0.022577 0 0 0
0.0312281 0.0592834 -0.0200737 115 87 68
0.0243854 0.0542376 -0.0307901 0 0 0
0.0281315 0.0548613 -0.0268472 92 51 41
0.0629217 0.0668261 -0.0098636 78 71 72
0.0253321 0.0535953 -0.0306273 118 79 68
0.0370024 0.063977 -0.0194461 0 0 0
0.0272189 0.0533907 -0.0267049 158 124 116
0.0301996 0.055081 -0.0231134 131 106 87
0.0248628 0.0509128 -0.0300488 74 66 58
0.0281931 0.0576844 -0.0287082 0 0 0
0.0304177 0.0559034 -0.0228339 183 142 125
0.0306279 0.059855 -0.0229847 255 227 202
0.0282314 0.0521397 -0.0272076 28 0 0
0.0297483 0.0595406 -0.0207016 255 255 214
0.0344639 0.0640257 -0.0175921 86 104 94
0.0298644 0.059974 -0.0290319 0 0 0
0.0273696 0.0546271 -0.039465 255 255 255
0.0277926 0.0580377 -0.0300418 0 0 0
0.0282909 0.0606801 -0.0291347 0 0 0
0.0315712 0.065089 -0.0231856 132 92 72
0.0258974 0.061874 -0.027357 70 43 37
0.0271027 0.0620928 -0.0280107 62 38 26
0.0493089 0.0738862 -0.0115675 67 45 37
0.0295215 0.0555832 -0.0288863 0 0 0
0.0434745 0.0754466 -0.0117737 99 70 57
0.0297327 0.0666677 -0.0287774 29 0 0
0.0549564 0.0752233 -0.013919 87 59 52
0.0291959 0.0611854 -0.0276597 36 0 0
0.0293036 0.0698741 -0.0296289 62 36 29
0.0290064 0.0614823 -0.0307842 19 0 0
0.0309827 0.0724892 -0.0167241 96 47 41
0.0345233 0.0631955 -0.0230079 151 98 83
0.0382812 0.0788755 -0.017932 67 44 36
0.0314027 0.0653698 -0.0221159 97 66 56
0.0310343 0.0733806 -0.0229421 95 69 60
0.0423645 0.0839931 -0.0219215 79 51 42
0.0301394 0.0707523 -0.0208558 3 0 0
0.0404932 0.0820648 -0.0233025 86 56 46
0.0439005 0.0834477 -0.0226569 79 49 38
0.0306607 0.0644426 -0.0465336 146 89 77
0.0463867 0.0819102 -0.0199653 86 55 45
0.0306107 0.0753989 -0.0287608 42 30 25
0.0384052 0.0806065 -0.0231778 39 16 9
0.0443057 0.0843964 -0.0227412 77 47 36
0.0325447 0.0650553 -0.045262 131 67 56
0.0484829 0.0812652 -0.0204074 57 33 21
0.0485531 0.0841104 -0.0147741 224 180 167
0.0463597 0.0835711 -0.0238696 84 56 46
0.0402447 0.082266 -0.02058 109 80 71
0.0478034 0.0853396 -0.0260456 39 32 25
0.0439886 0.0239122 -0.0337467 155 112 103
0.0471859 0.0259631 -0.0272469 255 255 255
0.0522739 0.0285592 -0.0350778 161 126 114
0.0465926 0.0230211 -0.0252198 255 255 255
0.0442456 0.0279142 -0.0276323 154 111 92
0.057746 0.0247949 -0.0389188 230 206 214
0.0502036 0.0276596 -0.0307353 108 71 60
0.0276726 0.0436319 -0.0224271 133 108 82
0.0406583 0.057416 -0.00631133 64 38 33
0.0265387 0.0551533 -0.0294306 42 18 9
0.0714964 0.0682189 -0.0171577 142 86 78
0.0333715 0.058951 -0.014243 28 27 26
0.0253654 0.054565 -0.0291396 120 86 75
0.0309967 0.0604923 -0.0212495 255 255 255
0.0496295 0.0748557 -0.0108907 76 61 53
0.0661651 0.0752372 -0.0206103 138 127 131
0.0320842 0.0671909 -0.0205077 247 163 152
0.0441779 0.0801173 -0.0129404 101 78 71
0.0432858 0.0780681 -0.0125897 56 32 27
0.0511415 0.0801293 -0.0126812 163 119 94
0.0454897 0.081816 -0.0145235 110 83 70
0.0304387 0.0667434 -0.0180794 221 172 161
0.0314023 0.0692655 -0.0211889 129 92 88
0.0413565 0.0838585 -0.0222742 76 49 41
0.035229 0.0664025 -0.0266545 39 14 10
0.052353 0.0864353 -0.0270347 79 50 41
0.0642924 0.0344159 -0.0740679 177 128 111
0.0419624 0.0432419 -0.0657058 181 129 108
0.0581922 0.0296343 -0.06285 170 125 104
0.0455076 0.0265181 -0.0577471 36 7 8
0.0648622 0.0343389 -0.0800888 186 145 131
0.0697653 0.0601719 -0.0630607 255 246 214
0.0680196 0.0620433 -0.0555399 118 80 65
0.0402721 0.0377652 -0.0630847 96 73 59
0.0340677 0.0605726 -0.0293604 84 55 46
0.0408313 0.034483 -0.0624739 132 96 81
0.0412748 0.053253 -0.00927461 34 24 13
0.0664029 0.0628096 -0.0564418 95 65 53
0.0522405 0.0291038 -0.0655906 72 0 20
0.0403165 0.0556179 -0.0108083 255 255 255
0.0426038 0.0282528 -0.0581321 199 162 147
0.0321081 0.0435125 -0.0318244 156 112 92
0.0697737 0.0512265 -0.0582133 167 136 123
0.0668258 0.0552049 -0.0713611 168 150 128
0.0585281 0.0778883 -0.0189875 255 255 255
0.0410943 0.0540589 -0.0162941 82 53 45
0.0397966 0.0585779 -0.000192603 255 255 255
0.0694487 0.0452553 -0.0224605 0 0 0
0.0478163 0.0294932 -0.0380069 255 255 255
0.0344648 0.0328658 -0.0289675 33 0 0
0.0715851 0.0800943 -0.0257972 0 0 0
0.027693 0.0407957 -0.0295072 0 0 0
0.0557813 0.0252743 0.000435123 0 0 0
0.0815544 0.0521948 -0.00665266 0 0 0
0.0795022 0.0726633 -0.0130525 0 0 0
0.0749786 0.0360035 -0.00385204 0 0 0
0.064421 0.0439629 -0.0631285 24 0 0
0.0744386 0.039329 -0.00401441 0 0 0
0.0681848 0.0381305 -0.0660587 242 176 155
0.0514469 0.0241785 -0.0520357 31 18 15
0.021794 0.038464 -0.0107646 72 0 0
0.0548674 0.0211152 -0.0353478 0 157 150
0.0259615 0.0557413 -0.0153578 23 0 0
0.025476 0.0308156 -0.00707301 0 0 0
0.0316059 0.0404707 -0.0332049 19 1 0
0.0732609 0.063399 -0.0235963 60 34 27
0.0409633 0.0829017 -0.00408258 0 0 0
0.0274474 0.0666238 -0.00766991 0 0 0
0.0765871 0.0370667 -0.0384845 74 12 23
0.0512815 0.0815205 -0.0222502 77 48 37
0.0781564 0.0765609 -0.0186171 0 0 0
0.0423433 0.022009 -0.0394972 0 15 16
0.0416913 0.0808776 -0.00968675 39 28 23
0.0217252 0.0598074 -0.0318861 0 0 0
0.0627611 0.0436725 -0.0134534 178 146 126
0.0352373 0.0595561 -0.010535 178 147 140
0.0302525 0.0527457 -0.0293957 99 83 72
0.0228893 0.0431983 -0.0232393 0 0 0
0.0271028 0.0598894 -0.0131863 0 0 0
0.0487319 0.0272161 -0.0325847 255 221 210
0.0347051 0.0756513 -0.0213979 39 0 0
0.0413799 0.0355141 -0.0620308 163 120 98
0.0252306 0.0614315 -0.0238417 0 0 0
0.0323925 0.0774475 -0.0127029 166 108 92
0.0325285 0.0297317 -0.0334676 99 65 56
0.0536608 0.0214534 -0.0332887 0 0 0
0.0393132 0.054952 -0.0123137 99 67 58
0.0736908 0.043772 -0.0601023 214 164 136
0.0681918 0.0399785 -0.0568052 0 0 0
0.0392081 0.0328486 -0.0462846 35 12 5
0.0441517 0.0279215 -0.0338144 81 52 42
0.0370307 0.0257845 -0.0321517 121 92 78
0.0678481 0.0339615 -0.0603487 255 191 144
0.0514933 0.0234198 -0.0444879 104 82 69
0.0681986 0.0413347 -0.0461162 126 110 102
0.0308168 0.052944 -0.0291074 127 96 79
0.0684038 0.0367832 -0.0748783 145 114 98
0.0404681 0.028429 -0.0367069 136 109 93
0.0343974 0.0304527 -0.0289074 0 0 0
0.0786525 0.0677933 -0.021836 0 0 0
0.0463179 0.0287015 -0.0356782 95 66 55
0.061209 0.027033 -0.000895249 0 0 0
0.0738521 0.0537592 -0.0156855 0 0 0
0.0469706 0.0319552 -0.0179928 83 45 37
0.0318881 0.0348522 -0.0234586 32 0 0
0.0561359 0.0289137 -0.0422735 69 44 36
0.0633113 0.0412192 0.00578064 85 59 49
0.0713568 0.0348543 -0.00440284 0 0 0
0.0328533 0.0403101 -0.0346707 111 72 53
0.031347 0.0414238 -0.0307131 140 93 81
0.0320815 0.0415412 -0.0296604 0 0 0
0.0533871 0.0237679 -0.0425845 65 34 27
0.0745827 0.0400648 -0.00500373 0 0 0
0.0434193 0.0214647 -0.0433051 108 59 53
0.0726531 0.0536685 -0.0155433 0 0 0
0.0234318 0.0351823 -0.00983352 58 0 0
0.0583238 0.0289229 -0.0480542 96 56 44
0.0271643 0.0313354 -0.00763148 80 0 0
0.0273319 0.0360668 -0.0264545 109 123 109
0.0422172 0.0831363 -0.00593113 0 0 0
0.0433059 0.032006 -0.0296685 68 45 35
0.0791151 0.0402192 -0.0432719 171 144 144
0.040754 0.0323874 -0.0216756 86 66 54
0.0460368 0.0347713 -0.0178414 85 54 42
0.0729461 0.0344815 -0.0307312 31 0 0
0.0592138 0.0801654 -0.0208729 48 33 26
0.0471542 0.0222686 -0.0445337 41 14 6
0.0741964 0.073748 -0.0251376 0 0 0
0.0458508 0.0794504 -0.0131209 71 50 41
0.0733646 0.0850247 -0.0168709 255 232 0
0.0238972 0.0516412 -0.0338303 0 0 0
0.0325769 0.054115 -0.0303829 91 72 61
0.0261781 0.0373156 -0.0163267 0 0 0
0.0450686 0.0762656 -0.0138409 69 47 39
0.0722395 0.037333 -0.0429181 0 90 84
0.0752526 0.0512987 -0.0468978 0 0 36
0.075358 0.0414394 -0.0391102 0 0 0
0.0745421 0.0411649 -0.022506 25 0 0
0.0613069 0.0326379 -0.0671802 141 93 74
0.0742266 0.0402069 -0.0461967 84 41 30
0.0741415 0.0445783 -0.0522719 100 96 95
0.0706131 0.0463219 -0.051912 0 0 0
0.0318518 0.0292754 -0.0221059 195 152 142
0.038353 0.0256374 -0.0278349 0 0 0
0.0542088 0.0414942 0.0187815 155 121 109
0.0355863 0.0276476 -0.0407779 115 66 55
0.0662506 0.0348958 -0.0478152 107 65 61
0.0666361 0.0798252 -0.0370975 92 63 51
0.0272776 0.0400316 -0.0185863 155 112 89
0.0641389 0.0346518 -0.0796251 151 112 102
0.0572297 0.0255127 -0.0585513 255 237 232
0.0700315 0.0385014 -0.0679588 98 88 86
0.0313663 0.0483135 -0.0294738 161 120 99
0.0428917 0.0473935 -0.0647028 171 130 106
0.0577595 0.0333016 -0.0652027 255 214 194
0.0455741 0.0256315 -0.0593723 171 108 95
0.0660207 0.0535844 -0.0718242 49 23 17
0.0397485 0.0364866 -0.0639905 113 79 66
0.039293 0.0383457 -0.0636367 112 81 76
0.0320809 0.0567361 -0.0356077 61 32 23
0.050637 0.0232171 -0.0590416 143 108 96
0.0649455 0.033533 -0.0804543 194 148 133
0.0420606 0.0430849 -0.0641188 46 8 0
0.0416706 0.0570119 -0.00272143 255 255 255
0.0455109 0.0545554 -0.0101202 74 46 38
0.0606774 0.0332347 -0.0720243 115 72 59
0.0503892 0.0233108 -0.0591637 136 95 87
0.0597973 0.0301368 -0.0626899 151 108 91
0.0509628 0.0224271 -0.0569248 255 255 255
0.0603826 0.030921 -0.0607677 146 89 69
0.0542986 0.0251061 -0.0574839 156 114 98
0.0511595 0.0221862 -0.0590255 241 213 207
0.0677105 0.0343123 -0.0733219 207 175 160
0.0412093 0.0336145 -0.0626401 130 93 80
0.0410435 0.0336231 -0.0629008 129 93 78
0.0649948 0.0361318 -0.0795271 148 113 99
0.038232 0.0562099 -0.0127153 83 53 44
0.0401283 0.0591568 -0.00297658 255 255 255
0.0472841 0.0241416 -0.0478903 102 77 68
0.0413175 0.0554758 -0.0127272 133 91 71
0.0418454 0.0323022 -0.0605445 160 117 96
0.0305387 0.061616 -0.0187125 255 255 224
0.0694777 0.0617503 -0.0631261 226 216 191
0.0512405 0.0234645 -0.0586476 188 238 210
0.0405926 0.0562717 -0.0127123 76 49 40
0.0384659 0.0545539 -0.000853988 255 255 255
0.0370089 0.0547669 -0.0160037 82 52 42
0.0406693 0.0588174 -0.00136017 255 255 255
0.0624899 0.0322314 -0.0709234 161 110 91
0.0316223 0.0452388 -0.0231365 80 52 42
0.0510981 0.0354261 -0.0245113 45 28 22
0.0382489 0.0485022 -0.0121415 84 56 46
0.032314 0.0534247 -0.0205883 107 70 57
0.0638189 0.0844841 -0.00543016 0 0 0
0.0700313 0.0280008 -0.0286571 222 167 147
0.0509091 0.023791 -0.0469369 121 87 79
0.0427106 0.0209322 -0.0555255 255 255 254
0.0488308 0.0461102 -0.00822567 123 78 71
0.0559735 0.0422057 0.0307189 255 255 255
0.0672738 0.050598 -0.0623171 130 103 84
0.0797478 0.0579793 -0.0154217 108 100 91
0.0411484 0.062595 -0.0163752 0 0 0
0.0371671 0.0483171 -0.0146087 80 53 45
0.0542294 0.0817456 -0.0023045 0 0 0
0.0479143 0.0244081 -0.0491261 100 69 59
0.0454031 0.0252171 -0.0375269 81 60 53
0.0449277 0.0238547 -0.0436335 129 89 78
0.0566992 0.0386336 -0.0128873 69 47 42
0.0672741 0.0768531 -0.00946275 70 42 36
0.0621385 0.074124 -0.0268648 75 49 41
0.0724753 0.0580934 -0.0392203 125 93 66
0.0469065 0.0255119 -0.0427312 39 22 15
0.0563031 0.0844313 -0.00818443 0 0 0
0.0577873 0.0761476 0.00828035 0 0 0
0.0690844 0.0497451 -0.00769645 88 40 46
0.0682488 0.0746283 -0.0253692 59 41 34
0.0444934 0.0318347 -0.0319194 75 48 38
0.0243452 0.0576602 -0.012757 0 0 0
0.0465848 0.0839488 0.00775887 0 0 0
0.0653527 0.065137 -0.0228004 72 45 38
0.0570992 0.0665014 -0.0177625 108 74 63
0.0614902 0.0670527 -0.0207861 72 43 36
0.0534098 0.0647543 -0.0137442 72 41 35
0.0516629 0.0401695 -0.0100064 108 81 70
0.0487984 0.0476136 -0.00599798 88 55 48
0.0284709 0.0699255 -0.0138649 85 72 61
0.0623785 0.0470515 -0.0212251 124 70 55
0.0381733 0.0421595 -0.0141706 77 51 41
0.0501 0.0748866 -0.0125644 164 93 77
0.0463942 0.0768028 -0.0119507 60 43 30
0.0363623 0.0526952 -0.0134314 30 21 25
0.0341765 0.0450816 -0.0175351 81 53 44
0.0372734 0.0463095 -0.0164717 48 27 23
0.0384377 0.0291635 -0.0342928 122 94 78
0.056498 0.0495606 -0.0177632 78 51 43
0.0635082 0.0769729 0.00212881 91 50 0
0.0427603 0.0852003 -0.00665094 165 125 103
0.0496423 0.0826997 -0.0149909 93 62 48
0.0608596 0.0375329 -0.010202 0 0 0
0.0611547 0.0324079 -0.0316393 138 119 119
0.0306083 0.0479036 -0.0231041 51 27 21
0.0626434 0.0309843 -0.0355793 73 47 38
0.0460313 0.0445263 0.0137349 64 40 31
0.0574516 0.0591822 -0.0173744 62 3 0
0.0485283 0.0391683 -0.00409906 65 39 30
0.053754 0.0392302 -0.00863856 21 0 0
0.0559109 0.0258292 -0.0455178 122 85 76
0.0399682 0.0463987 -0.010891 124 91 77
0.0547597 0.0790071 0.00687415 0 0 0
0.0518016 0.0676446 -0.0116289 52 30 28
0.074973 0.0770668 -0.0255014 0 0 0
0.0718569 0.0571713 -0.0530135 126 91 81
0.0791478 0.0619115 -0.0178909 149 84 71
0.0601564 0.0310522 -0.065951 130 71 48
0.0463985 0.0788657 0.0116681 133 101 89
0.0618766 0.0654773 -0.0211301 68 40 33
0.0595907 0.0244175 -0.0450071 255 246 217
0.063262 0.0310792 -0.0655686 203 168 158
0.0272933 0.0595016 -0.0242352 136 102 84
0.0600975 0.0382576 -0.0148373 119 91 79
0.0457955 0.0373737 -0.0233117 80 53 43
0.0502886 0.0834323 0.00482445 0 0 0
0.0559111 0.0562775 -0.011933 83 48 39
0.0542302 0.0344285 -0.00931528 49 22 19
0.0427101 0.0319941 -0.0596463 144 101 87
0.0237007 0.0505095 -0.011016 0 0 0
0.0500873 0.0368135 -0.00251044 0 0 0
0.039418 0.0577218 -0.00104302 0 0 0
0.0395224 0.0455402 0.0114165 0 255 255
0.0773933 0.064153 -0.0440237 133 104 103
0.057976 0.0792129 -0.0172376 142 106 74
0.0695383 0.0413075 -0.0374889 69 0 0
0.0723237 0.0432824 -0.0409564 0 0 0
0.0707436 0.0589947 -0.0155675 69 43 37
0.0753584 0.0501717 -0.0199271 11 0 0
0.0720457 0.0450954 -0.0598975 160 143 125
0.0526773 0.0237905 -0.0446042 147 119 95
0.0743794 0.0748171 -0.027894 0 0 0
0.0423441 0.0263242 -0.0589894 146 102 86
0.0658135 0.0315496 -0.0427765 127 76 52
0.051907 0.0226949 -0.0438898 89 69 61
0.0677794 0.041004 -0.0216648 61 24 22
0.0695604 0.0432902 -0.0596884 164 94 82
0.0343578 0.0664133 -0.0216357 113 70 59
0.0594229 0.0416719 -0.0388461 80 49 43
0.0552234 0.0267383 -0.032184 89 63 54
0.0759349 0.0651596 -0.0436105 22 11 0
0.0724834 0.0702111 -0.0202344 55 37 28
0.0693271 0.03706 -0.0355476 189 119 93
0.0730316 0.0448893 -0.0492646 73 54 49
0.0615962 0.0287697 -0.0649838 72 35 12
0.051801 0.0353987 -0.0163396 16 12 4
0.0355909 0.0493039 -0.0110624 255 231 191
0.0600744 0.079406 -0.0239351 123 60 38
0.0339619 0.047834 -0.0183791 77 52 41
0.0533431 0.0797812 -0.0176636 79 51 42
0.0534113 0.0258687 -0.0454058 64 41 37
0.0690355 0.039915 -0.0697269 122 110 85
0.044529 0.0369128 -0.010109 104 77 66
0.0671779 0.0429297 -0.0594574 16 0 0
0.0703855 0.0723857 -0.0123523 255 255 255
0.0404624 0.0473272 -0.0128432 83 53 43
0.0387132 0.062874 -0.0167764 0 0 0
0.0287341 0.0450706 -0.0273715 0 0 0
0.0335199 0.0500925 -0.0205503 80 54 44
0.0428602 0.0261377 -0.046646 83 52 43
0.0432176 0.0239063 -0.0453501 116 79 66
0.0366578 0.0561414 -0.0160219 10 0 0
0.0303119 0.046405 -0.0437023 0 0 0
0.053356 0.034324 -0.0161653 26 0 0
0.0565908 0.0251913 -0.0559255 53 31 23
0.0680773 0.0756783 -0.0103481 66 37 29
0.0459382 0.0260143 -0.0433537 80 51 44
0.0531814 0.0834344 -0.00555466 255 172 205
0.0326295 0.0516669 -0.0198796 139 95 79
0.0272913 0.0673497 -0.00703929 0 0 0
0.0694097 0.0475695 -0.00883669 31 0 0
0.0603317 0.0702587 -0.0164631 76 47 40
0.0381877 0.0546611 -0.0150953 56 34 28
0.0672037 0.0694705 -0.0236073 76 48 40
0.0236781 0.054202 -0.0127226 0 0 0
0.0439623 0.0751837 -0.00980276 78 60 48
0.0568577 0.0441363 -0.0200816 77 50 41
0.0568736 0.0717634 -0.0127408 29 0 0
0.0511642 0.079289 0.00292845 0 0 0
0.0615646 0.06829 -0.0211751 64 42 34
0.0447711 0.0457673 -0.00770764 71 51 42
0.0414077 0.043545 -0.0147152 82 55 44
0.0561059 0.0809768 -0.0199106 69 43 35
0.0438017 0.0533609 -0.00753443 143 136 126
0.05082 0.0832194 0.0022458 0 0 0
0.0529904 0.0711693 -0.0126776 72 46 40
0.0311025 0.0435847 -0.0220969 49 30 19
0.0395112 0.0361671 -0.0161569 76 48 38
0.0610539 0.0798657 0.0100682 120 0 0
0.0322535 0.0437916 -0.0214666 86 52 45
0.0331766 0.0508113 -0.0187021 54 33 26
0.0754412 0.04735 -0.0358123 72 55 46
0.065337 0.0326179 -0.0690881 0 135 122
0.058382 0.0597936 -0.0136806 77 47 39
0.0549827 0.0427634 -0.0228635 85 58 47
0.0393346 0.0648281 -0.0162396 72 0 0
0.0505018 0.0366534 -0.00208113 160 119 92
0.055278 0.0405542 -0.0111695 111 77 76
0.0459372 0.0532581 -0.00721725 139 11 0
0.0578378 0.0278775 -0.0471684 90 68 59
0.0609829 0.0461615 -0.00844217 71 0 0
0.044406 0.0674351 -0.0124078 98 59 50
0.0522043 0.0553329 0.0145957 115 83 75
0.0387234 0.0494484 0.00548175 83 60 51
0.0447884 0.0735424 -0.00122819 45 36 29
0.0644764 0.0315236 -0.0691699 255 245 220
0.0553109 0.0335823 -0.0335995 83 54 45
0.0366205 0.054758 -0.0613358 255 255 236
0.0528949 0.0836291 0.00394919 0 0 0
0.071491 0.0424131 -0.0493572 34 24 23
0.0765792 0.0395196 -0.020272 251 150 152
0.0401099 0.0275272 -0.0597137 67 42 39
0.0436766 0.0551423 -0.0138335 84 54 47
0.0655105 0.0697905 -0.0260955 123 78 70
0.0692276 0.0683169 -0.0238273 131 87 71
0.034588 0.0367574 0.00102068 0 0 0
0.0374886 0.0691715 -0.0163395 59 36 25
0.0480349 0.074662 -0.00286327 58 41 34
0.0762533 0.0553786 -0.0184823 50 26 21
0.0674517 0.0357371 -0.0346014 169 120 101
0.0480915 0.0249003 -0.0441581 100 68 58
0.0495892 0.0249157 -0.044108 77 49 42
0.0758164 0.0742712 -0.027523 0 0 0
0.0223581 0.0543333 -0.0323508 167 125 112
0.0678538 0.0396081 -0.0728514 122 124 121
0.0233931 0.0588152 -0.0235403 0 0 0
0.0728026 0.0363617 -0.0400233 28 14 20
0.0549288 0.0245842 -0.0421796 55 0 0
0.039395 0.0313718 -0.0269537 52 33 29
0.0734273 0.0610209 -0.0375948 85 28 8
0.0730475 0.045743 -0.0199204 0 0 0
0.07155 0.0424241 -0.0559316 81 37 0
0.0691664 0.0376304 -0.0536008 0 0 0
0.0752179 0.0792163 -0.0199905 0 0 0
0.029743 0.0558491 -0.0247121 28 0 0
0.0394612 0.024116 -0.0452378 67 48 40
0.0720471 0.0789483 -0.0334048 0 0 0
0.0568228 0.0317368 -0.0344349 93 67 55
0.0619796 0.0421123 -0.0249165 198 122 108
0.0680036 0.0408027 -0.0602468 48 0 0
0.0627659 0.0292047 -0.0636805 58 0 0
0.0739804 0.0715585 -0.0232979 70 42 34
0.0640232 0.0468622 -0.0301408 66 56 49
0.0660522 0.0703268 -0.0324207 73 49 41
0.0312056 0.0371038 -0.0269431 229 162 123
0.0689044 0.0405332 -0.0388486 87 50 48
0.0386689 0.0254332 -0.0328455 0 0 0
0.0784168 0.048537 -0.0450056 186 127 116
0.073374 0.0419965 -0.0636952 162 198 153
0.0539106 0.024222 -0.0597545 131 97 90
0.0571927 0.026625 -0.058392 255 217 193
0.0581629 0.0276115 -0.0583497 75 46 35
0.0693932 0.0609204 -0.0635194 229 200 165
0.0510063 0.0232064 -0.0583279 230 255 255
0.0696338 0.0589009 -0.0638795 244 225 196
0.0675021 0.0547782 -0.0602001 133 92 78
0.0402824 0.0391049 -0.0638741 117 86 72
0.0651429 0.0354715 -0.0795131 143 108 95
0.0510414 0.0262121 -0.0657713 96 61 51
0.0523895 0.0244632 -0.0573611 255 204 120
0.0383402 0.057525 -0.00220204 255 255 255
0.0323272 0.0568163 -0.0237152 90 63 51
0.0614871 0.0300178 -0.0644391 83 41 0
0.039059 0.0549363 -0.0125346 69 44 36
0.0417162 0.0553237 -0.0166197 88 62 51
0.0503214 0.0237576 -0.0601013 255 255 255
0.0647906 0.032261 -0.0618386 216 158 133
0.042106 0.0565034 -0.0153606 89 60 48
0.0391765 0.0577206 -0.00147651 255 255 255
0.0402206 0.0506659 -0.0683118 224 198 177
0.0424649 0.053592 -0.00955321 75 46 37
0.0609215 0.0352591 -0.0616448 218 186 160
0.0391214 0.0577131 -0.00145249 255 255 255
0.0686802 0.0379177 -0.0707584 140 150 119
0.0624173 0.028723 -0.0643536 0 0 0
0.0400904 0.0400804 -0.0641429 120 81 74
0.0410411 0.057651 -0.00470717 108 255 255
0.0339148 0.0436661 -0.0249342 82 55 44
0.0711776 0.0416186 -0.0652283 139 50 44
0.0324602 0.0477875 -0.0313716 148 117 97
0.05482 0.0496065 -0.00559276 78 49 40
0.0339472 0.0479758 -0.0209298 79 52 43
0.0404578 0.0499401 -0.0108136 95 67 57
0.046755 0.0502662 -0.00920426 79 52 43
0.046105 0.0182919 -0.0450076 207 149 130
0.0261056 0.0481606 -0.0105727 252 208 181
0.0374544 0.0419184 -0.0477769 140 103 86
0.0727905 0.0687464 -0.00578258 120 88 77
0.0633946 0.0352082 -0.0661864 84 34 16
0.0711334 0.070375 -0.005566 0 0 0
0.0526769 0.0712836 -0.0109635 67 37 30
0.0647097 0.0646786 -0.0225385 71 45 38
0.065285 0.0574797 -0.0143092 85 56 49
0.0518986 0.0318434 -0.0160821 117 83 71
0.0440372 0.0443179 -0.0143952 183 129 115
0.05485 0.0757648 -0.0168883 51 34 26
0.0432778 0.0469955 -0.00889255 90 62 53
0.0351243 0.0431777 -0.0148186 83 52 42
0.0464522 0.074421 -0.0135464 64 41 33
0.0567261 0.0658844 -0.00986303 69 36 34
0.0616865 0.0746109 -0.017242 98 60 52
0.0702547 0.065198 -0.0192893 42 30 20
0.0399108 0.0410929 -0.0122881 119 88 72
0.0663164 0.0609391 -0.0117076 74 41 34
0.0584423 0.0568257 -0.0109773 69 48 40
0.0566948 0.0770681 -0.0174127 54 3 2
0.0355637 0.0526341 -0.0174435 73 46 35
0.0404641 0.047527 -0.00510064 91 67 50
0.0550643 0.0829675 -0.00725685 0 0 0
0.0589796 0.0733633 -0.0166172 73 49 39
0.0603013 0.0628551 -0.0125301 98 67 55
0.0426839 0.0285804 -0.0587577 35 16 7
0.0378596 0.0529919 -0.0157338 46 26 23
0.064335 0.0478977 -0.0215782 63 41 36
0.0625554 0.0804868 0.00300261 0 0 0
0.0546503 0.0697308 -0.0143999 113 76 68
0.0586834 0.0848759 -0.030403 101 50 36
0.0406435 0.0564977 0.012526 86 86 84
0.0500293 0.0704246 -0.00990989 59 33 27
0.0648237 0.0825691 0.000681567 0 0 0
0.0485276 0.0564292 -0.00768882 66 41 35
0.0657067 0.0735118 -0.0023934 109 77 64
0.0326409 0.0710572 -0.0154581 73 41 34
0.0328322 0.047885 0.0230676 0 95 115
0.0346382 0.053365 -0.0182038 75 49 42
0.0330987 0.0546763 0.0160869 234 130 0
0.0697847 0.0586607 -0.00590789 54 36 31
0.0339976 0.0445867 -0.021019 83 54 45
0.0647861 0.0775851 -0.0044286 0 0 0
0.0598913 0.0745278 0.0146647 0 0 0
0.0467854 0.0569154 -0.00184996 68 43 37
0.057797 0.0411863 -0.00901173 80 57 47
0.0499038 0.0442936 -0.0116346 79 52 47
0.0425815 0.0579644 0.0081594 77 41 31
0.0593418 0.043371 -0.00724814 73 49 40
0.0524231 0.0774125 -0.0112533 119 38 0
0.043577 0.0424707 -0.00354024 118 89 71
0.0538909 0.0529617 -0.0106166 112 91 96
0.0421327 0.0562686 -0.0129334 10 0 0
0.0712055 0.0715606 -0.0205053 36 0 0
0.0730154 0.057512 -0.0402699 255 239 198
0.0522685 0.0482271 -0.0106781 80 53 45
0.0697287 0.0699519 -0.0406756 55 32 30
0.0306644 0.0548198 0.00482609 0 0 0
0.0490678 0.0551 -0.00951663 69 46 38
0.0574289 0.0550208 -0.00890122 27 0 0
0.0575726 0.0564676 -0.00889505 28 0 0
0.0565265 0.0805142 -0.00933566 190 130 117
0.0496047 0.0700236 -0.000672659 156 127 119
0.0340855 0.0380628 -0.0187558 80 53 43
0.0449872 0.0595787 -0.0132438 149 106 99
0.0551072 0.0432937 -0.0203596 62 33 25
0.0409934 0.0794621 -0.000776369 159 142 135
0.0449578 0.0668348 -0.009889 68 72 91
0.0400457 0.0321298 -0.0465363 108 73 63
0.0484383 0.0310712 -0.0216499 76 49 41
0.0757991 0.0433995 -0.0501 56 0 0
0.0309929 0.0335731 -0.0233041 48 0 0
0.0676605 0.0747608 -0.0199397 180 142 141
0.0227675 0.0507518 -0.0108413 255 208 177
0.0239231 0.0588733 -0.0156291 0 0 0
0.0673988 0.0799243 -0.0310489 64 26 30
0.0314233 0.0751131 -0.0134888 211 148 132
0.0275667 0.0316184 -0.00297863 98 75 67
0.0227744 0.0572129 -0.0207185 0 0 0
0.072285 0.067248 -0.0415921 98 45 33
0.0582032 0.0303189 -0.0597336 159 122 101
0.06907 0.0622207 -0.0566414 131 90 80
0.0330022 0.0511621 -0.0302394 177 140 111
0.0629218 0.0315006 -0.0682175 128 91 78
0.0646435 0.0346577 -0.0723043 128 72 82
0.065803 0.0648545 -0.0122059 76 49 40
0.0445124 0.046995 -0.00955282 74 48 37
0.0544255 0.0702154 -0.00877365 65 51 45
0.0505935 0.0662766 -0.0136353 0 3 3
0.0354629 0.0434433 -0.0117706 122 82 70
0.0514124 0.0821337 -0.0215065 43 34 32
0.0558816 0.0729218 -0.0141172 41 24 17
0.0534536 0.0412178 0.0141406 113 87 77
0.0638268 0.0666122 0.00214805 168 120 109
0.0367373 0.0555791 0.00134622 79 50 41
0.0688742 0.0670292 -0.012625 94 76 71
0.0659287 0.0787448 -0.0180046 170 104 101
0.0709961 0.0386775 -0.0519821 47 25 0
0.0645562 0.0444611 -0.0204728 31 0 0
0.0730788 0.078466 -0.0273187 0 0 0
0.0726438 0.0552243 -0.0221458 58 35 28
0.0730287 0.0791987 -0.0279498 0 0 0
0.0396609 0.0248178 -0.0514488 78 29 22
0.071952 0.0441736 -0.00704918 234 115 96
0.0716663 0.0542941 -0.0364001 104 81 67
0.0582512 0.0280526 -0.0481197 83 54 52
0.0605442 0.0327887 -0.0677381 137 88 79
0.044975 0.0535949 -0.0666334 154 108 91
0.0307144 0.0466612 -0.0219584 63 37 30
0.05779 0.04572 -0.00497564 65 39 33
0.0411959 0.0348536 -0.0159222 76 50 41
0.037908 0.0591359 -0.0161568 91 57 47
0.0708914 0.073852 -0.0134931 0 0 0
0.0509943 0.0768817 -0.011512 76 52 43
0.0563714 0.0445595 -0.00303473 68 38 32
0.0532539 0.0737374 -0.0141721 65 38 32
0.0415358 0.0516138 -0.00286086 112 151 150
0.0259314 0.0658948 -0.0250725 65 33 31
0.0509971 0.0638792 -0.00238501 90 65 56
0.0738481 0.0488087 -0.0516196 62 0 0
0.0308753 0.0507814 -0.00431478 171 119 96
0.0486571 0.0917433 -0.00526702 149 107 90
0.066492 0.0356037 -0.0736314 154 101 86
0.0482439 0.0626442 -0.00510823 255 255 255
0.0446484 0.0569104 0.00159526 90 70 58
0.0539163 0.0238065 -0.0507326 194 166 145
0.0688648 0.0522965 -0.0581135 155 98 84
0.07084 0.0531221 -0.0615542 147 110 93
0.0635877 0.0394782 -0.0222088 166 101 100
0.0368243 0.0610756 -0.0171635 102 72 58
0.0751808 0.0754056 -0.0223732 57 35 0
0.0700148 0.0404858 -0.0251927 0 0 0
0.0516387 0.0247523 -0.0538066 51 28 19
0.0739992 0.0607988 -0.0102702 255 195 196
0.0781421 0.0661136 -0.0229764 0 0 0
0.0545147 0.0193961 -0.0455015 222 139 116
0.0359128 0.048685 -0.01492 77 49 40
0.0608481 0.0634613 -0.0124538 68 40 34
0.0469731 0.0519652 -0.0077131 90 60 52
0.0607138 0.0646964 -0.0128636 63 37 31
0.0380723 0.0340989 -0.0243677 82 55 45
0.0361658 0.0518509 -0.0118017 83 60 51
0.0194442 0.0637195 -0.0327339 0 0 0
0.0405807 0.035045 -0.0160818 62 39 33
0.0521535 0.0334222 -0.0163763 37 18 15
0.0219001 0.0704186 -0.035812 27 13 23
0.0571383 0.0761936 -0.0176089 38 13 0
0.03562 0.0404994 -0.0153707 128 98 95
0.0494698 0.0731748 -0.0140118 59 38 31
0.0585369 0.065608 -0.0122722 55 29 22
0.0318996 0.0458069 -0.0211817 89 59 50
0.061769 0.0447347 0.00621508 84 62 58
0.0725371 0.0753234 -0.0207047 51 27 20
0.0593821 0.0709881 -0.0169945 72 45 37
0.0415102 0.0387993 -0.0143446 34 20 16
0.0672785 0.0630611 -0.0167879 79 52 44
0.0313265 0.0650563 -0.0256775 95 69 58
0.0618106 0.0750853 -0.0194141 73 45 38
0.0535192 0.0639509 -0.0134657 46 24 21
0.0657637 0.0781876 -0.0225028 28 15 11
0.0475577 0.0453624 -0.0138768 80 53 45
0.0349337 0.0543997 -0.0160978 76 48 41
0.070218 0.0668024 -0.0226016 78 52 44
0.0466986 0.052026 -0.00831085 152 113 96
0.0407178 0.0479289 -0.00799181 77 55 44
0.060999 0.0732441 -0.0165779 70 44 35
0.0316681 0.0483153 -0.0279889 151 121 91
0.0567616 0.0685057 -0.0149411 52 36 30
0.0582799 0.0746379 -0.0171269 81 56 41
0.0725846 0.0630846 -0.0184112 61 39 32
0.0595894 0.062688 -0.0125083 94 59 50
0.0436178 0.028805 -0.0568625 241 180 160
0.0655014 0.0501946 -0.0138434 53 28 25
0.0561093 0.0745203 -0.0146117 154 89 75
0.0513716 0.0770608 0.0102529 0 0 0
0.0434794 0.0578119 0.0185348 110 86 71
0.0523259 0.0495998 -0.00815844 81 54 46
0.0738926 0.0696307 -0.0193139 40 12 0
0.0376413 0.0503319 -0.0123663 80 53 45
0.0469901 0.0524558 -0.00892874 76 51 41
0.0648199 0.0521216 0.00190529 55 32 29
0.0385176 0.0436206 -0.00544837 95 72 61
0.0692145 0.0602752 -0.0070895 76 37 36
0.0677066 0.0667318 -0.0208224 70 46 38
0.063981 0.0724831 -0.0199769 80 46 42
0.0566689 0.0766962 -0.0157068 90 51 44
0.065426 0.0780846 -0.00748063 0 0 0
0.0415279 0.0543577 -0.0138136 0 0 0
0.0404572 0.0511566 0.0210492 0 0 0
0.0351142 0.0384607 0.00672958 95 74 70
0.0572923 0.0363579 -0.01777 94 57 47
0.0577331 0.0621676 -0.0143536 65 35 30
0.0456812 0.0391577 -0.00829102 174 146 124
0.0439564 0.0579565 -0.0100834 51 40 28
0.0533257 0.058216 -0.0119725 102 69 58
0.020631 0.0623237 -0.0348672 64 0 0
0.0297046 0.0366826 -0.0236567 0 0 0
0.0739198 0.0447265 -0.0460231 0 81 77
0.0588276 0.042862 -0.0394169 100 66 55
0.0535637 0.0441205 -0.00863482 66 48 39
0.0726351 0.0482502 -0.0481162 117 0 0
0.0520209 0.0724327 -0.0142239 74 46 38
0.0630233 0.0339168 -0.0705515 173 138 118
0.0696242 0.081204 -0.0288482 0 0 0
0.0437041 0.0452799 -0.01154 170 115 137
0.0448651 0.0559905 -0.00888358 74 50 39
0.0699588 0.0510202 0.00867707 0 0 0
0.0442454 0.0766915 0.0133764 44 0 0
0.0440183 0.0549413 -0.0118226 80 47 39
0.0743788 0.0552666 -0.0400849 175 141 114
0.0738575 0.0694161 -0.0445914 130 93 84
0.0653512 0.0831141 0.00444556 0 0 0
0.0464508 0.0566034 -0.00861614 77 52 43
0.0640557 0.061806 -0.00822936 110 67 64
0.0429728 0.0597738 -0.0125139 48 33 22
0.0543518 0.0404495 -0.00849799 128 84 78
0.0457042 0.0586691 -0.0123928 82 53 43
0.0572876 0.0287687 -0.0423955 84 54 45
0.0711254 0.0669882 -0.0386662 70 55 47
0.0700297 0.0332246 -0.0543709 10 0 0
0.0757242 0.0456765 -0.0417301 0 0 0
0.0231592 0.056089 -0.01703 0 0 0
0.0730259 0.0498847 -0.0409656 182 131 105
0.0643724 0.0333724 -0.0713622 229 191 172
0.025263 0.0554595 -0.0210532 4 0 0
0.0560235 0.0259144 -0.0604233 137 87 74
0.068959 0.0583079 -0.0576678 145 106 98
0.0652091 0.0336992 -0.0730465 131 67 55
0.0257026 0.0534184 -0.0122407 140 109 92
0.0632251 0.0443639 -0.0753722 71 13 9
0.0390889 0.040757 -0.0141192 85 57 47
0.0487645 0.0220057 -0.0511322 16 0 0
0.0421452 0.0361069 -0.0163846 76 47 38
0.0703693 0.0720909 -0.0235534 0 0 0
0.0583943 0.0419122 -0.0127835 103 81 69
0.0334639 0.0433017 -0.017418 75 49 40
0.0497458 0.0807162 -0.0170027 63 40 31
0.0678758 0.0379088 -0.0251309 168 166 152
0.0490088 0.067095 -0.01091 61 40 35
0.0332938 0.0545824 0.0225186 92 61 48
0.0416204 0.0557039 -0.064807 82 59 46
0.0490592 0.0585466 -0.00904494 75 47 38
0.0513437 0.0853509 -0.00260291 205 140 122
0.0625449 0.0812774 -0.0146744 116 103 92
0.0511956 0.0196476 -0.0426838 255 234 204
0.0717863 0.0525809 -0.0235107 47 24 15
0.0717672 0.0503134 -0.02198 22 0 0
0.0744859 0.0731399 -0.0256584 0 0 0
0.0702851 0.0594544 -0.0525956 86 50 44
0.0381492 0.04778 -0.0678399 171 121 96
0.0653098 0.0409233 -0.0414471 127 49 49
0.0701056 0.0513956 -0.0216165 108 54 59
0.0714937 0.067561 -0.0415195 67 0 0
0.0732801 0.0632095 -0.0422006 132 0 0
0.0353787 0.0393976 -0.0191594 49 20 4
0.0611619 0.032646 -0.0667302 131 83 57
0.0665613 0.0448399 -0.076289 61 24 24
0.0404985 0.032397 -0.0191768 71 42 33
0.0367765 0.0445949 -0.0219557 81 53 43
0.0678199 0.068358 -0.0228528 70 44 36
0.0361853 0.0474992 -0.0185298 0 0 0
0.0486929 0.0771419 -0.0147463 68 45 37
0.0511024 0.0615421 -0.0018606 137 135 127
0.0351967 0.0499999 -0.0350525 22 0 0
0.0603797 0.0451291 -0.00562693 39 17 16
0.0506999 0.0726221 -0.0113737 105 72 61
0.032586 0.0402305 -0.0178437 46 28 18
0.0400776 0.0511704 -0.00181777 159 127 111
0.0684371 0.047929 -0.0630782 37 11 0
0.0382352 0.049318 -0.00975552 39 18 8
0.033579 0.0492925 0.00916665 101 75 63
0.0511207 0.0785058 -0.0153671 69 44 36
0.0361898 0.0456033 -0.00727322 134 88 72
0.0394539 0.0488424 -0.00878459 87 60 48
0.0475331 0.0692193 -0.0106004 95 70 57
0.0525503 0.0892657 -0.00721688 154 111 93
0.0559617 0.0424391 -0.00924095 0 0 0
0.0759543 0.0614344 -0.00797846 148 93 81
0.0672437 0.0445189 -0.0584959 153 107 95
0.0701567 0.0526644 -0.0583993 200 145 132
0.0636111 0.0384741 -0.0264877 17 0 0
0.0658287 0.0297029 -0.0450509 214 161 138
0.072297 0.0454514 -0.0214638 140 77 62
0.0672916 0.0335347 -0.0676069 255 255 255
0.0729285 0.0460553 -0.0464028 51 29 13
0.0667891 0.0457535 -0.0217413 85 86 70
0.0488367 0.0669077 -0.00824107 42 40 39
0.0735577 0.0634515 -0.015682 27 33 33
0.0585876 0.0304521 -0.0604625 77 47 0
0.0652929 0.0388329 -0.0775729 101 82 68
0.0696753 0.0596745 -0.0633417 224 199 166
0.0606939 0.0311284 -0.0600139 0 0 0
0.0665246 0.0545309 -0.0715714 58 35 29
0.040971 0.0395106 -0.063073 246 173 186
0.0672425 0.0368197 -0.0758571 80 55 48
0.0409834 0.0334133 -0.0627129 111 86 74
0.0410695 0.0388546 -0.0626934 154 98 83
0.0526218 0.0250288 -0.0560787 161 118 96
0.0400911 0.0400045 -0.0641068 94 68 56
0.0653718 0.0350887 -0.0795102 150 112 97
0.0404198 0.0396205 -0.0643147 105 75 57
0.0397314 0.0571507 -0.00541668 219 146 132
0.0578602 0.0308174 -0.06386 177 130 107
0.0589122 0.0310472 -0.0651339 163 119 97
0.0395173 0.0561071 -0.00474598 255 255 255
0.0486634 0.048272 0.00546398 204 175 154
0.0406171 0.0551716 -0.0118028 255 255 255
0.0383052 0.0584669 0.00262146 255 255 255
0.0600381 0.0322819 -0.0631759 192 146 124
0.0411994 0.0567485 -0.0149507 113 81 67
0.0388405 0.0572368 0.00205793 255 255 255
0.0308175 0.0615928 -0.0195862 255 255 255
0.04045 0.0369214 -0.0629654 108 79 64
0.0422443 0.053872 -0.00924455 83 53 43
0.059779 0.0326798 -0.0620322 182 131 111
0.0395217 0.0579022 -0.00120664 255 255 255
0.0405737 0.0314109 -0.0628728 112 85 69
0.0674411 0.055236 -0.0577426 164 120 101
0.04088 0.0560175 -0.0123818 21 0 0
0.0591429 0.0339756 -0.0653941 167 121 99
0.04036 0.0581091 -0.00296759 255 255 255
0.0372852 0.042525 -0.0430444 147 84 71
0.0655326 0.0318371 -0.0693143 79 160 113
0.0476317 0.0433799 -0.0103602 121 79 70
0.0542442 0.0360682 -0.0104793 80 52 42
0.0435316 0.0348074 -0.0144821 96 72 58
0.0452721 0.0452029 -0.0127555 84 54 46
0.0560503 0.0522041 -0.0125447 74 48 40
0.0650781 0.0534313 -0.0690608 152 114 101
0.0768052 0.0634825 -0.0206962 63 0 0
0.0409641 0.0548813 -0.0137667 51 32 22
0.0522085 0.0438338 -0.0310869 125 96 87
0.0658893 0.0582215 -0.013935 70 45 39
0.044489 0.0363628 -0.0099861 159 136 122
0.035381 0.0530627 0.020726 0 0 0
0.0601719 0.0501028 -0.0155295 92 64 56
0.0563566 0.0516809 -0.00796407 10 0 0
0.0419731 0.0510825 -0.0113596 85 58 48
0.053147 0.033522 0.00513386 178 121 96
0.051586 0.0477456 -0.00532932 80 49 39
0.0352991 0.053086 -0.0143996 118 83 68
0.0618335 0.0526631 -0.00827023 66 40 32
0.0442301 0.0398699 -0.00993459 82 56 45
0.0647971 0.063656 -0.0264599 71 45 37
0.0616595 0.0732931 -0.0171272 82 48 41
0.0487126 0.0527455 -0.00836747 85 56 46
0.0699123 0.0697886 -0.00592032 86 76 65
0.0561836 0.0405305 -0.0114364 83 56 47
0.0573975 0.0268082 -0.0599226 146 105 86
0.0648294 0.0771118 -0.0387991 26 0 0
0.0335038 0.0503361 -0.01723 96 64 55
0.053627 0.0763504 -0.0153928 73 45 38
0.0556407 0.0419203 -0.0168612 74 52 42
0.0435836 0.0807795 0.0107213 0 0 0
0.0614851 0.0729602 0.0143939 114 76 65
0.0535504 0.0569971 -0.0191405 95 64 54
0.0571659 0.0718587 -0.0140659 58 40 35
0.0535859 0.0635481 -0.0122958 183 172 150
0.0680391 0.0678528 -0.0186486 56 36 30
0.0472862 0.0593261 -0.0136182 130 93 84
0.0456699 0.0492652 -0.00912792 19 7 0
0.0464893 0.0498506 -0.00381454 81 52 42
0.057097 0.0625491 -0.0182439 109 93 79
0.0600564 0.0537123 -0.0185311 73 47 40
0.0505328 0.0386368 -0.00914157 221 183 178
0.0389858 0.0387042 -0.0186495 83 54 44
0.0503888 0.0551269 -0.00442501 181 159 150
0.0733086 0.0704959 -0.0408494 0 0 0
0.0732457 0.0661806 -0.0146055 62 39 34
0.0648112 0.033411 -0.0730579 152 99 85
0.0561583 0.0594545 -0.0157563 84 51 42
0.0389619 0.0602614 0.0097826 0 0 0
0.0251649 0.0657424 -0.00942877 0 0 0
0.0543225 0.0429169 -0.0215005 76 51 41
0.0466901 0.0517324 0.0115545 64 34 23
0.0624533 0.0617632 -0.00280164 76 50 39
0.044362 0.0506716 -0.00566303 79 49 45
0.0540309 0.0564595 -0.00661794 86 65 62
0.0504296 0.0542424 -0.0115387 76 48 40
0.0725002 0.0665641 -0.0410128 131 8 0
0.0541846 0.0626116 0.0107448 132 96 83
0.0620768 0.0395134 -0.0220952 63 13 7
0.0644742 0.0447248 0.0165341 0 0 0
0.0657647 0.0403808 -0.0252156 35 0 8
0.0771494 0.067523 -0.00343883 146 91 72
0.0622755 0.0854614 -0.022473 147 97 81
0.0321501 0.0586016 -0.0292652 110 72 54
0.056276 0.0566565 -0.0172625 140 81 65
0.0259118 0.0585204 -0.013308 174 138 121
0.060382 0.0784477 -0.0214157 71 51 45
0.0702016 0.0481844 -0.0593581 107 59 40
0.0564298 0.0340576 -0.0418588 101 69 59
0.0667566 0.0512842 -0.0377569 13 0 0
0.0414273 0.0424203 -0.0111575 106 76 68
0.0321906 0.0356613 -0.0230319 178 127 109
0.0670636 0.0547282 -0.0126658 65 40 36
0.0319379 0.0449184 0.00433826 84 51 35
0.0398802 0.0416172 -0.0139434 79 54 44
0.0404689 0.0486343 -0.0100139 88 58 47
0.0260326 0.0568619 -0.021356 127 105 83
0.0319287 0.0480153 -0.0200141 79 53 44
0.0237938 0.0516009 -0.00886924 0 0 0
0.0624892 0.060472 -0.00427172 38 14 0
0.0574239 0.0753634 -0.0156339 118 87 76
0.0314763 0.0435455 -0.0226024 89 58 48
0.0703504 0.0431465 -0.0627912 144 88 76
0.0529874 0.0516544 -0.0118469 112 78 65
0.0424032 0.0575955 0.0176178 115 101 108
0.0457677 0.0494036 -0.0121355 97 64 53
0.0587332 0.0563482 -0.00744451 63 43 38
0.074961 0.0426316 -0.0470755 0 0 0
0.0502109 0.0543698 -0.0112088 77 50 41
0.0511911 0.0545859 -0.00515637 130 91 76
0.0709383 0.0682158 -0.0434722 0 0 0
0.0290593 0.0464914 0.00156629 70 45 37
0.0677161 0.0651622 -0.0568578 108 71 60
0.0661578 0.0291511 -0.0683013 67 0 0
0.0690647 0.066553 -0.0400582 40 19 22
0.0716106 0.0546431 -0.0208679 52 28 24
0.0692402 0.0396978 -0.0376216 82 55 62
0.0578614 0.0389714 -0.0303418 80 53 46
0.0664823 0.0377686 -0.0593837 0 0 0
0.0308167 0.0471071 -0.0219092 94 63 49
0.0389077 0.0501662 -0.0084087 98 70 65
0.0362207 0.0762065 -0.0131082 60 47 40
0.0716661 0.0381607 -0.0621634 164 60 52
0.0502942 0.0230465 -0.0432999 157 93 78
0.0678967 0.0783845 -0.0131056 186 137 125
0.0683566 0.0497494 -0.0203905 42 0 0
0.0491142 0.0443322 -0.0200842 69 43 36
0.069442 0.0733777 0.000979862 255 255 255
0.0327252 0.0515642 0.00966974 30 12 0
0.0449143 0.052676 0.0141004 120 85 72
0.0356614 0.0398846 0.00265977 0 0 0
0.0385852 0.0374638 -0.0205742 80 53 43
0.0302738 0.0349424 -0.00246067 84 52 45
0.0720421 0.0641946 -0.0152477 40 18 8
0.0706924 0.0561035 -0.0582584 137 94 77
0.0677829 0.0477643 -0.0333892 70 42 38
0.0224917 0.0514362 -0.0152612 164 0 0
0.0567852 0.0310339 -0.034363 104 70 59
0.0664233 0.04837 -0.0165192 63 44 40
0.0562472 0.0228286 -0.04559 118 78 61
0.0560484 0.0307977 -0.0323163 0 14 4
0.0427397 0.0584371 0.00047969 115 86 92
0.0247685 0.0681114 -0.0216966 32 0 0
0.0671767 0.0370034 -0.072961 100 0 0
0.0645178 0.0349838 -0.0634223 212 158 139
0.0336692 0.0452857 -0.0242629 86 57 47
0.0374321 0.051842 -0.0147622 70 49 41
0.0408047 0.0524417 -0.0113282 82 54 45
0.0656037 0.0595819 -0.00994008 72 44 39
0.0418777 0.0368005 -0.0175424 115 80 65
0.0347545 0.0495568 0.0209133 0 0 0
0.0429936 0.0341062 -0.0161477 110 72 56
0.0366879 0.0477965 -0.0192265 78 51 43
0.0344321 0.0451167 -0.0216094 80 52 42
0.0416136 0.0512614 -0.0114196 48 0 0
0.0611067 0.056317 -0.0115441 69 42 37
0.0453512 0.0418082 -0.014532 90 59 50
0.0654259 0.0553916 -0.0127996 75 49 42
0.0497159 0.0489253 -0.0073086 63 43 40
0.0518115 0.0466851 -0.00509375 58 34 25
0.0651168 0.0775236 -0.0368016 0 0 0
0.0368766 0.052127 -0.0131376 62 42 30
0.0694424 0.0552189 0.00909267 59 45 42
0.0312881 0.040149 -0.0223699 83 53 42
0.0446495 0.0793482 0.00889826 0 0 0
0.0550554 0.0612254 -0.0125624 17 0 0
0.0454258 0.0393781 0.0101836 114 90 81
0.0462917 0.0549254 -0.00723236 75 54 46
0.069994 0.0613182 -0.00724611 67 28 21
0.045548 0.0483822 -0.00321955 84 56 48
0.0478097 0.0515628 0.00189827 130 95 87
0.0478887 0.0424453 -0.0059634 70 50 42
0.0387419 0.040961 -0.0124173 63 36 27
0.0376916 0.0361256 -0.0423077 104 72 60
0.0606832 0.0284272 -0.0620636 164 125 105
0.069886 0.0680456 -0.0219406 95 60 50
0.0244443 0.0623047 -0.00866673 0 0 0
0.0429442 0.0522025 0.00721867 70 33 0
0.0430746 0.0517573 -0.00673673 110 80 69
0.0453076 0.0510108 0.0194141 0 0 0
0.0591249 0.0706893 -0.0163917 119 86 75
0.0517836 0.0571133 -0.0118101 74 48 41
0.0498754 0.0546286 -0.0092433 36 0 0
0.0804596 0.0457289 0.00220379 76 0 0
0.040091 0.0344445 -0.0398621 95 66 55
0.0669935 0.034285 -0.0723191 175 139 121
0.0740614 0.0656012 -0.042761 89 44 36
0.0641176 0.0475849 0.0135266 0 0 0
0.0613337 0.0829435 -0.0212148 36 24 25
0.0327061 0.0431772 -0.0192804 78 53 45
0.023477 0.058268 -0.0228599 0 0 0
0.0309906 0.0591824 -0.00871118 109 136 115
0.0587516 0.0778283 -0.0253946 59 27 18
0.0652643 0.0344978 -0.0400436 57 36 31
0.0618852 0.0348996 -0.0523493 87 53 46
0.0683902 0.0368181 -0.0738707 106 60 53
0.0393997 0.0468175 -0.010183 60 12 0
0.0406861 0.04675 -0.00875662 85 57 48
0.0465105 0.0285793 -0.00887267 255 243 213
0.0359477 0.0464036 -0.0110879 75 55 49
0.0493687 0.0577578 -0.00513326 118 84 71
0.040081 0.0460192 -0.00653157 83 54 51
0.0546077 0.0687043 -0.00975883 65 43 41
0.0240865 0.0574644 -0.0216959 22 0 0
0.0285747 0.0633349 -0.0148942 255 255 255
0.0419053 0.0316063 -0.0593032 166 125 102
0.0349161 0.0474768 -0.0188077 85 56 45
0.0739884 0.0745259 0.00777711 0 0 0
0.0242071 0.0545348 -0.00759734 0 0 0
0.0583217 0.060092 0.00153826 111 66 80
0.035576 0.0742056 -0.0140047 97 55 43
0.0633384 0.0797034 -0.0308506 40 19 16
0.0391799 0.0531957 -0.0102587 116 82 73
0.0473686 0.052325 -0.00608 103 80 74
0.0514382 0.0540462 -0.00652005 60 37 24
0.0706794 0.0700806 -0.0444194 0 0 0
0.0483929 0.0266346 -0.039691 15 6 0
0.0739904 0.0396211 -0.0414946 0 0 0
0.0723155 0.0440816 -0.0547118 237 157 147
0.0314759 0.0490649 -0.0227487 23 0 0
0.0376875 0.050226 -0.0114858 104 72 62
0.0562038 0.0301155 -0.0322104 0 0 0
0.0293998 0.0724444 -0.0226628 138 89 76
0.0341915 0.0495725 -0.0157629 63 40 29
0.0750588 0.0498817 -0.0487411 39 0 0
0.0490668 0.0436959 -0.00312104 51 28 17
0.0489633 0.0421341 -0.0113814 90 60 50
0.0696805 0.0721016 -0.00590961 99 62 51
0.0318426 0.052081 0.00850188 105 74 64
0.0713573 0.036626 -0.0767895 168 123 104
0.0561679 0.0878748 0.00373759 0 0 0
0.0369237 0.0375861 0.00415562 161 133 127
0.0496725 0.0344 -0.0186696 53 33 24
0.0747814 0.0601855 -0.00643617 137 62 58
0.0223961 0.0506055 -0.0160994 45 0 0
0.0380502 0.0533205 0.0150841 63 39 31
0.0677263 0.0637574 -0.016596 86 57 49
0.0736581 0.0605469 -0.0412471 185 103 0
0.0677586 0.0483833 -0.0250041 117 88 96
0.0524595 0.0390375 0.0110474 78 42 33
0.058971 0.0263294 -0.0486966 78 41 41
0.0217333 0.0660086 -0.0312584 144 95 80
0.0626762 0.0510328 -0.0126902 68 40 35
0.0498848 0.0256655 -0.0556513 145 97 81
0.069544 0.0606428 -0.0638146 239 207 172
0.0508502 0.0260494 -0.0611709 157 113 98
0.052288 0.0243788 -0.0573433 255 231 165
0.0398559 0.0405023 -0.064141 124 97 82
0.0683695 0.0533275 -0.0577992 113 74 63
0.0484821 0.0237464 -0.0578481 123 81 69
0.0377532 0.0568517 -0.000745158 255 255 255
0.0420087 0.0316619 -0.0637891 117 86 72
0.061856 0.034189 -0.06561 220 164 139
0.0578885 0.0276717 -0.0634167 164 107 90
0.0503268 0.0238538 -0.0599226 255 255 255
0.0413054 0.0528864 -0.0120451 88 59 50
0.0400496 0.0558408 -0.0120939 25 33 27
0.0394042 0.053518 0.00511834 255 255 255
0.0433587 0.055435 -0.011333 0 0 0
0.0451406 0.023975 -0.0579945 255 250 201
0.0393519 0.0569425 -0.00425035 255 255 255
0.0513044 0.022521 -0.0570215 255 255 255
0.0463932 0.024359 -0.0504444 44 22 11
0.04195 0.0532737 -0.00950927 31 10 3
0.042675 0.0536833 -0.00804765 81 51 41
0.0303137 0.0491089 -0.0292402 57 16 14
0.0600122 0.0290492 -0.0624462 110 73 49
0.041231 0.0580659 -0.00154455 255 255 255
0.0389381 0.0568389 -0.00534655 255 255 255
0.0631946 0.0757934 -0.0389689 18 0 0
0.0506655 0.0354582 -0.0179201 85 57 49
0.0412854 0.0523112 -0.0108799 33 10 6
0.0362017 0.0478914 -0.0151388 17 0 0
0.0531212 0.0632163 -0.012009 0 0 0
0.0536411 0.0310933 -0.0357607 109 76 63
0.0436738 0.0500999 -0.00789671 101 65 53
0.0496647 0.0378831 -0.0164884 88 58 48
0.0495908 0.0505784 -0.00488266 103 71 60
0.0419272 0.0251348 -0.0379968 30 9 10
0.0446682 0.0363297 0.00695837 116 0 0
0.0526673 0.0395208 -0.017834 79 52 43
0.0384797 0.0398819 -0.0180513 26 10 0
0.0377508 0.0462583 -0.0176954 79 55 43
0.0659953 0.0389429 0.00965297 0 0 0
0.037407 0.0443834 -0.016822 83 56 46
0.0694997 0.0697542 -0.00214426 22 3 0
0.0384174 0.0428328 -0.0145939 98 66 56
0.0286384 0.0531234 0.0018436 66 43 36
0.0663378 0.0609915 -0.0117732 81 56 53
0.0692752 0.0599382 -0.0127058 40 20 15
0.0603775 0.0616303 -0.0123332 93 58 49
0.0716837 0.068801 0.00819913 26 0 0
0.0579276 0.0718412 0.00902377 98 0 0
0.0637594 0.0755893 -0.0217866 70 50 44
0.0408032 0.0528563 -0.0130652 101 71 60
0.0363806 0.0440156 -0.015652 87 58 47
0.0323849 0.0683492 -0.00206098 0 0 0
0.0497595 0.0585787 -0.0133212 94 61 51
0.065851 0.0573523 -0.0112771 32 17 12
0.0605205 0.0259552 -0.0186226 163 59 42
0.0389268 0.0603175 0.0172056 255 255 255
0.0688381 0.0565982 0.00751582 101 63 55
0.0671734 0.0586144 -0.0143713 66 43 35
0.0557471 0.054389 -0.0101676 75 57 48
0.052407 0.0771578 -0.0108966 22 7 12
0.0336151 0.0512288 -0.0178608 82 54 45
0.0715882 0.0693404 0.00439648 25 0 0
0.0625113 0.0758074 0.00503012 0 0 0
0.0644862 0.0546301 -0.0128752 72 46 40
0.0551496 0.0502456 -0.000876579 53 32 28
0.0657754 0.0571186 -0.010682 98 64 59
0.0267745 0.0334098 0.00281527 231 0 0
0.0623598 0.0550327 -0.000102942 100 66 57
0.0564589 0.0734652 -0.0129453 152 98 85
0.0446966 0.0474219 0.00696227 0 0 0
0.0639518 0.0660558 -0.0116674 73 49 43
0.0683093 0.0715237 -0.0224804 63 47 39
0.0601718 0.0449186 -0.0166431 65 37 32
0.0442514 0.0541746 -0.011776 80 49 39
0.0531314 0.0512085 -0.0149316 80 51 43
0.0486641 0.0576067 -0.010046 80 49 40
0.0537904 0.0531258 -0.0123972 76 50 41
0.0494856 0.0623747 -0.00416091 111 82 72
0.0409373 0.0703945 -0.0106527 213 154 131
0.0479979 0.0293194 -0.0325012 103 78 66
0.0557765 0.0607754 -0.0173416 72 46 39
0.0265194 0.0559621 -0.0209893 168 134 119
0.0246664 0.0555698 -0.0104172 0 0 0
0.0675036 0.0424523 -0.0253503 0 0 0
