ply
format ascii 1.0
comment Created by Open3D
element vertex 1162
property double x
property double y
property double z
property uchar red
property uchar green
property uchar blue
end_header
0.0828909 0.00483046 -0.0845906 230 130 125
0.0844321 0.0074546 -0.0887099 228 100 91
0.085971 0.00494076 -0.0919423 253 0 0
0.0872726 0.016521 -0.0885406 239 224 212
0.0833333 0.0217528 -0.0851967 255 153 132
0.0734956 0.0119097 -0.0879287 230 149 135
0.0875837 0.0334444 -0.0883524 255 255 255
0.0707207 0.00644033 -0.08518 207 117 99
0.0828154 0.0120264 -0.0931074 255 234 216
0.0813792 0.0202385 -0.0905894 224 205 199
0.0793948 0.00888662 -0.0897557 178 110 108
0.0896116 0.0148439 -0.0910576 255 255 255
0.076762 0.0158208 -0.0941096 212 0 0
0.0860602 0.0192114 -0.0934502 246 0 0
0.0842819 0.0239615 -0.0910152 242 155 141
0.0794709 0.0227163 -0.0927818 228 178 166
0.0811063 0.0235968 -0.0929312 251 209 189
0.0822802 0.0218274 -0.0911174 195 0 0
0.0766799 0.02376 -0.0886084 198 108 109
0.0707096 0.0186684 -0.0960387 161 50 36
0.0775932 0.0279805 -0.0974237 248 182 167
0.0830906 0.0194415 -0.0849891 245 222 194
0.0854099 0.0271957 -0.0910807 210 108 82
0.0799847 0.025169 -0.0935943 255 126 116
0.0697708 0.00874517 -0.0866211 242 129 120
0.0757349 0.0158317 -0.0973403 198 60 61
0.0827453 0.0324292 -0.0850908 164 36 27
0.0705979 0.00895117 -0.0885161 198 106 99
0.0680232 0.0137652 -0.0933164 195 97 86
0.0695752 0.0119234 -0.0892803 255 229 216
0.0762518 0.0259152 -0.09401 255 141 153
0.0714815 0.0220904 -0.0909044 192 98 93
0.0812346 0.0108359 -0.0789703 227 63 46
0.0781536 0.00717576 -0.0723402 117 28 19
0.0884666 0.0307161 -0.0839365 255 159 153
0.0776631 0.0230389 -0.0880823 148 74 71
0.0807768 0.024112 -0.0885347 211 95 81
0.0842378 0.0311795 -0.0854843 163 62 61
0.0692446 0.00330732 -0.0806282 255 168 158
0.0796089 0.0117507 -0.0771912 160 55 52
0.069854 0.00961226 -0.0875735 135 48 38
0.0754773 0.00277633 -0.0770248 91 36 20
0.0811279 0.0115944 -0.0706941 138 71 62
0.0903527 0.0219516 -0.084963 237 126 114
0.0778453 0.00871269 -0.0654326 177 132 126
0.0811761 0.0268956 -0.0907265 202 0 0
0.0712778 0.0171849 -0.0870558 135 92 75
0.0730982 0.00111507 -0.0768743 177 95 80
0.0862791 0.0353255 -0.0884351 158 107 95
0.0710411 0.00442684 -0.0841056 216 124 113
0.0773213 0.0260405 -0.0933904 95 10 28
0.0747065 0.0109321 -0.0882852 93 56 37
0.0751552 0.0261076 -0.102371 105 38 44
0.0743046 0.022697 -0.0851938 168 110 102
0.0765786 0.025736 -0.0934528 113 48 48
0.0923198 0.0335334 -0.0719509 255 255 255
0.0695735 0.0075303 -0.0839772 208 134 118
0.0741655 0.0162946 -0.0790043 255 183 159
0.0716516 0.00380226 -0.0865105 127 80 59
0.0819226 0.0253301 -0.0729362 119 27 35
0.0672407 0.00583377 -0.077088 150 83 63
0.0788407 0.0191121 -0.0868196 255 0 30
0.0742385 0.00900484 -0.0711417 227 159 142
0.0640593 0.0146613 -0.0852704 154 97 90
0.064689 0.00833235 -0.0825679 184 104 93
0.0825483 0.0232365 -0.0694828 125 98 117
0.0786749 0.0267324 -0.0854427 132 102 104
0.0782395 0.0216851 -0.0830266 161 92 85
0.0681619 0.0197099 -0.0877151 105 0 0
0.0632278 0.00499521 -0.0720441 139 71 62
0.0781686 0.0280285 -0.0776164 233 183 169
0.0807642 0.0247596 -0.0880574 119 6 7
0.0825053 0.0350297 -0.0845869 124 33 23
0.0884411 0.0309724 -0.091129 255 202 178
0.0637765 0.0156443 -0.090459 158 57 51
0.0854122 0.0315308 -0.082448 255 249 233
0.0784973 0.0267357 -0.0836748 154 84 84
0.0681374 0.0191019 -0.0768818 222 115 111
0.0785504 0.0202798 -0.0749589 197 136 132
0.0786718 0.0225337 -0.0781399 135 69 65
0.0919432 0.0371377 -0.0844188 198 95 84
0.0850414 0.0322587 -0.0839449 174 105 100
0.0784284 0.0150934 -0.0731589 155 78 77
0.0834073 0.0283532 -0.0928266 255 116 107
0.0813388 0.0249857 -0.0841986 252 203 203
0.0768621 0.0275101 -0.0890663 155 73 73
0.0686045 0.0270968 -0.0749133 118 68 61
0.0860065 0.0325209 -0.0826499 255 195 195
0.0948734 0.0303929 -0.0874326 239 225 232
0.0827458 0.0255843 -0.0668889 255 210 219
0.0795272 0.023787 -0.0814632 160 111 113
0.0867905 0.0287465 -0.0864738 255 193 185
0.0935739 0.0307262 -0.0790619 189 93 81
0.0640068 0.015188 -0.0874687 118 74 71
0.0665219 0.0221761 -0.0857346 195 0 0
0.0742061 0.016777 -0.0733778 89 0 0
0.0821337 0.028223 -0.0859024 0 0 0
0.0909995 0.0374473 -0.0814705 157 63 47
0.0723028 0.0156129 -0.0726971 215 134 127
0.0779517 0.0323454 -0.079869 158 88 87
0.0755788 0.0177297 -0.0746706 166 81 76
0.0812524 0.0360383 -0.0795232 228 215 205
0.0742287 0.0108446 -0.0577342 255 0 0
0.0767705 0.0310451 -0.0864516 171 77 72
0.08485 0.0323167 -0.0964318 190 82 71
0.0840525 0.0258587 -0.0801893 143 253 255
0.0849592 0.0315928 -0.0874524 255 123 113
0.0767982 0.0251202 -0.0773599 87 54 55
0.087107 0.0380522 -0.0837561 150 89 75
0.0596031 0.0192665 -0.0773026 169 82 79
0.0751418 0.0101514 -0.0659597 255 224 212
0.0759618 0.020046 -0.0721257 142 98 92
0.0819725 0.0282138 -0.0752313 255 255 255
0.0812064 0.0296935 -0.0751114 222 144 135
0.080946 0.0314365 -0.0807554 211 0 0
0.0643194 0.006378 -0.0623402 218 122 117
0.0845727 0.0292384 -0.0801511 148 255 244
0.0772868 0.0261213 -0.0854174 210 120 132
0.0683365 0.0248812 -0.0859353 90 11 0
0.0856853 0.0344226 -0.069456 212 134 127
0.0837738 0.0340452 -0.0827768 255 255 255
0.0809489 0.0276588 -0.0859233 35 44 19
0.0862754 0.0388345 -0.083175 157 80 69
0.0880778 0.0295751 -0.0705645 199 212 235
0.0850845 0.0255376 -0.0785819 176 151 160
0.0746712 0.0239336 -0.073363 214 183 174
0.082845 0.0276157 -0.0653767 224 123 135
0.07463 0.0232866 -0.070763 111 72 68
0.0681751 0.0194336 -0.0798421 212 105 99
0.093961 0.0405284 -0.0671539 221 134 121
0.0777048 0.0231984 -0.0685655 100 73 82
0.0735749 0.0172786 -0.0622707 86 0 0
0.0782537 0.0285029 -0.0816393 206 125 126
0.0622529 0.0182252 -0.0866371 109 37 29
0.0664144 0.0163236 -0.0787698 148 43 38
0.0806752 0.0277117 -0.0865005 86 0 0
0.0652513 0.0174093 -0.0642519 215 95 92
0.0842699 0.0281667 -0.0802734 206 45 0
0.0656119 0.0111116 -0.0822869 126 57 51
0.074251 0.0203154 -0.0663283 125 85 79
0.0790866 0.027714 -0.0893819 206 218 209
0.0824023 0.0347049 -0.0835089 205 132 130
0.0749661 0.012251 -0.0709604 134 88 84
0.0768242 0.0228177 -0.0666454 255 234 236
0.0796697 0.026858 -0.0817096 107 61 64
0.078717 0.0367403 -0.0790927 210 111 105
0.0762619 0.0266226 -0.0807236 132 68 67
0.0680777 0.0164378 -0.0643362 255 255 255
0.075056 0.0369802 -0.0881091 249 140 134
0.0766085 0.0315331 -0.0963766 255 180 165
0.0827726 0.0489324 -0.0610441 173 36 28
0.0642358 0.0184423 -0.0862701 144 50 44
0.0757137 0.0237501 -0.0645432 209 222 206
0.0766116 0.0290559 -0.0848417 197 118 112
0.075607 0.0287751 -0.0789702 101 73 69
0.0775286 0.0286238 -0.0869661 158 72 79
0.0809393 0.029865 -0.0711048 165 72 83
0.0851972 0.0339955 -0.0554713 255 255 255
0.0769362 0.0228422 -0.0759295 107 75 77
0.0887212 0.0328074 -0.07088 255 191 180
0.0684496 0.0166733 -0.0609876 220 141 142
0.0791102 0.0322385 -0.0769033 167 90 94
0.0899279 0.036853 -0.0656253 255 167 140
0.0844332 0.0278624 -0.0777664 110 170 101
0.0823665 0.030732 -0.0843338 129 197 197
0.0762672 0.036916 -0.0842068 255 201 189
0.0842568 0.0298323 -0.0790289 255 240 232
0.067763 0.0154606 -0.0739516 110 38 34
0.0769334 0.0324425 -0.104957 255 255 221
0.054998 0.0110801 -0.065008 127 25 19
0.0733889 0.0260513 -0.0903228 234 104 114
0.0756092 0.0261409 -0.0791505 193 111 111
0.0734127 0.0257724 -0.0841561 133 86 86
0.0778748 0.0261021 -0.0817636 255 255 255
0.0797525 0.0347778 -0.079947 211 249 218
0.0763497 0.0368961 -0.0854915 198 87 81
0.0722735 0.0220412 -0.0806777 168 107 100
0.0896996 0.033608 -0.0713123 245 229 225
0.0666564 0.0165445 -0.0640962 205 105 103
0.0742586 0.0245884 -0.0734618 143 117 102
0.0814641 0.0277462 -0.0813267 29 85 78
0.0789557 0.0338794 -0.0751793 255 255 253
0.0737539 0.0200487 -0.0725507 109 79 68
0.0793192 0.0303613 -0.0798233 213 127 117
0.0799349 0.0240727 -0.074099 230 179 161
0.0736155 0.0261309 -0.0734954 44 0 0
0.087522 0.0357258 -0.0818418 241 156 139
0.0881946 0.0336777 -0.0693724 255 255 255
0.0696893 0.0156264 -0.0570784 206 164 159
0.0796637 0.0329267 -0.0801039 153 54 42
0.0807274 0.0330729 -0.0748343 225 255 255
0.0670622 0.0175744 -0.0726292 186 102 96
0.0773382 0.0297211 -0.085188 173 89 81
0.0727619 0.0226536 -0.0817578 137 90 83
0.0719339 0.0278342 -0.0734663 42 0 0
0.0805893 0.0285347 -0.0680785 201 116 99
0.0633687 0.0209013 -0.0822914 166 61 55
0.0794988 0.0289978 -0.0801647 217 162 161
0.0633107 0.0149237 -0.0856422 85 0 0
0.0658924 0.0167925 -0.0777161 61 0 0
0.0687495 0.0121244 -0.0590868 202 100 96
0.0777388 0.0332456 -0.0839661 167 94 86
0.0663583 0.0155711 -0.0729808 230 138 136
0.0656508 0.0129454 -0.0775102 183 85 78
0.0809324 0.0350633 -0.0786711 252 255 255
0.0692591 0.0241025 -0.072356 151 0 0
0.0717876 0.0400425 -0.0820764 167 68 62
0.0608595 0.0153016 -0.0787258 100 30 30
0.0665517 0.0203651 -0.0667291 124 0 0
0.0765168 0.0308044 -0.0832525 141 91 78
0.0722657 0.0350376 -0.0740557 130 103 92
0.0704989 0.0192138 -0.0604522 73 42 42
0.0781316 0.0243599 -0.0738012 103 70 62
0.0670346 0.0179021 -0.078546 168 67 55
0.0768237 0.0355923 -0.0841219 229 136 128
0.067647 0.0186421 -0.0767494 195 100 93
0.0622861 0.0140463 -0.0787182 158 71 74
0.0652202 0.014512 -0.0595296 107 0 0
0.0643856 0.0139354 -0.0567002 97 0 0
0.0770767 0.0333263 -0.0814547 255 243 228
0.0785456 0.0359842 -0.0830945 165 64 59
0.063098 0.024287 -0.086228 149 58 52
0.0653234 0.0151116 -0.067296 185 106 100
0.0627991 0.0117925 -0.0749954 188 95 85
0.0743677 0.0278536 -0.0763334 126 98 97
0.0810345 0.0284844 -0.0737612 106 0 0
0.0754699 0.0282934 -0.0922815 159 116 132
0.078333 0.0352872 -0.08168 158 62 63
0.070527 0.0228969 -0.0646072 183 154 146
0.064805 0.0184898 -0.0691371 255 201 215
0.0753515 0.0366257 -0.0871812 255 238 218
0.0733518 0.0229538 -0.0647873 195 130 131
0.0767614 0.0286348 -0.075419 36 39 48
0.0753572 0.0366204 -0.0888174 220 103 94
0.0639068 0.0150688 -0.0675476 158 71 59
0.0822128 0.0412324 -0.0857538 124 57 51
0.0640703 0.0207429 -0.0842145 161 55 50
0.0797948 0.0370221 -0.0855477 218 121 123
0.0662133 0.0164261 -0.0606655 255 255 255
0.0726548 0.0278987 -0.0874971 32 0 0
0.0764778 0.0317783 -0.0714498 255 205 198
0.0733452 0.0258223 -0.0625309 52 34 33
0.0767609 0.0302426 -0.0796757 63 44 46
0.06251 0.0184165 -0.0789295 161 56 51
0.0730545 0.0282446 -0.0785199 107 55 53
0.0632488 0.0181976 -0.0760075 117 14 9
0.0717984 0.0273291 -0.0766281 113 64 60
0.0746926 0.0301352 -0.0805549 115 67 71
0.0734628 0.0285838 -0.0800314 110 66 64
0.0762745 0.0332732 -0.0818887 77 59 58
0.0667942 0.0188488 -0.0790129 202 105 100
0.0643499 0.0142292 -0.0628332 249 0 0
0.0774043 0.0238818 -0.073188 7 0 0
0.0739249 0.0382359 -0.0849913 151 78 69
0.0742554 0.0304711 -0.0816176 127 87 83
0.0747533 0.0318832 -0.0841382 108 97 86
0.0675325 0.0213925 -0.0810285 255 0 0
0.065497 0.0161531 -0.0587836 255 255 255
0.0699739 0.0222214 -0.076134 89 50 48
0.0706593 0.0282328 -0.0812974 120 74 67
0.0612039 0.0155812 -0.0695035 255 172 176
0.0709684 0.0311432 -0.0788439 38 0 0
0.0628062 0.0158626 -0.0829503 164 78 76
0.0776816 0.0347964 -0.0836019 184 99 97
0.072143 0.0272136 -0.0705178 126 76 75
0.0676034 0.025689 -0.0732894 28 0 0
0.0600576 0.0176768 -0.0685917 143 12 0
0.0652116 0.016254 -0.0738898 223 119 109
0.0710123 0.0303971 -0.0828002 107 81 78
0.0717256 0.0269257 -0.0813598 62 37 37
0.0627672 0.0173827 -0.0698143 150 52 48
0.0750227 0.0404028 -0.0642156 24 0 0
0.077052 0.0356302 -0.0893419 255 189 173
0.0643086 0.0302819 -0.0924535 71 18 17
0.0610195 0.0143435 -0.0674188 104 0 0
0.0696782 0.0359842 -0.0977023 49 26 24
0.0621529 0.0172784 -0.0631485 97 0 0
0.0610582 0.0211988 -0.0778068 156 64 65
0.0606469 0.0250997 -0.0655386 148 25 17
0.0754923 0.0367448 -0.0884236 255 149 144
0.0630618 0.011496 -0.0723621 109 9 0
0.0753621 0.0393255 -0.0895372 162 77 72
0.0658582 0.0310272 -0.0939377 69 26 22
0.0740349 0.0389856 -0.0877629 179 119 105
0.0732096 0.0387574 -0.0863225 166 86 74
0.0590136 0.0198485 -0.0743567 144 59 49
0.0764013 0.0364439 -0.0846253 126 0 0
0.0824431 0.0376772 -0.0903248 153 65 63
0.0628855 0.0222514 -0.0671801 191 67 67
0.0740231 0.0361238 -0.0724486 35 0 0
0.0731979 0.038173 -0.084061 194 123 110
0.0659703 0.0138481 -0.0696305 135 0 7
0.0610901 0.0219659 -0.0646999 207 63 50
0.0653352 0.0281646 -0.0631794 146 90 83
0.0765399 0.0358238 -0.085615 117 0 0
0.077135 0.0457348 -0.0647899 255 255 240
0.0680535 0.0317371 -0.0753072 122 88 68
0.0703183 0.0383499 -0.0802925 70 16 18
0.0599738 0.020986 -0.0743961 101 5 0
0.0627562 0.0269854 -0.0720275 155 52 49
0.0728307 0.0312058 -0.0660806 24 0 0
0.0726626 0.03352 -0.0939444 52 58 61
0.0843524 0.00922055 -0.0861503 184 1 0
0.0824523 0.0155188 -0.0926368 125 25 0
0.0809775 0.0284969 -0.101504 255 255 255
0.0764482 0.0229901 -0.100546 255 43 32
0.0700371 0.0258761 -0.106742 80 35 37
0.0782912 0.0273445 -0.0935348 171 18 8
0.0793491 0.0138713 -0.0838622 138 14 0
0.0819682 0.0281048 -0.0930261 244 0 0
0.0884059 0.0319699 -0.0845587 255 210 201
0.0726239 0.0219153 -0.0847752 255 160 72
0.0691691 0.0165476 -0.0862722 169 92 77
0.0786308 0.0190681 -0.0727452 182 112 106
0.0771071 0.0256437 -0.0752404 122 79 77
0.0639818 0.0147347 -0.0883067 143 81 72
0.0680014 0.0176946 -0.0895709 165 83 70
0.0770292 0.0351081 -0.0833744 204 106 98
0.0829748 0.0334255 -0.0831692 220 255 255
0.078335 0.0222872 -0.0816939 70 37 26
0.0679065 0.0144488 -0.0607774 255 255 255
0.0657103 0.0173925 -0.063872 183 64 60
0.0701474 0.0271823 -0.0900898 112 56 52
0.0679817 0.0296419 -0.0980197 23 39 41
0.0811237 0.0221711 -0.0877663 255 99 86
0.0785241 0.0212049 -0.0921542 247 139 135
0.0747879 0.0128037 -0.105354 255 94 76
0.0795201 0.0233782 -0.0920254 255 255 255
0.0799905 0.0267999 -0.093707 255 6 0
0.066828 0.014645 -0.0831187 255 207 209
0.0669714 0.0132343 -0.0940102 192 96 88
0.068915 0.0103141 -0.0869942 182 99 88
0.0771714 0.0298247 -0.0843729 191 103 98
0.0841561 0.0339357 -0.0776538 255 255 255
0.0794507 0.0325433 -0.0892429 196 126 118
0.0802328 0.0308741 -0.0758641 255 255 255
0.0759232 0.0256619 -0.0802789 37 0 8
0.0713763 0.0149432 -0.0695581 198 113 104
0.0650257 0.0234416 -0.0798688 195 57 44
0.0685033 0.0241311 -0.078897 255 185 197
0.0779744 0.0348586 -0.0856715 204 63 61
0.0744509 0.0315783 -0.0841252 128 112 96
0.0721492 0.00230447 -0.0928662 255 117 91
0.075118 0.0276768 -0.100708 255 128 122
0.079744 0.0201517 -0.0851656 195 128 120
0.0832816 0.0343545 -0.0935738 153 98 92
0.0767814 0.0322916 -0.104134 143 52 46
0.0718662 0.0221067 -0.0881428 239 96 80
0.0766786 0.026427 -0.0873373 129 49 53
0.0682811 0.0184902 -0.0938606 247 115 93
0.0741234 0.00751368 -0.0672963 255 209 191
0.0628706 0.021062 -0.0832416 188 82 75
0.0648525 0.0240276 -0.0927711 138 29 20
0.0760007 0.0170621 -0.0706767 226 154 144
0.0823512 0.0257807 -0.080144 158 212 191
0.0727656 0.0228016 -0.0849257 161 152 151
0.07649 0.0257717 -0.0897167 202 151 156
0.0746213 0.0189128 -0.0662079 117 88 77
0.0819392 0.0259758 -0.0846302 255 255 255
0.074162 0.0354068 -0.0717213 87 35 33
0.0776987 0.0273223 -0.0814408 160 100 98
0.0705222 0.00827355 -0.0887421 76 30 19
0.072587 0.0251104 -0.0867308 71 41 29
0.0755861 0.0319253 -0.081475 63 43 37
0.0817705 0.0314514 -0.0899125 255 154 145
0.0768135 0.0123151 -0.0663983 61 0 0
0.0888331 0.0348787 -0.0650743 255 255 255
0.0810839 0.0277309 -0.087107 151 141 136
0.0762557 0.032335 -0.0839655 225 164 147
0.0620453 0.0202185 -0.0678571 170 64 55
0.0743198 0.0308146 -0.0812504 172 135 123
0.0774753 0.0327996 -0.0771817 19 0 0
0.0760081 0.02922 -0.0720337 56 32 25
0.0708467 0.0306637 -0.0811903 82 54 51
0.0703374 0.0269521 -0.0664979 0 0 0
0.0671159 0.0267207 -0.103851 84 44 42
0.0851263 -0.00324937 -0.0745874 255 186 172
0.0800549 0.0253332 -0.0924577 255 133 125
0.0850095 0.0315179 -0.0982948 194 99 88
0.0764182 0.0231692 -0.0925648 255 132 115
0.0902148 0.0301648 -0.094881 255 156 82
0.0760729 0.0297129 -0.097309 255 245 225
0.0743695 0.02143 -0.0959499 181 113 98
0.0809081 0.0202827 -0.0945348 245 161 148
0.0723339 0.0196496 -0.0963967 174 55 57
0.0756909 0.0253073 -0.093386 168 96 91
0.0698392 0.0078874 -0.0862641 216 120 108
0.0790571 0.03093 -0.094456 194 0 0
0.0794252 0.0265575 -0.0767335 156 78 81
0.0781804 0.0395977 -0.0840316 98 0 0
0.0871441 0.0306808 -0.0766634 255 247 242
0.0609181 0.018027 -0.084946 159 76 70
0.0835522 0.0352775 -0.0833448 255 204 176
0.0864211 0.0351295 -0.0769888 255 255 255
0.0756754 0.0271877 -0.0846984 68 43 44
0.0860024 0.0370218 -0.0682372 234 179 166
0.0771634 0.0328105 -0.0812655 193 118 104
0.0817612 0.034721 -0.0760537 231 213 186
0.0736695 0.0291784 -0.0766142 134 90 84
0.0678536 0.0296157 -0.0864687 86 36 32
0.0871498 0.046995 -0.0680972 250 169 167
0.0720248 0.0264087 -0.0840635 255 217 207
0.0894075 0.0371513 -0.0670321 255 255 255
0.0684184 0.0218088 -0.0984274 219 110 102
0.0719419 0.00870197 -0.0897523 255 155 142
0.0704131 0.0105099 -0.0933436 208 83 72
0.0741474 0.00109218 -0.0886094 220 88 74
0.0771197 0.0198898 -0.0978278 255 130 125
0.0819093 0.0282479 -0.0951306 233 0 7
0.070561 0.00492957 -0.0800359 255 183 170
0.0761556 0.0161117 -0.0935567 145 88 83
0.0713518 0.00277977 -0.0816627 218 122 118
0.0696808 0.0165185 -0.09348 198 87 78
0.078076 0.0219651 -0.0896473 250 158 150
0.0663044 0.012486 -0.0892395 140 82 75
0.0772741 0.0196689 -0.0739749 98 24 24
0.0797491 0.036953 -0.0849927 221 119 109
0.0779481 0.0207438 -0.0684667 131 95 95
0.0857729 0.0346463 -0.0799935 255 255 255
0.0632098 0.0196264 -0.0764055 116 9 9
0.0696697 0.00521765 -0.0823622 255 194 195
0.0755852 0.0219627 -0.0795613 120 85 89
0.0760534 0.0195362 -0.0627455 228 184 180
0.0790166 0.0264266 -0.0783543 171 90 94
0.0719254 0.021164 -0.0742075 118 83 82
0.084757 0.0290932 -0.073284 85 92 90
0.0694074 0.0166042 -0.0758682 138 49 40
0.0782626 0.0252237 -0.0840867 255 224 234
0.0819017 0.0285955 -0.0849623 168 255 255
0.0845439 0.0313431 -0.0754602 255 235 225
0.069754 0.0189751 -0.0896002 124 40 0
0.0800841 0.0323517 -0.0738674 255 255 255
0.0771765 0.0250517 -0.0893909 209 0 0
0.0726161 0.0265101 -0.0771093 0 0 0
0.070969 0.00500137 -0.0839003 130 65 56
0.0816158 0.034882 -0.0846835 192 117 115
0.0883164 0.0291139 -0.0709318 213 237 255
0.078306 0.0325365 -0.0818323 145 60 45
0.0612024 0.0153285 -0.079082 129 65 59
0.0761948 0.0353181 -0.0861025 215 116 108
0.0600947 0.00972726 -0.0694287 136 93 93
0.0784594 0.0300741 -0.0835181 206 125 117
0.0751623 0.0277691 -0.0772371 90 60 56
0.0727839 0.0264554 -0.0731203 49 27 27
0.0786794 0.0340575 -0.0797957 85 0 0
0.071344 0.0280078 -0.080118 255 255 255
0.0712737 0.0302568 -0.0866588 144 101 99
0.0714954 0.0235472 -0.0819818 94 55 52
0.072508 0.0257115 -0.0652879 186 105 109
0.0765811 0.0361202 -0.0849927 255 240 230
0.0599474 0.0223081 -0.0645136 168 66 62
0.0657948 0.0275365 -0.0887555 137 40 34
0.0808955 0.0153537 -0.0994496 255 129 54
0.0739955 -0.00346141 -0.0756176 255 255 255
0.0683876 0.0146325 -0.0914451 255 130 117
0.0739736 0.0248841 -0.0904735 143 59 53
0.0704304 0.0225728 -0.0848696 141 82 71
0.0729113 0.0140709 -0.0810704 255 86 95
0.0812159 0.0292745 -0.0830899 106 19 0
0.0795848 0.0310955 -0.0742023 209 124 139
0.0761393 0.0286671 -0.0957725 121 9 0
0.0746565 0.0222871 -0.0720744 170 125 115
0.0774015 0.0284671 -0.0856078 197 114 112
0.0782946 0.0325085 -0.0821072 255 194 179
0.0817698 0.0331769 -0.0881719 187 120 109
0.0783719 0.0292092 -0.081485 196 110 109
0.0748609 0.0322927 -0.0780621 81 74 77
0.0744295 0.0364494 -0.0868588 233 190 168
0.079477 0.0368126 -0.0816834 93 0 0
0.0697149 0.00960444 -0.0882265 83 35 25
0.0894071 0.0370631 -0.0675848 255 255 255
0.0863483 0.0337411 -0.0674656 255 201 202
0.0827429 0.0345155 -0.0808411 255 255 255
0.0801211 0.0266432 -0.0725345 255 255 255
0.081668 0.00523132 -0.093753 255 47 0
0.0783119 0.0279465 -0.0959639 249 172 154
0.0820976 0.016619 -0.0848618 241 174 179
0.0690678 0.0185551 -0.0928814 159 20 3
0.0787435 0.0255705 -0.100889 255 178 146
0.0791473 0.0264836 -0.0941749 252 157 140
0.0631032 0.00817216 -0.0759516 255 22 0
0.076813 0.027462 -0.0961965 185 12 0
0.064102 0.0162622 -0.086883 200 89 78
0.0747931 0.0198156 -0.0865451 243 165 152
0.078172 0.029864 -0.0840801 214 121 116
0.0762771 0.0374813 -0.0941618 181 68 68
0.0774538 0.0221393 -0.0746755 119 146 161
0.0738869 0.0218826 -0.0718645 165 126 124
0.0866432 0.032189 -0.0800676 255 255 255
0.0762898 0.0236033 -0.079834 0 0 11
0.0614262 0.0110735 -0.0737491 135 63 61
0.0643724 0.0190861 -0.0663684 217 79 68
0.0817942 0.0296697 -0.0706832 150 255 255
0.0689192 0.0131093 -0.0803661 186 106 95
0.0704612 0.0222325 -0.0781869 177 121 114
0.080457 0.0361043 -0.0824105 221 153 147
0.0768299 0.0315919 -0.0862128 255 224 200
0.0831368 0.0346433 -0.0806841 212 118 108
0.0739164 0.0169327 -0.0707709 94 0 0
0.0887416 0.0351747 -0.0629092 236 167 176
0.0750395 0.0236886 -0.0677364 149 89 88
0.0665434 0.0198721 -0.0758058 195 99 91
0.0800799 0.0307623 -0.0909983 132 58 47
0.0762605 0.021893 -0.068362 32 0 0
0.0725992 0.00374032 -0.0869471 90 65 57
0.0665919 0.0166356 -0.0617227 255 255 255
0.0707832 0.0207976 -0.0718114 255 228 214
0.0655416 0.0160775 -0.0600158 71 0 0
0.0777665 0.0390808 -0.0919224 142 68 68
0.0789374 0.0322723 -0.0787689 79 0 0
0.0748587 0.0282412 -0.0791889 84 59 55
0.0736735 0.0278402 -0.0730183 238 159 155
0.0695532 0.0330312 -0.0793047 66 22 22
0.0693034 0.011797 -0.0987828 205 102 94
0.0732064 0.00237689 -0.0805632 255 176 158
0.0757594 0.0147348 -0.10075 255 114 105
0.0799855 0.0336552 -0.0939179 255 93 99
0.0775058 0.0125065 -0.095584 155 10 0
0.0798486 0.0276191 -0.0928864 253 156 140
0.0872234 0.0258803 -0.0940242 255 96 103
0.080745 0.00413606 -0.0879731 252 163 157
0.0710326 0.0153362 -0.0818601 203 133 118
0.0682507 0.0114092 -0.099169 213 127 120
0.0704418 0.0137013 -0.0817524 66 0 0
0.0751372 0.0209461 -0.0935958 197 48 34
0.0664158 0.00849574 -0.079887 103 50 38
0.0857183 0.0321908 -0.0835597 208 167 168
0.0811341 0.0351986 -0.0799703 161 125 116
0.0725838 0.0291747 -0.100852 193 62 32
0.075473 0.0205256 -0.07172 138 102 95
0.065802 0.0037196 -0.073301 159 85 91
0.0744096 0.0273258 -0.0868301 202 60 89
0.0829416 0.0349629 -0.08509 213 255 255
0.0781283 0.0274076 -0.0837095 166 91 94
0.0817742 0.0353196 -0.0775124 176 125 94
0.0800987 0.0309644 -0.0818911 100 0 0
0.0834503 0.0332342 -0.0789772 238 17 0
0.0764197 0.0339557 -0.0845025 217 147 136
0.0778683 0.0285443 -0.0798638 200 127 116
0.0700972 0.0348567 -0.0790718 44 14 14
0.0661675 0.0122716 -0.0604598 255 255 255
0.0601048 0.0222591 -0.0794608 129 55 50
0.0721589 0.0232291 -0.0695532 211 147 139
0.064742 0.0106584 -0.0795765 122 50 48
0.0688861 0.0341474 -0.0824424 80 26 20
0.0866096 0.0347164 -0.0704243 255 255 255
0.0735348 0.0264732 -0.0787857 93 60 57
0.0805686 0.000125845 -0.0844641 247 223 209
0.0863493 0.0366146 -0.0772744 255 255 255
0.0807189 0.0247461 -0.0699002 159 122 121
0.0826769 0.0343219 -0.0816385 211 112 102
0.0868966 0.0350948 -0.0793644 255 255 234
0.0835767 0.000446816 -0.0805868 255 192 184
0.0742937 0.0187334 -0.110816 174 77 65
0.0721684 0.0281615 -0.100647 227 87 75
0.0835484 0.0285465 -0.100084 255 255 203
0.0808251 0.0325103 -0.0899894 255 236 230
0.0814492 0.0343704 -0.0967627 236 172 169
0.0735381 0.0274276 -0.096947 131 0 0
0.0827941 0.0343644 -0.0868487 190 101 92
0.0656142 0.0218587 -0.0810282 255 103 99
0.0807706 0.0322952 -0.101868 188 95 87
0.0844899 0.0339724 -0.0691129 238 153 149
0.0762283 0.0136682 -0.0825423 209 117 103
0.0842559 0.0309095 -0.084179 139 124 112
0.0748451 0.0192421 -0.0843017 161 89 84
0.076978 0.0277732 -0.0843241 193 128 124
0.0778053 0.0227145 -0.0733777 193 150 146
0.0593296 0.0164724 -0.0765337 143 68 62
0.0770785 0.0339444 -0.0814402 189 167 140
0.0740454 0.0250752 -0.0789332 151 114 103
0.0780499 0.038483 -0.0846906 255 255 255
0.0760944 0.0360607 -0.0740648 109 60 65
0.0732564 0.0222414 -0.0850153 124 12 0
0.0621202 0.0216372 -0.094017 151 89 79
0.0810218 0.0116144 -0.0867935 218 0 0
0.0706743 0.0183773 -0.0810591 255 180 177
0.0731192 0.027285 -0.0990882 255 133 121
0.0690672 0.0132761 -0.0825605 249 162 149
0.0673541 0.0130513 -0.0888343 140 59 50
0.0776625 0.0256632 -0.0879432 75 26 35
0.0890299 0.0317581 -0.0685373 255 212 213
0.0811628 0.0371752 -0.0853686 255 255 255
0.0780458 0.0296463 -0.0871424 171 93 98
0.0756415 0.0372498 -0.0882734 160 35 35
0.0770206 0.0298823 -0.0830919 255 122 98
0.0803903 0.0161688 -0.0764918 189 141 127
0.0660178 0.0307134 -0.0732517 146 85 76
0.0748216 0.0257586 -0.080165 229 123 124
0.0899625 0.0329435 -0.0892684 167 84 67
0.0814017 0.0344352 -0.0765846 230 187 165
0.0725014 0.023097 -0.0733478 25 0 0
0.0639506 0.0137547 -0.0752992 255 213 219
0.0721987 0.0216874 -0.0706075 0 0 0
0.0770826 0.0314236 -0.0813904 208 131 128
0.0764182 0.0301245 -0.0730958 255 235 241
0.0721344 0.0315449 -0.075213 62 29 27
0.0756562 0.0298425 -0.0810929 108 77 78
0.0730255 0.0382554 -0.0870041 153 73 67
0.0804955 -0.00217494 -0.077488 255 188 169
0.0665119 0.0143473 -0.0553971 255 255 255
0.0792776 0.0338624 -0.0785684 245 159 163
0.0749447 0.0209352 -0.0724472 142 106 97
0.073287 0.0369947 -0.0903498 166 101 98
0.0718397 0.0282344 -0.084784 113 60 60
0.0712662 0.0152495 -0.103389 255 255 255
0.0771815 0.0151761 -0.0944014 255 116 115
0.0802185 0.0301142 -0.0704276 182 125 125
0.0854351 0.0358895 -0.0683958 255 255 255
0.0691589 0.0136999 -0.0934737 183 98 86
0.0697179 0.0043427 -0.0694477 255 238 211
0.082295 0.0344123 -0.0778141 255 255 255
0.0759759 0.0285439 -0.0970423 154 8 0
0.0734561 0.0297379 -0.0876258 98 54 54
0.0825903 0.00939075 -0.0928617 255 89 0
0.0846108 0.0072329 -0.0852844 255 133 119
0.0754298 0.0223448 -0.0723146 128 84 79
0.089019 0.0285969 -0.0848069 50 0 0
0.0890052 0.0344339 -0.0712791 179 84 83
0.0782208 0.012892 -0.0683096 154 91 89
0.0725131 0.0238728 -0.0754819 0 0 0
0.0749496 0.0230659 -0.066317 255 255 255
0.0635284 0.023941 -0.0795923 150 61 57
0.087789 0.0360444 -0.0658258 255 255 246
0.0817482 0.033847 -0.0845864 214 99 93
0.0602239 0.0140046 -0.0753088 121 56 49
0.0675499 0.0162405 -0.0618687 255 255 255
0.0761713 0.0263032 -0.0760081 31 8 0
0.0766347 0.0372763 -0.0869124 235 133 130
0.0702759 0.0256473 -0.0698359 6 3 0
0.0756127 0.030867 -0.0805525 60 0 0
0.0785153 0.02409 -0.0747364 132 97 88
0.0798126 0.0263231 -0.0830845 57 27 10
0.0779986 0.0326296 -0.0804079 216 134 131
0.0776019 0.0329546 -0.0801866 255 231 198
0.0653357 0.0162798 -0.0770369 84 0 0
0.0698297 0.0158641 -0.0743566 255 185 168
0.0772922 0.032893 -0.0790768 250 211 158
0.0753573 0.0317105 -0.0772253 174 157 133
0.0852085 0.0276661 -0.0802104 97 89 84
0.0820718 0.0336774 -0.0803378 255 255 255
0.0841837 0.0303551 -0.0795778 219 94 87
0.0671047 0.0188693 -0.0782184 206 110 102
0.0823469 0.0343672 -0.071638 255 132 132
0.0761417 0.0253945 -0.0772198 173 118 126
0.0759421 0.0265541 -0.0698676 153 109 107
0.0780954 0.0274979 -0.0796716 226 160 148
0.0615341 0.0237787 -0.0757919 166 89 81
0.0814045 0.0281377 -0.0773465 212 148 148
0.064195 0.0131987 -0.0815149 121 49 43
0.068168 0.00263404 -0.0707801 255 197 197
0.0619 0.00947812 -0.0723508 126 55 47
0.0755724 0.0303124 -0.07797 57 0 0
0.0786424 0.0323844 -0.0749728 142 100 102
0.0658634 0.0256392 -0.0701512 0 0 0
0.0739106 0.0358419 -0.0855207 18 0 0
0.0738698 0.0370388 -0.0887714 169 99 88
0.0800089 0.0356439 -0.082047 237 181 169
0.0850395 0.0311314 -0.0734539 255 255 255
0.0700866 0.0199011 -0.081502 209 110 104
0.0753474 0.0234948 -0.0734695 255 214 202
0.0674979 0.0133263 -0.0805542 77 0 9
0.0799615 0.0245229 -0.0799082 142 89 95
0.08326 0.0358104 -0.0723116 233 252 227
0.0694778 0.0145839 -0.0720286 86 20 10
0.0752797 0.0278684 -0.068351 159 127 111
0.074911 0.0324549 -0.0828125 60 52 51
0.085853 0.0344708 -0.0809999 255 255 255
0.0843133 0.0258331 -0.0770208 255 255 255
0.0622158 0.0148592 -0.0634959 255 178 157
0.0884234 0.0351729 -0.0612797 255 255 255
0.079084 0.0333792 -0.0783773 255 178 180
0.0860693 -0.00273138 -0.0833179 126 255 255
0.0857808 0.0310008 -0.0768758 207 155 133
0.0611508 0.0153734 -0.0809694 167 93 94
0.083792 0.0366792 -0.0747516 208 205 200
0.0822978 0.0303109 -0.0705539 255 255 255
0.0825476 0.0305188 -0.08595 213 220 206
0.0763528 0.0236138 -0.0705688 255 201 198
0.0753851 0.0190321 -0.0651172 128 109 92
0.0701016 0.00796457 -0.0861995 159 96 81
0.0733965 0.0219706 -0.0709169 96 56 54
0.0575811 0.0152401 -0.0710041 230 82 77
0.077331 0.0121934 -0.0692315 187 141 134
0.0688732 0.0159276 -0.0708507 154 53 47
0.0729392 0.0238748 -0.0734005 0 0 0
0.0728508 0.0188454 -0.0685023 45 0 0
0.0615738 0.0145371 -0.0662247 226 126 121
0.0674339 0.00633778 -0.0782203 121 68 58
0.0855101 0.0295202 -0.0779387 138 194 203
0.0816255 0.0249823 -0.0776457 139 89 92
0.0754692 0.0284095 -0.0726116 110 76 73
0.0690319 0.012425 -0.0788578 73 0 0
0.0795785 0.0269064 -0.0824382 148 109 114
0.0744427 0.030228 -0.0688638 255 255 208
0.0742159 0.0322304 -0.0861677 0 0 0
0.0713724 0.0295927 -0.0825446 72 45 42
0.0808557 0.0205261 -0.0900732 219 152 151
0.0862205 0.00995363 -0.0903481 255 110 33
0.0676031 0.00146008 -0.0712438 244 170 143
0.0799154 0.0143755 -0.0782377 255 255 251
0.0815105 0.0286589 -0.0730533 205 107 111
0.0782019 0.0237247 -0.0792864 177 108 103
0.065619 0.0151877 -0.0696901 143 67 59
0.0743418 0.0250909 -0.0733477 109 74 70
0.0594359 0.0173302 -0.078792 136 41 41
0.0768786 0.0313559 -0.0814143 247 195 181
0.0728965 0.0283614 -0.0767948 105 71 70
0.0699609 0.0236956 -0.0687828 120 84 82
0.0793827 0.0284698 -0.0806166 255 209 211
0.0753828 0.021042 -0.0644998 169 141 131
0.0837543 0.00506824 -0.0871147 255 217 209
0.0718344 0.0143929 -0.0760736 129 67 59
0.0785485 0.0136298 -0.0702804 255 188 172
0.0636023 0.0132793 -0.0823454 130 65 62
0.0734875 0.0197324 -0.068356 83 37 33
0.0905224 0.0318773 -0.0647748 255 255 255
0.0890218 0.0357112 -0.0660525 255 255 255
0.0773028 0.0267422 -0.0718883 130 95 99
0.0857089 0.034566 -0.0775322 255 175 161
0.0754346 0.0343571 -0.0841131 0 0 0
0.0746996 0.0281607 -0.0800009 203 150 134
0.0705513 0.0351011 -0.0829249 84 36 24
0.082092 0.0140474 -0.0851277 213 132 120
0.0701594 0.00696918 -0.084217 180 94 81
0.0797741 0.031492 -0.0753835 230 116 93
0.073324 0.0151571 -0.0606511 190 141 143
0.0735924 0.021367 -0.0706107 96 58 54
0.0779551 0.0219558 -0.0759614 219 160 153
0.0605811 0.0213266 -0.0804204 132 39 35
0.078802 0.0370661 -0.086925 192 74 70
0.0716478 0.0264726 -0.0618727 255 255 255
0.0895336 0.0385072 -0.0815033 140 115 98
0.0646444 0.0168916 -0.0609844 255 255 255
0.0766049 0.0311582 -0.0841824 191 113 111
0.0881727 0.0294919 -0.0721544 217 180 205
0.0767292 0.031815 -0.0810169 228 172 157
0.0897414 0.0340046 -0.061093 255 108 104
0.0688292 0.00243274 -0.0659545 255 193 172
0.0789439 0.0118511 -0.0907258 166 46 32
0.08142 0.0125691 -0.0996228 190 73 63
0.0766898 0.0164235 -0.090622 149 39 24
0.083243 0.0116269 -0.0896107 155 54 41
0.0743357 0.00639462 -0.0946477 253 103 95
0.0774118 0.00971069 -0.0935754 255 162 151
0.0726246 0.00646028 -0.0942486 228 92 85
0.0731362 0.00442411 -0.0875879 227 127 115
0.0696828 0.0171816 -0.0890243 240 150 133
0.0851136 0.0307191 -0.0966872 255 226 145
0.0726579 0.00890754 -0.0929978 217 124 115
0.0805188 0.026145 -0.0919893 255 0 11
0.0787959 0.00926216 -0.094881 255 160 140
0.0791329 0.0265827 -0.0951329 255 173 163
0.0822826 0.0227669 -0.0896997 255 255 255
0.0706777 0.00702238 -0.0865632 189 104 93
0.079932 0.0311146 -0.0963415 255 140 129
0.0678624 0.0150014 -0.0909909 106 38 28
0.0775948 0.0146905 -0.0842282 211 116 103
0.0789078 0.0294344 -0.0862126 143 148 141
0.0664393 0.0125427 -0.0852558 164 89 80
0.0862035 0.0281182 -0.0882281 21 9 0
0.0789768 0.0266581 -0.0955217 237 74 63
0.0720059 0.0261635 -0.0878112 178 112 118
0.067263 0.0148298 -0.0896988 138 68 60
0.078842 0.0280785 -0.0798175 181 96 99
0.0782978 0.0276633 -0.0968132 246 0 0
0.077531 0.0293517 -0.0938365 176 214 213
0.0802102 0.0174397 -0.0902858 136 0 0
0.0810331 0.0304182 -0.0890095 178 132 121
0.0686612 0.012115 -0.0885867 171 89 79
0.0758928 0.0246784 -0.0854921 134 80 77
0.0719371 0.0220266 -0.0851326 156 93 82
0.0717135 0.0115188 -0.0947216 105 35 34
0.0747513 0.0168406 -0.0869396 130 15 0
0.0803266 0.0311688 -0.0943133 244 108 92
0.0666004 0.0131432 -0.0877192 81 28 26
0.0700779 0.0244866 -0.089428 156 83 76
0.0660539 0.0185958 -0.0891339 161 70 61
0.0733405 0.0255447 -0.0789501 186 155 132
0.0690167 0.0145242 -0.092847 129 69 59
0.0661677 0.0136862 -0.0861306 110 55 48
0.0818661 0.038441 -0.0869997 193 81 79
0.0826135 0.031761 -0.093559 246 141 128
0.0786217 0.0401247 -0.0857997 157 70 63
0.0677382 0.01384 -0.08928 94 20 17
0.0660864 0.0153462 -0.0895309 150 69 66
0.0783478 0.0258756 -0.084991 130 66 72
0.0702784 0.0155978 -0.0886967 127 0 0
0.0739637 0.0274164 -0.0866233 176 140 136
0.0843344 0.0315109 -0.0960505 185 126 114
0.0841077 0.0198229 -0.100949 176 80 27
0.0682478 0.0318153 -0.0814224 63 36 32
0.0752318 0.0270684 -0.0851867 99 70 73
0.0745266 0.0246524 -0.0798608 101 57 56
0.0645005 0.0175906 -0.0887571 149 62 57
0.0648555 0.0201424 -0.0847272 95 0 0
0.0845115 0.0367358 -0.0868448 180 93 79
0.0721095 0.0223569 -0.0816086 90 36 35
0.076901 0.0266272 -0.0799035 135 97 103
0.0745247 0.0288777 -0.0814787 70 48 45
0.0721417 0.027728 -0.0900918 174 111 108
0.0753466 0.0292878 -0.0827679 71 51 52
0.0810955 0.0269863 -0.0841166 205 84 111
0.0757304 0.0261726 -0.0840687 70 45 45
0.0751749 0.0288088 -0.0821032 112 78 78
0.0688157 0.0218123 -0.092849 132 0 0
0.0664292 0.0273009 -0.0863128 136 30 29
0.0671217 0.0223985 -0.0866586 174 86 78
0.0655908 0.0160585 -0.0837688 207 111 104
0.0813359 0.027036 -0.0911275 227 0 0
0.0729944 0.0269316 -0.0843846 172 135 144
0.0768895 0.0271435 -0.073906 87 62 62
0.0786337 0.0246517 -0.083511 124 74 80
0.0727301 0.0209893 -0.0831294 255 194 180
0.0664968 0.0245267 -0.0980861 49 69 77
0.0745335 0.0249772 -0.0875362 156 117 123
0.0757796 0.0306264 -0.0830634 64 41 39
0.0741176 0.0233986 -0.0858751 39 18 21
0.0685629 0.0311432 -0.0828616 73 29 26
0.0732751 0.0282477 -0.0816307 36 0 0
0.0637407 0.0167788 -0.0826859 94 8 0
0.0750666 0.0297755 -0.0827832 53 29 30
0.0725156 0.0261776 -0.0819414 71 44 43
0.0653586 0.0263089 -0.0906872 141 49 46
0.0780193 0.0268098 -0.0914275 63 3 0
0.077166 0.0357845 -0.0848853 0 0 0
0.0738643 0.0292916 -0.08868 113 91 82
0.0772563 0.0276347 -0.0784729 62 47 47
0.0823127 0.0394573 -0.0846129 147 52 38
0.0658702 0.0161178 -0.0898442 127 45 36
0.0743529 0.0282866 -0.0806483 108 78 73
0.0759323 0.0304253 -0.0815319 23 13 15
0.0619071 0.0180387 -0.0869109 118 27 24
0.0726942 0.0238397 -0.0806153 47 0 0
0.0732217 0.0249765 -0.0884762 49 15 27
0.0698396 0.0202277 -0.087641 161 78 72
0.0773092 0.0386444 -0.0861158 255 156 151
0.0697351 0.0200399 -0.0848208 210 111 102
0.0668672 0.0132011 -0.084429 215 96 85
0.0668741 0.0194393 -0.09294 33 33 0
0.0639662 0.0247687 -0.0893707 103 14 9
0.0783579 0.0370797 -0.0861085 207 87 83
0.075762 0.030079 -0.0796207 84 59 64
0.0750146 0.0282619 -0.0799788 36 32 37
0.0781665 0.0288125 -0.0829861 54 0 0
0.0619845 0.017974 -0.0843047 51 24 24
0.0629722 0.0178769 -0.08001 255 168 142
0.0678881 0.017629 -0.0885658 174 86 79
0.0766986 0.0400067 -0.0867411 181 75 68
0.0645559 0.0202957 -0.0956277 130 61 56
0.0697851 0.0245139 -0.0794959 102 51 49
0.0700732 0.0143896 -0.0818797 89 41 27
0.0636242 0.0158933 -0.0945245 137 88 78
0.075993 0.032461 -0.0815658 88 59 59
0.0656388 0.0166629 -0.0807199 255 255 255
0.0618346 0.0115851 -0.080227 124 13 12
0.0658448 0.0223797 -0.0844916 191 77 71
0.0732639 0.0310567 -0.078499 139 91 91
0.0681496 0.0330897 -0.0828081 63 24 25
0.0632559 0.0244248 -0.085208 151 46 51
0.0635482 0.0183898 -0.0805862 81 7 0
0.0644989 0.0254054 -0.0903397 173 87 81
0.0743838 0.03458 -0.0852677 141 125 129
0.0743064 0.0290163 -0.0843991 84 55 53
0.0661805 0.029495 -0.0866473 54 0 0
0.0750656 0.0279981 -0.0791524 81 51 54
0.0740701 0.0226469 -0.0894134 170 88 85
0.0717077 0.0369007 -0.0837552 0 24 32
0.0716508 0.0357613 -0.0872201 35 0 0
0.0725508 0.0247083 -0.0839623 108 69 62
0.0693349 0.0262518 -0.0721542 37 0 0
0.0737597 0.0352751 -0.0829341 115 91 101
0.0645666 0.0263886 -0.0788154 150 58 54
0.0752605 0.0301544 -0.0814276 44 9 13
0.0847496 0.00578007 -0.0913061 255 0 0
0.0840041 0.0121651 -0.0941102 255 164 0
0.0725469 0.0168019 -0.0954457 193 91 77
0.0824633 0.0134538 -0.081854 248 133 122
0.0886677 0.00687642 -0.079941 209 212 175
0.0804633 0.0166789 -0.0947365 183 96 79
0.0758226 0.0212936 -0.100249 209 94 86
0.081561 0.0192633 -0.0893469 207 128 115
0.0730845 0.019048 -0.0941583 220 116 105
0.0815238 0.0142282 -0.102417 177 62 54
0.072882 0.0137301 -0.094792 150 0 22
0.0833092 0.0276075 -0.0855246 185 0 0
0.0655892 0.0032599 -0.0667633 172 109 94
0.0626835 0.0149674 -0.0870982 125 37 27
0.0635914 0.0254935 -0.0748671 157 72 69
0.0750797 0.0180827 -0.0645613 144 129 114
0.0765222 0.0228142 -0.0705533 50 0 0
0.081732 0.0248717 -0.0828338 191 170 156
0.0714796 0.0139105 -0.0605043 255 232 213
0.0836288 0.0260881 -0.0816498 133 97 76
0.0661956 0.0104485 -0.0818988 130 59 52
0.0690899 0.0154822 -0.0698077 255 156 141
0.0608058 0.0178394 -0.081102 163 71 65
0.0778358 0.0388898 -0.085706 177 60 52
0.0602577 0.0202232 -0.0699666 153 53 48
0.0775367 0.0353043 -0.0843828 207 101 98
0.0814307 0.0296171 -0.0837703 189 56 57
0.0782881 0.0358775 -0.079743 255 194 182
0.0723339 0.0279562 -0.0712133 41 0 0
0.0626003 0.0122474 -0.0510063 255 162 155
0.0673204 0.0279144 -0.0772327 122 55 50
0.0640149 0.0192534 -0.0642318 210 83 77
0.0712255 0.02475 -0.0772035 106 64 62
0.0673949 0.0248685 -0.0644511 45 0 4
0.0646081 0.021843 -0.0855965 160 54 48
0.059637 0.018644 -0.0583203 209 101 89
0.0749516 0.0301517 -0.080543 55 0 7
0.0799029 0.0130774 -0.102161 176 53 38
0.073961 0.0276724 -0.096599 157 88 94
0.0806841 -0.000209004 -0.0866669 255 214 202
0.0828951 0.0358423 -0.0913769 151 146 154
0.0783797 0.0308017 -0.0917615 213 110 102
0.0637295 0.00219561 -0.0702218 255 112 97
0.0813911 0.0334944 -0.0854756 128 0 0
0.0823265 0.0144452 -0.0858072 252 208 184
0.0797339 0.0282652 -0.07843 255 176 181
0.0653359 0.0117112 -0.0843205 151 85 85
0.0744712 0.0208809 -0.0668007 137 101 92
0.0825262 0.0282953 -0.0815202 182 149 140
0.0671159 0.0153279 -0.0652306 119 0 0
0.0675583 0.0165643 -0.0612739 200 100 92
0.0783284 0.0291221 -0.0767268 190 145 130
0.0859102 0.0362566 -0.0772258 253 134 130
0.078024 0.0353201 -0.0805046 81 0 0
0.0724935 0.00535532 -0.0797136 154 100 82
0.0636772 0.0161718 -0.0616554 134 48 47
0.0723335 0.0319335 -0.100975 205 41 0
0.0739981 0.0276801 -0.0808605 99 72 66
0.0600593 0.0150207 -0.0627889 197 88 79
0.0754293 0.0366297 -0.0854227 255 195 178
0.0713218 0.0367056 -0.0830288 40 11 9
0.0668118 0.0079857 -0.0527871 255 237 236
0.0804489 0.0213683 -0.0956726 198 52 73
0.0629137 0.0165938 -0.0600943 191 74 64
0.0805039 0.0234116 -0.090817 255 255 255
0.0718672 0.00653696 -0.0716038 172 104 81
0.0718079 0.0363607 -0.100212 160 24 12
0.0701262 0.0103926 -0.0937882 189 106 100
0.0822585 0.0389923 -0.0863127 164 61 49
0.0714317 0.0363995 -0.0841171 55 30 30
0.0654366 0.0266766 -0.090728 135 49 46
0.0632417 0.0295737 -0.0943979 0 26 31
0.0748318 0.0184996 -0.0884714 189 82 72
0.085481 0.0286585 -0.094234 255 255 252
0.0787107 0.0249072 -0.0935428 237 255 255
0.0855903 0.0354911 -0.0699323 255 255 255
0.0756423 0.0154875 -0.0740143 229 148 144
0.0818586 0.0226322 -0.0907706 189 0 0
0.0904746 0.0351443 -0.0643339 255 255 255
0.0774204 0.0196429 -0.0605318 132 94 91
0.0755568 0.0171357 -0.065484 163 134 118
0.0682196 -0.00138964 -0.0710733 255 0 0
0.0730913 0.0287856 -0.0884769 131 43 50
0.0796725 0.0151813 -0.0978598 255 141 0
0.0778989 0.0191146 -0.0728963 163 87 85
0.0768489 0.019704 -0.0661173 63 33 29
0.0746408 0.0251312 -0.0734993 103 71 63
0.0674625 0.0175 -0.0606073 197 112 105
0.0823582 0.0227573 -0.0771727 118 143 136
0.0641637 0.0150786 -0.0839346 130 47 43
0.0684333 0.014982 -0.0662539 201 104 100
0.0782078 0.0230575 -0.0707075 132 109 110
0.0719349 0.0275867 -0.0848898 68 38 39
0.0643663 0.0146726 -0.0721993 94 0 0
0.0745021 0.0279411 -0.0738382 255 255 255
0.074767 0.0293933 -0.0789241 107 85 81
0.068648 0.0248253 -0.0581151 66 38 37
0.0631766 0.0222283 -0.0647262 212 86 82
0.0735074 0.0296128 -0.101892 255 81 62
0.072896 0.00517169 -0.0883749 255 178 171
0.0776211 0.0195038 -0.0764132 180 106 104
0.0800178 0.0296556 -0.0758861 255 255 232
0.0835115 0.028688 -0.0795271 204 140 128
0.0622778 0.0205881 -0.0935539 154 79 68
0.0818721 0.0287831 -0.0818402 79 54 54
0.0708902 0.00653873 -0.0546519 255 255 255
0.0801829 0.0340106 -0.0770985 167 75 72
0.0635306 0.0146327 -0.0840251 146 72 59
0.0884037 0.0302933 -0.0685189 255 205 200
0.0676403 0.00820183 -0.0570037 189 115 113
0.0732584 0.0229135 -0.0591979 137 103 89
0.0697933 0.0125616 -0.05922 197 126 113
0.0650571 0.0181073 -0.0586156 224 119 106
0.0690549 0.0250292 -0.0707296 88 53 50
0.0743115 0.0384864 -0.0867775 195 100 92
0.0815443 0.0177969 -0.0884204 203 187 176
0.0839549 0.0287195 -0.0901358 245 149 137
0.0772438 0.0275412 -0.0973882 232 42 12
0.0770965 0.0200383 -0.0881452 255 98 89
0.0832921 0.021115 -0.0964992 255 221 197
0.0786313 0.0273188 -0.100589 204 99 90
0.0891853 0.0345746 -0.0754405 255 255 255
0.0789385 0.0265618 -0.101303 255 255 255
0.0856078 0.0180256 -0.0965008 255 144 0
0.0821118 0.0169826 -0.0885624 176 0 0
0.0715856 0.0227573 -0.0938082 239 117 107
0.0775489 0.028843 -0.100208 255 255 234
0.0636059 0.0101197 -0.0661289 245 0 0
0.0656306 0.00705717 -0.0554547 255 0 0
0.0815266 0.0166141 -0.100562 150 38 29
0.0780098 0.0277651 -0.0945348 255 238 228
0.0807424 0.0288404 -0.0977775 255 113 96
0.0842325 0.0310408 -0.0971611 182 144 137
0.0786724 0.0159618 -0.0888516 249 156 138
0.0805404 0.0262486 -0.0975554 255 163 137
0.0788697 0.009617 -0.0906534 255 222 179
0.0824032 0.0188658 -0.0947651 21 24 0
0.0792907 0.0184882 -0.0873736 255 249 239
0.0846506 0.0240507 -0.0882973 223 144 135
0.0810063 0.0295116 -0.0937542 254 111 97
0.0830125 0.0216298 -0.0985872 172 248 0
0.0723982 0.0110884 -0.0950432 171 89 78
0.0731679 0.011903 -0.0974784 178 83 75
0.0781053 0.028579 -0.0982488 249 140 122
0.0712999 0.0110403 -0.0923023 179 86 78
0.083787 0.0322955 -0.0974326 249 78 57
0.0818004 0.0287056 -0.0963734 234 94 80
0.0759357 0.00564505 -0.0956153 203 108 97
0.0818341 0.0273422 -0.083231 157 158 157
0.0817711 0.0212193 -0.0903346 200 15 0
0.0819118 0.0252201 -0.0887997 232 0 0
0.0713299 0.0191749 -0.0856446 227 143 123
0.0778516 0.0290402 -0.084117 140 30 31
0.0675821 0.0136562 -0.0887866 166 99 88
0.0806329 0.0197769 -0.0842601 123 57 51
0.0823567 0.0184439 -0.0886691 180 0 0
0.0771712 0.015253 -0.0920639 162 0 29
0.0814443 0.0254555 -0.0837491 0 0 0
0.0880796 0.0360484 -0.0855963 143 89 80
0.0679272 0.0212633 -0.0845704 126 10 11
0.0742813 0.0175224 -0.085729 218 143 131
0.0819792 0.0301933 -0.0847616 120 70 64
0.0775777 0.0267571 -0.0842137 153 81 88
0.0663332 0.0137003 -0.0886357 148 79 70
0.0762276 0.0280894 -0.082281 152 104 99
0.0808743 0.018162 -0.0809542 169 100 83
0.0644241 0.0182741 -0.089209 152 64 68
0.0709902 0.0199323 -0.0880815 154 88 79
0.0792458 0.0365516 -0.0820708 255 249 239
0.069974 0.0337222 -0.0837285 88 43 38
0.0637722 0.0153099 -0.0799759 122 0 0
0.0778737 0.0254097 -0.0796867 189 126 122
0.0722138 0.0373441 -0.0798637 93 54 53
0.0773949 0.0308255 -0.079393 75 52 36
0.0777991 0.0230132 -0.0873744 62 7 0
0.0643663 0.0236688 -0.0897412 91 0 0
0.0719308 0.0203905 -0.0884729 142 74 67
0.0751932 0.0278271 -0.0849939 61 22 22
0.0733761 0.0352357 -0.0852342 159 129 121
0.0610414 0.0202303 -0.0863738 167 74 67
0.0748558 0.0256895 -0.0733046 27 5 0
0.0635799 0.0246638 -0.0885293 146 45 38
0.0762631 0.0295818 -0.0767599 93 63 66
0.0750993 0.0208574 -0.0857691 188 110 111
0.0730091 0.0254091 -0.0775843 141 111 107
0.0778057 0.0334236 -0.0799416 255 243 216
0.0644893 0.0155633 -0.0855572 178 91 83
0.0727276 0.0391037 -0.0814456 12 39 42
0.0703753 0.0276163 -0.0808474 54 0 0
0.0648041 0.0164724 -0.087384 155 65 59
0.0715054 0.0366509 -0.0812604 50 0 0
0.0680734 0.0186098 -0.0866015 84 0 0
0.0742856 0.0294827 -0.0813643 92 58 57
0.0743738 0.0350153 -0.0859864 20 0 0
0.0703463 0.0276451 -0.0937468 102 50 49
0.0721692 0.0384815 -0.0815758 74 46 45
0.0610707 0.0211333 -0.0847654 154 36 28
0.0726599 0.0308441 -0.082338 169 119 113
0.075384 0.0356761 -0.0773981 9 0 0
0.0750077 0.0333731 -0.0857672 49 38 38
0.07197 0.031506 -0.0856273 59 10 0
0.0743715 0.0382088 -0.0865339 220 132 124
0.0742273 0.0387463 -0.0848462 157 89 76
0.0644558 0.0233035 -0.0874298 158 42 36
0.0902345 0.0230617 -0.0907345 255 247 211
0.0691497 0.00656388 -0.0656009 193 121 111
0.0753522 0.0206916 -0.0660203 137 105 97
0.0723136 0.00621461 -0.051411 165 141 135
0.0722147 0.0146079 -0.0606348 44 3 0
0.065448 0.0200042 -0.0742693 204 104 100
0.062842 0.0203492 -0.0575615 187 77 74
0.066071 0.0290711 -0.062001 157 77 72
0.0721853 0.0217938 -0.0643493 163 138 143
0.0722022 0.0249415 -0.0686505 42 27 26
0.076178 0.0279671 -0.106973 255 255 200
0.0781716 0.0266709 -0.094151 196 140 129
0.0765479 0.0237019 -0.100994 134 14 9
0.0840631 0.0202501 -0.0694534 183 160 163
0.072958 0.0194645 -0.0882826 92 0 7
0.0746068 0.0239531 -0.071795 137 115 104
0.0704557 0.00784158 -0.0578922 185 133 132
0.0655354 0.00244148 -0.0541754 255 233 221
0.0634667 0.015143 -0.0570724 113 27 25
0.0726341 0.0162905 -0.0587523 85 60 57
0.0630249 0.0146436 -0.0632911 171 91 79
0.0729601 0.0210129 -0.0677436 118 90 87
0.0599269 0.0116439 -0.0585512 183 85 79
0.0743339 0.0365228 -0.0881515 238 166 148
0.0655074 0.0268367 -0.0609413 151 94 93
0.0646081 0.0154269 -0.062105 130 0 0
0.0739638 0.028283 -0.0810264 113 86 83
0.0683384 0.0152329 -0.105631 231 117 111
0.0808318 0.0259438 -0.0925365 230 10 0
0.0815801 0.033475 -0.108581 133 63 59
0.0734423 0.0289807 -0.101434 255 80 63
0.0834811 0.0329915 -0.0814888 182 133 122
0.0770025 0.0267487 -0.0938678 89 0 0
0.0835154 0.0382375 -0.0855715 159 60 44
0.076377 0.032356 -0.112926 210 84 77
0.0877492 0.0343933 -0.0710834 255 255 255
0.0712111 0.0276043 -0.0667717 90 69 51
0.0896572 0.0368686 -0.0714588 255 255 255
0.0651579 0.0260404 -0.0867124 134 51 44
0.0758422 0.0169279 -0.0640661 204 175 157
0.0641509 0.0178317 -0.0612077 255 255 255
0.0729039 0.0096139 -0.0541376 215 206 202
0.0726805 0.0267759 -0.0632249 255 255 255
0.0702505 0.0108476 -0.0603693 185 92 86
0.0778852 0.0171111 -0.0650813 168 154 175
0.0775079 0.0229696 -0.100248 178 72 64
0.0647596 0.023778 -0.0584578 67 0 0
0.0729958 0.00996267 -0.0999048 184 69 49
0.0768922 -0.000671862 -0.0804464 255 255 255
0.0812075 0.0312418 -0.0884863 151 97 89
0.0755345 0.0170616 -0.0669323 179 171 156
0.0787084 0.0289719 -0.0779881 172 87 89
0.0809398 0.0245926 -0.0783947 157 103 109
0.0653517 0.0131773 -0.056919 203 105 103
0.0815254 0.0340231 -0.0728517 242 159 146
0.0666454 0.016899 -0.0729753 197 97 90
0.0711443 0.0279754 -0.082803 88 36 36
0.0823261 0.0394128 -0.0703081 255 138 133
0.0742408 0.0341251 -0.0863952 31 0 0
0.0666007 0.016914 -0.0602651 255 255 255
0.0722841 0.0260988 -0.0636184 14 0 0
0.0703081 0.0306561 -0.10259 22 0 0
0.066429 0.0307832 -0.0647705 130 55 51
0.0656963 0.0281336 -0.068189 126 66 63
0.0700067 0.0256673 -0.0643115 89 56 55
0.0767007 0.0423485 -0.0756447 196 78 76
0.0640987 0.0251712 -0.0655903 255 218 206
0.0717114 0.00845231 -0.0937072 191 67 67
0.0809153 0.0297569 -0.0767341 194 103 98
0.0783944 0.0345865 -0.0807359 232 151 149
0.0654832 0.0184648 -0.0610979 139 0 0
0.0665127 0.0200291 -0.08809 159 67 60
0.0705564 0.0194415 -0.0628056 108 72 73
0.0622393 0.0167472 -0.0710035 255 219 218
0.0604905 0.004541 -0.0491273 194 189 181
0.0589619 0.0148274 -0.0549979 162 49 44
0.072886 0.0387479 -0.079811 62 17 0
0.0631101 0.0235929 -0.0671165 218 91 84
0.071252 0.0274112 -0.0713752 255 255 255
0.0676562 0.0292473 -0.0886248 80 16 13
0.0785855 0.032085 -0.10342 173 59 57
0.0804841 0.0216477 -0.0909823 217 110 102
0.0729261 0.0263898 -0.0741241 255 251 255
0.0783113 0.0260589 -0.0950388 247 123 101
