ply
format ascii 1.0
comment Created by Open3D
element vertex 1186
property double x
property double y
property double z
property uchar red
property uchar green
property uchar blue
end_header
0.0803607 0.184375 -0.0503117 168 87 78
0.0681624 0.193129 -0.0266093 255 255 245
0.0756838 0.197504 -0.044154 249 139 124
0.0695521 0.189243 -0.0456332 255 181 164
0.0821005 0.195441 -0.0422358 255 146 133
0.0804054 0.190026 -0.0482062 255 255 255
0.0754503 0.163378 -0.0489621 61 24 21
0.0877172 0.190801 -0.0364934 0 36 0
0.0705219 0.178663 -0.0486793 148 88 80
0.0722087 0.193212 -0.0467824 255 140 125
0.0879675 0.187824 -0.0300498 255 218 196
0.0640147 0.174492 -0.0389118 154 94 85
0.066452 0.191613 -0.0448822 255 113 122
0.0817656 0.171415 -0.0290935 167 110 98
0.0799947 0.184185 -0.0267042 198 118 106
0.0727431 0.191549 -0.0265524 255 147 120
0.0623471 0.195813 -0.0378381 99 30 30
0.0799942 0.192742 -0.0218108 255 255 255
0.0770761 0.189879 -0.0508628 115 0 0
0.0536539 0.163881 -0.0538069 76 63 47
0.0831398 0.17849 -0.0419259 126 65 55
0.0806047 0.179271 -0.0401762 48 7 0
0.0861344 0.193142 -0.0396997 255 255 252
0.0735084 0.194762 -0.0231482 255 211 191
0.0627927 0.161193 -0.0370635 88 71 69
0.0895261 0.184582 -0.0303544 255 166 153
0.0606562 0.1907 -0.0419135 255 149 131
0.0887945 0.196681 -0.0389628 255 224 204
0.0820722 0.184537 -0.0404527 64 0 0
0.0722248 0.17893 -0.0524068 137 88 82
0.0767065 0.178286 -0.0485912 91 13 6
0.0786227 0.196474 -0.0469096 191 96 89
0.0812201 0.204045 -0.0206531 218 181 171
0.073798 0.198363 -0.0468749 255 170 151
0.0774124 0.189717 -0.0269747 130 11 0
0.0800501 0.149433 -0.050322 255 156 165
0.0658778 0.18202 -0.0411433 161 92 82
0.0753032 0.178998 -0.0366428 0 12 10
0.0899508 0.190396 -0.0331136 255 255 255
0.0797994 0.196535 -0.0493863 253 137 123
0.0862718 0.185347 -0.0302005 255 255 255
0.0694902 0.192172 -0.0453659 253 133 115
0.0684467 0.198766 -0.0420757 255 143 127
0.067931 0.143413 -0.0391536 116 12 11
0.0829012 0.188619 -0.0236353 255 170 157
0.0623479 0.192928 -0.0313182 255 210 193
0.0690922 0.180824 -0.027671 145 78 66
0.056072 0.154071 -0.0476424 109 75 67
0.0764801 0.156439 -0.0319045 103 25 15
0.061611 0.176426 -0.0327691 185 107 94
0.0788749 0.157095 -0.0413672 72 40 36
0.069172 0.176484 -0.0245848 255 177 158
0.077994 0.1751 -0.0490735 174 113 103
0.0805625 0.174697 -0.0342586 128 75 65
0.0865753 0.193598 -0.0416284 255 255 250
0.0738891 0.190225 -0.0240119 122 46 27
0.0637704 0.195218 -0.0365227 202 107 104
0.0768069 0.19784 -0.0194034 255 0 0
0.0832113 0.18559 -0.0217109 255 255 255
0.0674768 0.196385 -0.0415947 255 220 193
0.077987 0.172317 -0.0321047 88 37 26
0.0878252 0.179895 -0.0314198 208 114 105
0.0655328 0.185653 -0.0335212 198 117 107
0.0655461 0.195277 -0.0300857 241 147 131
0.0641131 0.127594 -0.0406415 88 49 67
0.0869761 0.195381 -0.0429411 255 255 255
0.0609092 0.179422 -0.0492348 255 133 118
0.0682029 0.195006 -0.0296617 255 173 151
0.0877597 0.187172 -0.0295202 255 255 255
0.0647365 0.193404 -0.0321156 232 156 147
0.0773466 0.156217 -0.0394033 133 88 78
0.0771743 0.174435 -0.0331881 161 90 79
0.0668442 0.173794 -0.0509956 255 255 249
0.0763603 0.188767 -0.0511938 130 58 56
0.069754 0.194522 -0.026633 238 156 136
0.0801207 0.186872 -0.0240208 163 87 78
0.0806918 0.18317 -0.0482682 199 124 114
0.0693617 0.196649 -0.0441976 255 145 127
0.0812542 0.170929 -0.0485723 125 65 57
0.0641203 0.191523 -0.0331219 213 115 98
0.0709851 0.188034 -0.0483865 255 255 255
0.0882807 0.191686 -0.0367528 240 27 0
0.0559845 0.151394 -0.0450662 39 21 17
0.0686083 0.168271 -0.0314542 248 164 155
0.0661358 0.194683 -0.0296564 202 109 97
0.0640247 0.193539 -0.0359518 255 255 255
0.079025 0.19558 -0.0473536 235 124 119
0.0717166 0.194594 -0.0238652 120 0 0
0.0804829 0.188811 -0.023476 180 54 24
0.0773856 0.194061 -0.0242415 255 151 132
0.0811947 0.194543 -0.046627 255 220 199
0.0687295 0.128567 -0.0539195 0 17 13
0.0623055 0.189991 -0.0354049 255 230 207
0.0890076 0.206043 -0.0345591 255 255 255
0.0863158 0.193147 -0.0395399 255 255 255
0.0661973 0.180424 -0.0328024 49 10 0
0.0580404 0.169894 -0.0340276 194 118 112
0.0593574 0.182304 -0.0385404 202 115 107
0.0736301 0.152014 -0.0604617 118 114 101
0.0708107 0.194981 -0.0251196 255 255 255
0.086345 0.181103 -0.0286907 84 11 0
0.0640713 0.180621 -0.0403461 78 14 10
0.0835201 0.194814 -0.0399659 255 156 137
0.0754716 0.166732 -0.0327676 255 185 175
0.0637818 0.193772 -0.0374611 244 185 168
0.0710612 0.19446 -0.0268431 255 212 194
0.0793992 0.183921 -0.0263002 255 178 164
0.0710379 0.187871 -0.0246486 194 24 0
0.0746293 0.199459 -0.0470772 255 164 146
0.078581 0.172247 -0.0270007 192 122 115
0.0632912 0.194701 -0.0385442 195 123 109
0.0707967 0.157562 -0.0569356 65 35 32
0.0642061 0.158293 -0.0396639 78 43 39
0.0653081 0.186872 -0.0342475 194 124 115
0.0733514 0.185814 -0.0251663 255 11 3
0.0648772 0.196265 -0.0405949 121 33 24
0.0601133 0.157402 -0.0366286 103 69 62
0.0681984 0.192555 -0.0456583 255 162 150
0.0800287 0.19304 -0.0433227 0 0 0
0.0877011 0.194167 -0.0361442 255 68 63
0.0648888 0.188132 -0.0356019 101 37 32
0.0703423 0.180217 -0.052281 152 97 88
0.0835337 0.200592 -0.0346978 255 226 204
0.0759366 0.187797 -0.027995 175 101 91
0.0863436 0.173023 -0.0375505 255 188 164
0.0864791 0.189201 -0.0289876 197 89 50
0.0855428 0.19652 -0.0424872 255 159 144
0.075529 0.184218 -0.022907 255 0 0
0.0770743 0.175301 -0.0332662 255 209 199
0.0742888 0.185942 -0.027222 233 153 141
0.0671733 0.190621 -0.0459666 255 255 255
0.0811167 0.173589 -0.0393996 145 89 80
0.0838282 0.190913 -0.0337648 143 84 73
0.0670299 0.20155 -0.0393973 255 155 139
0.0695367 0.201695 -0.0403071 255 210 186
0.0745518 0.182656 -0.029764 187 112 102
0.0616611 0.191255 -0.0371545 143 0 0
0.062971 0.18375 -0.0357046 255 217 199
0.0728011 0.192153 -0.0264508 138 0 0
0.0598714 0.176608 -0.0428366 185 144 140
0.0805467 0.172689 -0.0454468 57 0 0
0.0721617 0.201434 -0.0209274 255 255 255
0.0870427 0.192655 -0.0283907 224 134 119
0.0741624 0.204604 -0.0229603 255 255 255
0.0833437 0.184674 -0.0435676 122 56 47
0.0781756 0.127955 -0.0442566 0 0 0
0.068437 0.192401 -0.0247457 230 149 135
0.0645302 0.179451 -0.0411764 120 39 34
0.0835192 0.186556 -0.0456904 169 86 78
0.0639902 0.187141 -0.0445425 238 106 91
0.0691907 0.19323 -0.0268828 150 163 130
0.0781725 0.178599 -0.0317573 99 35 24
0.0856459 0.196098 -0.0365077 255 207 189
0.0880274 0.187514 -0.0229041 142 255 255
0.0676343 0.196039 -0.0422328 255 194 173
0.0680734 0.190859 -0.0458477 255 223 204
0.0656738 0.196482 -0.0355566 243 189 170
0.0735246 0.196185 -0.0477056 154 40 25
0.0841703 0.174402 -0.0503094 255 223 209
0.0763826 0.199303 -0.0202223 255 194 169
0.0904745 0.202689 -0.0290321 255 255 242
0.0779201 0.168488 -0.0525319 0 0 0
0.0785388 0.185918 -0.0512062 114 0 0
0.0836864 0.185838 -0.0231523 255 255 255
0.0715949 0.194033 -0.0256718 255 236 216
0.073999 0.201786 -0.043179 255 144 128
0.0636855 0.17727 -0.0464576 175 106 97
0.060334 0.173633 -0.0433132 255 255 245
0.0826468 0.187495 -0.0259976 255 234 215
0.0804247 0.192469 -0.0467414 255 157 145
0.0687838 0.200564 -0.0401672 255 160 151
0.0848261 0.187553 -0.0490544 50 0 0
0.0864534 0.190539 -0.0388606 156 255 255
0.0834183 0.178718 -0.0376865 163 110 103
0.0835836 0.164143 -0.0436706 153 103 94
0.0792807 0.180078 -0.0509432 57 8 0
0.0748285 0.178142 -0.0495772 156 87 79
0.087277 0.17746 -0.029087 255 238 218
0.0829573 0.175702 -0.042783 115 8 0
0.0647711 0.172849 -0.0374804 176 110 98
0.0780517 0.163639 -0.0318927 255 195 183
0.065447 0.117176 -0.0574596 255 255 190
0.0596978 0.176236 -0.0370974 153 154 169
0.0741159 0.196432 -0.0456971 254 134 120
0.0782468 0.198267 -0.0232746 255 219 179
0.0678852 0.197918 -0.0404327 255 130 115
0.0700591 0.193834 -0.0277508 210 21 0
0.0778691 0.162202 -0.051586 231 173 171
0.0826541 0.171181 -0.0449342 142 90 81
0.0836943 0.192011 -0.041262 255 255 255
0.0785436 0.169443 -0.0329928 255 172 160
0.0740478 0.183555 -0.0243767 159 0 0
0.0776855 0.173031 -0.0336852 142 92 85
0.0667164 0.17921 -0.0452324 170 92 79
0.0637163 0.176349 -0.0417181 156 88 86
0.0633233 0.196682 -0.0392617 145 42 36
0.0669965 0.193845 -0.0281362 156 0 0
0.0627114 0.195187 -0.0401359 255 203 208
0.0682026 0.18994 -0.0456825 255 172 157
0.0650659 0.192349 -0.0349281 234 144 129
0.0651521 0.192703 -0.0278978 193 66 57
0.0857969 0.191165 -0.0409859 244 61 36
0.0709096 0.181615 -0.0489351 180 109 100
0.0724467 0.191317 -0.0263285 232 106 68
0.0629662 0.194099 -0.0409816 255 86 117
0.0793252 0.194844 -0.0435157 50 7 0
0.0891373 0.19029 -0.0366384 255 255 255
0.0600832 0.172354 -0.0441297 203 137 121
0.0645457 0.188122 -0.0332556 202 127 116
0.0753828 0.19998 -0.0214253 255 163 138
0.0609624 0.17612 -0.0429572 106 64 60
0.0661451 0.199279 -0.0367177 255 110 106
0.0814863 0.173427 -0.0382441 151 91 82
0.0757445 0.118141 -0.063314 255 255 255
0.0620969 0.177309 -0.035788 181 89 78
0.0841597 0.161606 -0.0366842 255 180 161
0.068528 0.182622 -0.0365198 155 89 79
0.0659286 0.201492 -0.0354138 252 130 115
0.0886106 0.189555 -0.0385522 224 137 112
0.0800104 0.188971 -0.0222663 214 115 103
0.0730911 0.20075 -0.0214656 255 255 244
0.0796288 0.188473 -0.0255091 255 180 164
0.0543594 0.129775 -0.0404118 255 255 255
0.0687534 0.178892 -0.035858 170 99 88
0.0644977 0.1928 -0.0349799 240 139 118
0.0637169 0.195799 -0.034145 200 131 122
0.0793641 0.193425 -0.021173 255 236 218
0.0685801 0.183446 -0.0310885 186 110 97
0.0771553 0.180818 -0.0275187 127 57 49
0.0636861 0.193405 -0.0360153 255 255 255
0.0904311 0.187574 -0.0321252 140 27 0
0.0772329 0.17942 -0.0529272 136 73 65
0.0765702 0.167823 -0.0326938 195 111 98
0.053083 0.140111 -0.0403386 0 0 0
0.0791369 0.188407 -0.0500892 154 0 0
0.0739783 0.186413 -0.0234264 255 255 255
0.0706877 0.195147 -0.023814 255 188 167
0.0838768 0.190255 -0.026885 255 255 255
0.0715419 0.153623 -0.0615517 184 132 117
0.0655839 0.190215 -0.0305148 255 227 210
0.0645843 0.196524 -0.0255405 255 162 150
0.0763385 0.196505 -0.0493583 255 187 176
0.0813108 0.19465 -0.0264892 244 147 131
0.0829777 0.182221 -0.0416493 140 71 62
0.0808932 0.205877 -0.0469782 255 243 222
0.091914 0.185248 -0.0323678 114 0 0
0.0849031 0.185721 -0.0256779 255 255 255
0.0586661 0.137701 -0.0459519 45 35 29
0.0873231 0.197479 -0.033998 205 99 86
0.0561339 0.0461918 -0.0496532 0 0 0
0.0610787 0.154962 -0.0408337 64 36 32
0.0654199 0.193083 -0.032406 255 166 140
0.0806593 0.156008 -0.0395088 86 56 51
0.0788853 0.189188 -0.0320741 184 110 97
0.0643144 0.122616 -0.0470444 41 36 33
0.0754137 0.1674 -0.0553633 0 0 0
0.0882927 0.199565 -0.0321028 255 173 154
0.0790588 0.0949643 -0.0499224 0 0 0
0.0878004 0.193754 -0.0394555 209 119 84
0.0782973 0.151991 -0.0463974 16 0 0
0.0661216 0.190853 -0.0367146 185 115 104
0.0620808 0.122115 -0.0596288 35 23 21
0.0644374 0.181514 -0.0490599 255 178 178
0.0666473 0.183502 -0.0317277 102 50 39
0.069377 0.167723 -0.0369848 144 98 94
0.0635042 0.14168 -0.0609038 155 116 108
0.067527 0.200812 -0.0335019 255 149 132
0.0897654 0.203158 -0.0354457 255 226 203
0.0529686 0.123502 -0.0450512 206 151 139
0.0594845 0.131087 -0.0494377 54 39 37
0.0564895 0.126357 -0.0642714 0 0 0
0.0770547 0.174906 -0.02659 255 255 255
0.0681453 0.206587 -0.0312362 255 206 176
0.0650698 0.117357 -0.061948 35 33 31
0.0821487 0.174007 -0.044907 57 5 0
0.0660984 0.16215 -0.0402658 14 0 0
0.0559093 0.134894 -0.045693 186 120 113
0.0666034 0.156089 -0.0395387 98 46 42
0.0537892 0.13508 -0.0519295 34 28 26
0.0654648 0.107836 -0.0614143 0 0 0
0.0630069 0.174704 -0.035232 159 99 88
0.0548635 0.12149 -0.0579916 183 109 98
0.0691018 0.114936 -0.056828 18 18 16
0.064667 0.188922 -0.0357736 174 84 77
0.0781158 0.146827 -0.0656808 178 164 152
0.0734595 0.152002 -0.0557579 166 114 110
0.0657282 0.196121 -0.0271053 249 136 113
0.0642494 0.185309 -0.0373853 169 101 94
0.0901457 0.184308 -0.0332646 255 255 255
0.0646573 0.194673 -0.0277966 255 198 180
0.0622336 0.117629 -0.0373921 0 0 0
0.0819569 0.189113 -0.0250787 255 255 255
0.0864838 0.180894 -0.033224 211 130 122
0.0655729 0.19298 -0.0316886 255 255 255
0.0762941 0.187283 -0.0254925 151 24 14
0.0761864 0.196788 -0.045689 242 139 128
0.0685219 0.1824 -0.0280176 156 81 71
0.0875449 0.185894 -0.0280104 255 218 204
0.0800375 0.18852 -0.0197401 255 202 177
0.0717287 0.184172 -0.0509735 123 59 51
0.0845988 0.187298 -0.0249205 255 255 255
0.0439277 0.115711 -0.0591238 255 0 0
0.0912969 0.196438 -0.0363997 255 228 207
0.0790908 0.181156 -0.0269097 141 67 55
0.0685222 0.199728 -0.042575 255 144 125
0.0663724 0.134827 -0.0356966 168 107 104
0.069525 0.143383 -0.0342517 169 117 110
0.0701379 0.198336 -0.0245007 255 255 251
0.0637202 0.11385 -0.0546516 46 34 32
0.0838895 0.16904 -0.0473338 255 221 221
0.0911647 0.19825 -0.0365991 255 195 175
0.0856185 0.195793 -0.0336335 249 146 129
0.0676795 0.180904 -0.0334523 126 68 60
0.0775569 0.189695 -0.0229564 255 252 232
0.0866703 0.169849 -0.0312046 53 0 0
0.065269 0.19524 -0.031206 243 149 135
0.0639095 0.195619 -0.0330855 26 12 0
0.0827073 0.168842 -0.0348781 54 0 0
0.0879236 0.194662 -0.0250949 188 72 50
0.0808643 0.15642 -0.0321813 103 49 34
0.0739133 0.180422 -0.0285492 200 130 116
0.0690743 0.208542 -0.0335211 255 205 181
0.0810316 0.154394 -0.0401209 74 42 36
0.0511156 0.159713 -0.046568 192 198 188
0.0771782 0.147004 -0.0452886 74 52 48
0.0839825 0.188835 -0.0254251 255 180 164
0.0796376 0.191046 -0.0452108 55 0 0
0.0597154 0.0285697 -0.0522304 0 0 0
0.0724337 0.157902 -0.0576276 25 0 0
0.0659433 0.128352 -0.0568987 26 24 21
0.0688576 0.181356 -0.0318887 143 82 72
0.0836038 0.163859 -0.0445992 88 48 40
0.0731092 0.181712 -0.029165 127 66 56
0.0725005 0.194851 -0.0240149 255 255 255
0.0634447 0.158116 -0.0573547 70 43 39
0.0768606 0.20373 -0.0198233 255 214 185
0.0568358 0.138818 -0.0547862 95 72 66
0.0876622 0.189906 -0.0313511 229 138 125
0.0582322 0.166946 -0.0321245 255 255 255
0.0854487 0.193003 -0.0207448 254 151 135
0.0657292 0.19887 -0.0265939 255 158 138
0.0851412 0.188661 -0.0307245 152 84 75
0.0612674 0.17895 -0.0350589 255 116 113
0.0895828 0.185851 -0.0284308 255 255 238
0.0732922 0.202712 -0.0229435 255 153 124
0.0759807 0.205433 -0.0226093 255 250 217
0.0874074 0.200674 -0.0399256 255 165 151
0.0603817 0.16464 -0.0380653 141 98 86
0.0766212 0.194561 -0.024281 255 144 126
0.0549928 0.123119 -0.0450757 184 123 116
0.0648277 0.148378 -0.0310926 159 19 0
0.066506 0.172785 -0.0332551 255 179 164
0.0643482 0.185706 -0.0316137 255 180 165
0.08456 0.180956 -0.0322054 155 94 85
0.0600101 0.137041 -0.0464443 91 53 50
0.0862867 0.180164 -0.0306169 174 103 91
0.06702 0.190539 -0.0281424 255 255 255
0.0832884 0.131 -0.0431908 22 0 0
0.0745546 0.156522 -0.0564819 235 189 179
0.0783638 0.181269 -0.0279144 194 120 107
0.0677956 0.131006 -0.0618641 71 45 47
0.0768578 0.171713 -0.0580772 255 123 104
0.0565206 0.155273 -0.0480788 99 69 63
0.0559422 0.133776 -0.0527604 191 116 105
0.0608188 0.189808 -0.0443694 174 93 81
0.0818179 0.178847 -0.0469743 150 79 67
0.0773584 0.163453 -0.0299866 123 77 69
0.0760586 0.197011 -0.0254342 255 165 139
0.0861556 0.18141 -0.031585 159 94 85
0.0853386 0.174165 -0.0315122 112 60 49
0.0645744 0.180533 -0.0443251 159 88 80
0.0872463 0.18757 -0.0261355 255 175 156
0.0746478 0.19459 -0.0248549 255 194 171
0.0730068 0.181795 -0.0308765 129 66 56
0.0884744 0.19137 -0.0342896 230 119 106
0.0654624 0.193964 -0.0374399 255 198 176
0.0874011 0.193032 -0.0400537 255 156 145
0.0895647 0.203487 -0.0348776 255 229 203
0.0713935 0.18112 -0.0314905 180 114 102
0.0710038 0.112346 -0.0424188 255 231 216
0.0749804 0.179502 -0.0210407 176 0 0
0.0684523 0.133498 -0.0518044 30 23 21
0.0848815 0.164298 -0.0400424 157 108 101
0.068867 0.122883 -0.0487647 26 21 19
0.07528 0.194691 -0.0438085 30 0 0
0.0736627 0.192776 -0.0266721 196 76 48
0.0716412 0.174504 -0.0336063 140 80 71
0.083443 0.101417 -0.0417675 255 255 255
0.0804359 0.178765 -0.0281302 89 36 27
0.0736905 0.194258 -0.0246996 255 255 242
0.0712049 0.18599 -0.0275719 251 169 158
0.0637521 0.177232 -0.0382079 148 95 86
0.0653137 0.193973 -0.0413549 255 191 200
0.0726064 0.198197 -0.0460722 255 204 182
0.0728901 0.157194 -0.0560588 192 134 128
0.0819445 0.169901 -0.0397509 135 78 70
0.0628859 0.19904 -0.0323359 255 176 153
0.0805012 0.189337 -0.0477873 229 152 151
0.0632181 0.191089 -0.0349226 255 255 255
0.0642658 0.183801 -0.0380162 103 41 33
0.072584 0.193938 -0.0236087 255 255 255
0.0625184 0.189642 -0.031957 255 255 255
0.0762506 0.180034 -0.0302748 123 69 61
0.0586433 0.138953 -0.0583166 63 39 37
0.0744382 0.13784 -0.0670921 0 0 0
0.0671544 0.20635 -0.035762 212 90 82
0.0552899 0.154181 -0.0309773 255 255 255
0.061916 0.169897 -0.0286246 133 49 33
0.0666869 0.149503 -0.0405493 26 0 0
0.0845991 0.157164 -0.0249131 93 84 77
0.0653807 0.186171 -0.0317571 94 0 0
0.0652334 0.156745 -0.0342957 131 78 68
0.0799625 0.19249 -0.0244707 241 144 129
0.0940779 0.161503 -0.0323299 255 110 37
0.0835742 0.168016 -0.028772 131 78 71
0.0606531 0.134266 -0.048157 135 91 83
0.0692275 0.178366 -0.0331813 142 87 77
0.0660407 0.115128 -0.0419704 88 0 0
0.0817285 0.171072 -0.03665 207 119 105
0.0647249 0.187782 -0.0318435 46 9 0
0.087907 0.137351 -0.0380359 0 0 0
0.0751174 0.156314 -0.0342549 116 75 66
0.0737472 0.189596 -0.0239894 199 255 255
0.055785 0.134993 -0.0408886 255 255 255
0.0580406 0.13453 -0.0532049 35 15 13
0.0730507 0.11731 -0.0561489 94 76 73
0.0818176 0.183677 -0.0273599 174 96 85
0.0759876 0.194909 -0.0248244 255 255 255
0.0860483 0.185732 -0.0330466 167 94 85
0.0742607 0.165022 -0.033004 180 109 95
0.0751037 0.162685 -0.0500523 91 57 53
0.073026 0.18178 -0.0301332 203 125 113
0.0876978 0.191384 -0.033847 209 88 80
0.0609018 0.190862 -0.031701 255 255 241
0.0711989 0.159314 -0.0368603 93 45 40
0.0658273 0.13833 -0.0386665 136 91 83
0.0814568 0.182013 -0.0456491 52 5 0
0.0816055 0.187412 -0.0238543 255 255 255
0.0805409 0.174526 -0.0484339 177 117 109
0.0818733 0.196717 -0.0476495 255 174 159
0.0735075 0.163741 -0.0335057 197 133 119
0.0582664 0.181515 -0.0353242 255 255 249
0.0618502 0.155631 -0.0404291 51 24 19
0.0819632 0.169566 -0.0380075 143 73 63
0.079668 0.195777 -0.0263084 255 118 105
0.0869684 0.190524 -0.0317685 255 182 158
0.0909675 0.196562 -0.0368712 255 173 155
0.0751408 0.152116 -0.0467388 98 65 63
0.0901459 0.195694 -0.0366306 255 215 189
0.0625866 0.167691 -0.03689 150 87 77
0.0664632 0.176007 -0.0360513 140 76 67
0.0659109 0.184041 -0.0270952 255 242 225
0.0750852 0.200294 -0.0310103 156 84 74
0.0728297 0.186784 -0.0262287 207 35 0
0.0784189 0.18464 -0.0284007 175 103 94
0.0635795 0.186972 -0.0325307 255 177 163
0.0658535 0.166369 -0.034288 111 62 52
0.0656708 0.195301 -0.037437 255 218 196
0.0836143 0.174097 -0.0328631 88 27 17
0.0727881 0.151427 -0.0566789 40 10 8
0.08224 0.170731 -0.0364052 255 200 184
0.083724 0.196817 -0.0397561 255 216 194
0.0807714 0.167517 -0.0326637 179 109 97
0.0900389 0.191832 -0.0236949 248 133 104
0.0579038 0.11542 -0.0660325 0 0 0
0.0779489 0.161702 -0.0303546 150 79 69
0.0844988 0.153809 -0.0436673 255 198 184
0.0769276 0.152536 -0.0355955 40 20 18
0.0812482 0.163505 -0.0261979 203 140 125
0.064725 0.19251 -0.0250319 255 185 144
0.0632915 0.176655 -0.0313478 51 0 0
0.0802903 0.184044 -0.0285876 190 108 98
0.0819574 0.178294 -0.0354105 67 33 28
0.0689324 0.188571 -0.0463206 146 80 66
0.0765929 0.160412 -0.0300094 30 23 14
0.0624979 0.180822 -0.0428742 119 72 65
0.0600898 0.176853 -0.0433957 228 174 156
0.0805289 0.203417 -0.0494444 255 216 200
0.0859321 0.177468 -0.0246732 255 243 239
0.0740634 0.188321 -0.0217569 255 255 255
0.0653024 0.199423 -0.0382936 255 193 170
0.0927392 0.190984 -0.0344856 255 255 255
0.0899664 0.196336 -0.035203 255 255 255
0.0639243 0.158311 -0.0585216 71 52 47
0.090381 0.196576 -0.0396788 255 255 255
0.0867386 0.193862 -0.0369225 255 233 211
0.062491 0.14194 -0.0405297 0 0 0
0.0874823 0.173662 -0.030758 130 66 59
0.0630279 0.156846 -0.0570748 42 20 17
0.0800389 0.148165 -0.0622042 0 0 0
0.0855253 0.189655 -0.0470462 255 255 255
0.0851048 0.16088 -0.0347061 162 98 88
0.0882723 0.189717 -0.0249871 251 142 130
0.0733387 0.161818 -0.0336057 108 50 40
0.0787849 0.188083 -0.0179232 99 255 255
0.0783617 0.160565 -0.0255418 192 0 0
0.0670573 0.174482 -0.0357639 173 101 90
0.0805916 0.177399 -0.0299543 143 82 72
0.0697571 0.180197 -0.0302179 176 105 95
0.0887278 0.194066 -0.0391048 255 255 255
0.0621672 0.168309 -0.0519153 0 0 0
0.0901256 0.184412 -0.0343534 0 255 255
0.0715069 0.103118 -0.041828 255 255 255
0.0664806 0.182309 -0.0425512 172 95 85
0.0818517 0.1913 -0.0251837 254 181 152
0.0740487 0.158148 -0.0544728 164 132 118
0.0914959 0.186968 -0.0361047 255 255 255
0.0579262 0.156165 -0.0436394 59 48 45
0.0686092 0.181283 -0.0282318 140 76 67
0.0764507 0.186693 -0.0277444 166 97 81
0.0620272 0.186919 -0.031154 250 255 255
0.0641282 0.192188 -0.0315879 255 255 255
0.0646715 0.182699 -0.0311334 255 244 225
0.0718722 0.177975 -0.0551238 161 82 75
0.0778732 0.191436 -0.0467198 193 87 74
0.0736886 0.188784 -0.0216067 255 251 230
0.0673222 0.175956 -0.0342489 132 75 67
0.0855351 0.187798 -0.021428 247 160 148
0.075982 0.151964 -0.0630907 255 255 255
0.0645718 0.192583 -0.0323126 255 255 255
0.069743 0.193884 -0.0289199 255 161 141
0.0799019 0.19228 -0.0511063 255 175 159
0.0884907 0.192255 -0.0286418 202 121 110
0.0870114 0.182805 -0.0453052 255 192 188
0.0815364 0.206948 -0.0442847 255 219 199
0.0770536 0.199767 -0.0508425 255 141 131
0.0938254 0.193001 -0.0310332 255 179 156
0.0849811 0.186542 -0.0249088 255 161 143
0.0872066 0.19097 -0.0301976 255 166 148
0.0569569 0.0461043 -0.0496274 0 0 0
0.0618085 0.159714 -0.0418957 70 44 41
0.0792335 0.149864 -0.0402976 57 29 27
0.0800426 0.176506 -0.0302673 52 8 0
0.06382 0.140506 -0.0408109 112 56 47
0.0811081 0.181601 -0.0276731 255 188 190
0.0894564 0.20261 -0.0349803 255 196 172
0.0761285 0.0894218 -0.0511719 0 0 0
0.0886493 0.192305 -0.0380336 239 98 83
0.0777509 0.146758 -0.047758 101 81 71
0.0663521 0.151451 -0.0375429 101 63 57
0.0607761 0.19378 -0.0413409 215 154 140
0.0596389 0.165266 -0.040509 89 255 233
0.0554995 0.119061 -0.0604603 48 36 34
0.0610851 0.177673 -0.0368262 197 126 117
0.0708721 0.181228 -0.0285623 126 64 56
0.0863683 0.177616 -0.0292342 237 153 136
0.0665836 0.156504 -0.0354127 154 99 100
0.0661551 0.142519 -0.0627282 100 78 62
0.0783364 0.15377 -0.0362353 32 6 7
0.0646551 0.194935 -0.0350737 235 131 120
0.0602809 0.138061 -0.0469401 72 35 33
0.0608159 0.137816 -0.0497326 112 76 67
0.0578293 0.129299 -0.066684 45 34 28
0.0676411 0.206275 -0.0316254 255 206 180
0.0627866 0.111278 -0.0618857 94 79 78
0.0659715 0.183567 -0.0415982 152 95 86
0.0826316 0.170517 -0.043884 35 20 26
0.0884571 0.181246 -0.0424972 194 255 255
0.0592136 0.143538 -0.0444942 89 54 50
0.0684206 0.173363 -0.0363963 44 0 0
0.0539385 0.128807 -0.0515119 103 59 54
0.0641333 0.176263 -0.0366014 165 102 96
0.0498662 0.130817 -0.0574632 147 98 91
0.0704885 0.107149 -0.0606722 197 106 102
0.0649305 0.185949 -0.0359274 67 5 0
0.0637404 0.150451 -0.0392609 28 1 0
0.0736067 0.149365 -0.0618539 68 55 49
0.074427 0.160028 -0.0522589 102 68 65
0.0620402 0.188992 -0.0335492 255 255 247
0.0641764 0.181563 -0.035109 144 87 80
0.0637328 0.108072 -0.0366547 0 0 0
0.0842072 0.186596 -0.0239538 255 175 161
0.0865087 0.181065 -0.0316876 255 163 151
0.0668083 0.196851 -0.0306457 246 152 138
0.0838761 0.14867 -0.0504529 116 111 96
0.0695453 0.18052 -0.0257375 255 162 145
0.0872761 0.187573 -0.0294388 255 255 255
0.0808239 0.198156 -0.0193063 255 146 132
0.080372 0.186883 -0.0233192 255 255 255
0.0742943 0.198301 -0.0214795 255 255 255
0.0441054 0.11654 -0.0578987 0 0 0
0.09058 0.196085 -0.0344191 255 255 255
0.08122 0.180461 -0.0265109 255 195 173
0.0701695 0.198889 -0.0439336 255 132 113
0.0648178 0.137219 -0.0383239 255 217 194
0.0704944 0.129521 -0.0367155 255 233 217
0.0711857 0.199222 -0.022107 255 176 145
0.0678396 0.113165 -0.058258 65 39 39
0.0857783 0.165787 -0.0495116 228 151 138
0.0785621 0.156099 -0.0365882 61 29 26
0.0894913 0.198182 -0.0347872 239 184 175
0.0657362 0.17909 -0.0335844 154 92 82
0.0872375 0.1705 -0.036144 255 253 239
0.0867063 0.193808 -0.034085 255 163 146
0.0652102 0.194435 -0.0309948 241 151 137
0.0820339 0.159461 -0.0309548 111 58 46
0.0852041 0.197088 -0.0222756 255 146 127
0.0746661 0.179333 -0.028681 255 255 255
0.0693177 0.207149 -0.0341107 255 221 190
0.0801096 0.158984 -0.0397633 62 36 32
0.057246 0.159079 -0.0472062 183 132 0
0.0761167 0.152629 -0.0460397 0 0 0
0.0798556 0.189329 -0.0247824 255 223 202
0.0591583 0.027701 -0.0513646 0 0 0
0.0712969 0.159963 -0.0583825 87 56 50
0.0673695 0.13059 -0.0556017 32 27 25
0.0733646 0.174183 -0.0293314 166 93 84
0.0847272 0.160026 -0.044947 0 0 0
0.0857057 0.198299 -0.0379233 255 181 156
0.0752888 0.182182 -0.0293585 245 157 150
0.0647925 0.155805 -0.0562475 78 53 51
0.0644737 0.190432 -0.0211412 255 60 36
0.080606 0.189334 -0.0217246 255 183 166
0.0874974 0.191787 -0.0339938 255 255 255
0.0741274 0.185683 -0.0294497 57 9 0
0.0623125 0.173098 -0.0367594 220 161 155
0.0718784 0.179831 -0.0297891 237 173 161
0.0810621 0.188461 -0.02474 255 255 255
0.0643148 0.204265 -0.0321253 255 157 134
0.0648349 0.181466 -0.0455062 192 116 106
0.0759703 0.20543 -0.0227509 238 198 175
0.0876217 0.194098 -0.0395144 255 255 249
0.0883552 0.189666 -0.0390418 249 255 255
0.0634652 0.168778 -0.0386746 115 69 66
0.0764585 0.196602 -0.0229626 250 220 187
0.0545075 0.121507 -0.044556 255 139 114
0.0669084 0.174145 -0.034245 132 77 68
0.0892983 0.17489 -0.0308674 181 83 71
0.0557575 0.131897 -0.0487601 50 29 26
0.0856903 0.180001 -0.0268669 113 22 5
0.0677135 0.185688 -0.0280505 178 105 93
0.0845198 0.180514 -0.0294252 255 220 206
0.0801177 0.157352 -0.0426205 34 0 0
0.0760351 0.156851 -0.0536976 112 61 59
0.0666421 0.129857 -0.0617845 98 60 56
0.0739089 0.174077 -0.0528683 226 146 134
0.0548433 0.160234 -0.0491521 130 111 99
0.0588221 0.137729 -0.0453034 77 45 42
0.0695524 0.176639 -0.0352366 165 98 87
0.065012 0.184813 -0.0427803 240 167 154
0.0735437 0.0746743 -0.0438023 255 255 255
0.0716767 0.177675 -0.0301981 65 13 0
0.0746133 0.188351 -0.0201688 165 0 0
0.0640134 0.181963 -0.0356185 125 70 60
0.0857675 0.180447 -0.0350217 205 146 141
0.0659918 0.180642 -0.0429133 171 93 83
0.0870398 0.192505 -0.02949 255 138 115
0.0749169 0.178864 -0.0506455 99 47 44
0.0784062 0.196008 -0.0222248 228 106 71
0.0890371 0.192987 -0.0336713 255 140 120
0.0642469 0.198788 -0.0369287 247 130 120
0.0896113 0.204131 -0.0352118 255 209 188
0.0658453 0.167191 -0.0295971 144 81 70
0.0637875 0.177926 -0.0505905 147 75 68
0.073731 0.169799 -0.0531396 42 0 0
0.0600143 0.133641 -0.0633931 60 52 49
0.070816 0.101293 -0.0433604 255 193 179
0.0781792 0.184326 -0.027127 168 80 69
0.0677733 0.112471 -0.0569333 26 20 20
0.0845604 0.163299 -0.0389082 171 109 103
0.0697884 0.122364 -0.047006 75 43 42
0.0656926 0.17741 -0.031793 103 46 33
0.0602964 0.139689 -0.0607871 172 113 103
0.0875224 0.184187 -0.030589 255 218 203
0.0727513 0.19522 -0.0257732 255 190 165
0.0681694 0.164571 -0.0325001 131 73 65
0.0850611 0.111107 -0.0388726 255 255 255
0.0807128 0.179153 -0.0268947 123 29 0
0.0682119 0.197869 -0.0233816 255 255 240
0.0625122 0.17626 -0.0382874 50 0 0
0.0615898 0.191548 -0.0363079 77 0 0
0.0628238 0.1608 -0.0504736 140 89 81
0.073125 0.152656 -0.061863 107 85 71
0.0618243 0.200283 -0.0313068 255 161 143
0.0676685 0.174302 -0.0359093 232 156 140
0.0647726 0.199967 -0.0383796 255 204 186
0.0634844 0.186557 -0.0366667 72 6 0
0.0846485 0.183109 -0.0288656 186 108 99
0.0695816 0.194398 -0.0249049 255 228 204
0.0629902 0.187215 -0.0312906 230 136 123
0.0753801 0.165098 -0.0272866 30 0 0
0.0723692 0.161385 -0.0330509 88 0 0
0.0560527 0.130224 -0.0610885 129 86 78
0.0689605 0.142807 -0.0659016 0 0 0
0.0737417 0.208681 -0.0327053 165 88 79
0.0840706 0.180406 -0.0302502 164 107 95
0.0498366 0.15335 -0.0266324 255 255 255
0.0874315 0.185152 -0.0276864 255 255 255
0.0717843 0.177776 -0.0291187 161 87 77
0.0655822 0.136302 -0.0433245 66 48 50
0.0847425 0.155965 -0.0262796 135 101 90
0.0800714 0.204934 -0.0387746 255 154 141
0.065267 0.185229 -0.0316539 179 93 84
0.0814853 0.191222 -0.0223004 255 162 153
0.0824406 0.171362 -0.0346201 149 84 76
0.0827665 0.178037 -0.0290568 255 165 156
0.07559 0.200246 -0.0201304 255 255 255
0.0769472 0.183079 -0.0237147 121 0 0
0.0821212 0.192907 -0.042116 58 8 0
0.0760828 0.196901 -0.0465325 255 169 156
0.0702538 0.180819 -0.0331912 118 65 57
0.0620896 0.125346 -0.041803 130 0 0
0.0651625 0.186448 -0.032664 105 32 24
0.0847923 0.15088 -0.0383775 0 0 0
0.0493271 0.123859 -0.0542021 36 26 23
0.0713862 0.190321 -0.0253233 255 255 255
0.0520298 0.125701 -0.0424924 255 255 255
0.0563438 0.126863 -0.0548333 51 32 31
0.0698963 0.130221 -0.0596406 32 26 23
0.0803643 0.188943 -0.0236206 191 117 102
0.0879871 0.187911 -0.0335103 195 68 60
0.0767006 0.173474 -0.0292853 133 76 70
0.061027 0.191121 -0.0308637 255 188 162
0.084789 0.183223 -0.0242991 205 92 78
0.0640569 0.149728 -0.0301005 163 104 102
0.0791609 0.178646 -0.0480942 79 25 19
0.0767694 0.187634 -0.0213056 98 0 0
0.0813525 0.171747 -0.0473397 232 135 129
0.0744334 0.195155 -0.0470079 255 157 146
0.0813761 0.187713 -0.0256503 255 220 203
0.06353 0.158404 -0.0399726 73 40 36
0.0818098 0.197627 -0.0250586 234 137 119
0.0919057 0.196087 -0.0293536 255 176 158
0.0926349 0.196911 -0.0347366 255 171 152
0.0747189 0.157287 -0.050643 71 46 45
0.085613 0.197278 -0.038713 252 182 163
0.062593 0.172995 -0.0396107 136 113 105
0.0665106 0.177853 -0.0367517 131 71 63
0.0646262 0.184463 -0.02915 196 121 109
0.0618627 0.185607 -0.0320858 255 255 255
0.0835956 0.174928 -0.0342854 118 56 46
0.0680894 0.187009 -0.0288226 167 90 80
0.0820741 0.181417 -0.0282878 132 64 53
0.0781695 0.168722 -0.0503711 167 111 102
0.0651274 0.193748 -0.0368218 255 132 123
0.0726614 0.195659 -0.0234259 255 214 191
0.0633238 0.188455 -0.0358144 229 159 144
0.071142 0.157263 -0.057533 89 50 47
0.0636852 0.194703 -0.0344639 252 169 151
0.070051 0.177213 -0.0297528 255 172 157
0.0741954 0.19947 -0.0454495 255 158 141
0.073323 0.197903 -0.0468769 255 189 168
0.0852609 0.197357 -0.0392086 255 209 189
0.081963 0.175049 -0.0365086 179 108 97
0.086443 0.196314 -0.0379854 255 255 255
0.0599103 0.185407 -0.0429559 255 198 160
0.0611942 0.111121 -0.0660608 29 24 20
0.0850012 0.159504 -0.0417953 255 255 255
0.08066 0.178455 -0.031199 148 95 86
0.0817468 0.146312 -0.0490911 147 114 100
0.0790153 0.167529 -0.0357833 62 35 31
0.0782925 0.198338 -0.0216215 255 255 255
0.0658924 0.191503 -0.0295375 255 255 255
0.0725967 0.180366 -0.0315357 155 87 77
0.0821429 0.173794 -0.0365809 207 130 117
0.0754881 0.190682 -0.0452349 30 5 0
0.0909901 0.185632 -0.0371088 250 255 255
0.0766674 0.178453 -0.0306418 69 30 23
0.0597234 0.180062 -0.0455591 221 126 115
0.0765397 0.206832 -0.02304 255 255 255
0.0818821 0.162267 -0.0387582 255 180 161
0.0598162 0.185196 -0.0399043 206 117 108
0.0723558 0.0785701 -0.0534737 114 74 67
0.0907015 0.19672 -0.0356274 255 255 255
0.0653319 0.160053 -0.0561286 98 62 52
0.0721645 0.114691 -0.0303996 198 0 0
0.0905271 0.18344 -0.0367927 175 255 255
0.091015 0.195546 -0.0382397 255 255 255
0.085517 0.19735 -0.0384272 255 216 206
0.0817598 0.104942 -0.034116 255 225 207
0.0798777 0.131015 -0.0570113 0 0 0
0.0809313 0.208349 -0.026587 49 0 0
0.082363 0.176526 -0.030504 197 126 117
0.0721326 0.178193 -0.0311043 140 78 66
0.0878543 0.188513 -0.046059 255 255 255
0.082944 0.166073 -0.0345125 169 111 104
0.0711784 0.165568 -0.0315918 225 167 160
0.0887379 0.192175 -0.0328984 255 195 171
0.0775299 0.191702 -0.0213098 191 255 255
0.0929086 0.175156 -0.022223 135 0 0
0.0700605 0.178729 -0.0360472 127 75 67
0.0819083 0.178136 -0.0310099 140 85 75
0.083371 0.180767 -0.0441704 10 2 0
0.0746432 0.207402 -0.0350565 96 40 32
0.0881955 0.189929 -0.0373443 255 255 255
0.0615492 0.165984 -0.053797 0 0 0
0.0919291 0.188969 -0.0375896 0 255 255
0.0612191 0.178992 -0.0448597 233 166 151
0.0776532 0.208414 -0.0230521 255 255 255
0.0618972 0.182051 -0.037225 255 210 192
0.0773501 0.119207 -0.0261763 255 231 195
0.0741414 0.170772 -0.0112432 255 255 255
0.0904769 0.116953 -0.033611 255 211 194
0.0675865 0.191459 -0.0460341 255 171 149
0.0683478 0.184113 -0.0469192 107 44 34
0.0708035 0.17665 -0.0512523 245 182 169
0.069693 0.179391 -0.0499796 167 97 87
0.0657921 0.183518 -0.0346352 211 129 116
0.077813 0.190903 -0.0436557 33 0 0
0.0846045 0.187972 -0.0471172 189 17 0
0.0639391 0.121187 -0.0520445 47 34 33
0.0785224 0.16701 -0.0460122 184 108 104
0.0719776 0.193883 -0.0256619 141 9 0
0.0769927 0.161193 -0.0309329 162 111 100
0.0688856 0.187763 -0.0265341 238 113 95
0.073843 0.182284 -0.0282367 177 103 95
0.0842865 0.181589 -0.0393034 165 96 81
0.0884527 0.181392 -0.0307241 186 100 87
0.0671158 0.184189 -0.0498465 255 178 158
0.06577 0.178922 -0.0511506 170 95 85
0.0783983 0.18673 -0.0489388 205 130 122
0.0690698 0.182653 -0.0467457 177 105 95
0.0605437 0.17892 -0.0418712 150 98 90
0.0782057 0.182854 -0.0517016 129 65 57
0.0797372 0.178642 -0.0517286 255 247 229
0.077441 0.178597 -0.0478405 46 0 0
0.081467 0.17799 -0.0441018 150 96 86
0.074678 0.18434 -0.0294989 166 99 90
0.0894263 0.185624 -0.0364555 104 2 0
0.0860699 0.185799 -0.0304253 70 8 0
0.0861213 0.178512 -0.030394 134 74 65
0.0654276 0.196624 -0.0391167 255 139 109
0.0738354 0.17933 -0.0514152 255 224 221
0.0657514 0.176875 -0.0489749 255 202 187
0.0647888 0.183805 -0.0387805 159 97 87
0.0841119 0.187571 -0.048266 133 0 0
0.0847269 0.190834 -0.0458813 242 191 186
0.0842327 0.187897 -0.0364332 170 98 88
0.0768369 0.19657 -0.0207855 255 249 218
0.0789972 0.18869 -0.0492252 185 15 0
0.0657332 0.185886 -0.0328852 206 119 108
0.0871291 0.190554 -0.0398567 255 163 140
0.0752868 0.188959 -0.0282172 255 233 227
0.079091 0.169296 -0.0518214 255 175 161
0.0751279 0.165164 -0.0336134 233 184 181
0.06558 0.199134 -0.0298983 255 234 213
0.0856071 0.175006 -0.0413262 255 0 0
0.0677759 0.124507 -0.0375646 72 61 49
0.0795762 0.20075 -0.046679 255 212 214
0.0771292 0.183507 -0.027218 255 195 181
0.0658374 0.190289 -0.0290459 255 200 176
0.0816557 0.200864 -0.0454305 255 148 132
0.0915088 0.201199 -0.0347263 255 255 255
0.0738505 0.149384 -0.0550926 127 74 64
0.0805958 0.156771 -0.0504127 50 0 0
0.059122 0.179299 -0.0466033 215 112 101
0.0719417 0.196937 -0.0460032 255 132 114
0.067305 0.193545 -0.044136 255 159 147
0.0750496 0.197609 -0.0479955 223 133 124
0.085832 0.186978 -0.0254061 255 255 255
0.0742578 0.182603 -0.0532625 255 168 159
0.0650506 0.186248 -0.0330433 209 120 112
0.0845524 0.198731 -0.0215509 255 191 166
0.0849359 0.192896 -0.0439234 253 125 106
0.0711757 0.159798 -0.033652 175 105 93
0.0797569 0.195744 -0.0467126 74 202 156
0.0680795 0.19187 -0.0454777 255 221 196
0.0833426 0.195959 -0.0404353 255 181 161
0.0685896 0.191093 -0.0462813 255 255 255
0.0683999 0.194557 -0.0453177 255 156 140
0.084475 0.195751 -0.0465153 255 234 211
0.0749156 0.192887 -0.0261894 126 231 223
0.0872879 0.194602 -0.021925 255 159 139
0.0766581 0.194288 -0.0477423 255 146 134
0.0750884 0.159601 -0.0504246 96 61 57
0.0833955 0.183648 -0.0427041 158 87 79
0.0688809 0.19426 -0.0444974 255 143 129
0.074635 0.194766 -0.0459067 255 143 129
0.0680658 0.194907 -0.0441983 255 170 148
0.0776194 0.197076 -0.0511318 245 123 107
0.0865082 0.19787 -0.0385905 255 193 171
0.0832911 0.19968 -0.0440051 227 129 118
0.0812743 0.190565 -0.0472674 255 201 194
0.0682372 0.196537 -0.0424406 255 150 133
0.0664503 0.196278 -0.0419113 255 216 185
0.0675476 0.192267 -0.0452758 255 161 125
0.0799671 0.194271 -0.0473734 255 252 255
0.0820489 0.195045 -0.0442476 241 160 148
0.0762426 0.182546 -0.0488112 54 12 0
0.0658239 0.195364 -0.0295819 242 146 133
0.0810872 0.172118 -0.0337975 255 199 182
0.0776146 0.145585 -0.0412211 67 57 50
0.0810155 0.192839 -0.0463888 255 216 200
0.0908691 0.20282 -0.0304561 255 237 212
0.0786816 0.177214 -0.0492112 141 84 75
0.0728844 0.180531 -0.0317542 159 94 86
0.078314 0.160956 -0.0542432 212 155 147
0.0681736 0.208318 -0.0337491 255 205 178
0.0742742 0.193918 -0.0456605 202 94 79
0.0714905 0.195027 -0.0466724 233 123 106
0.0782388 0.187393 -0.0268113 252 147 134
0.0828186 0.185866 -0.0398294 155 82 73
0.0811974 0.195941 -0.0455842 255 201 189
0.0772201 0.187729 -0.0243827 165 41 27
0.0767135 0.196272 -0.0466696 216 103 94
0.0699659 0.196007 -0.0448704 255 152 136
0.0743066 0.205519 -0.0244768 255 202 177
0.0684883 0.194561 -0.0285198 255 156 139
0.0816124 0.183019 -0.0501615 228 145 138
0.0744803 0.192436 -0.0266003 255 255 255
0.0805538 0.200673 -0.0193571 255 202 176
0.0661016 0.195513 -0.026744 255 127 108
0.0865203 0.20134 -0.0382962 255 152 139
0.0799837 0.176019 -0.0264921 106 65 54
0.0903043 0.202559 -0.029049 255 255 238
0.0622002 0.174878 -0.0476182 149 79 70
0.0773658 0.174219 -0.0473211 0 0 0
0.0732896 0.171708 -0.0535866 245 152 140
0.081017 0.203385 -0.0448181 255 156 145
0.0678149 0.189456 -0.0459884 255 161 145
0.0560543 0.158172 -0.0407223 199 239 234
0.0650384 0.18762 -0.0335245 255 156 141
0.068255 0.20036 -0.034383 255 174 158
0.0693579 0.196398 -0.0441017 255 173 153
0.0882804 0.186879 -0.0261589 255 255 255
0.0675059 0.176867 -0.0484499 148 94 87
0.0791205 0.166418 -0.0333568 242 154 141
0.0708102 0.201127 -0.0367613 255 255 227
0.0668628 0.190591 -0.0283077 255 255 255
0.083607 0.188672 -0.0451196 92 0 0
0.0784146 0.170381 -0.0350929 62 34 31
0.0803806 0.177792 -0.0510848 65 8 0
0.0702319 0.182956 -0.0491911 163 102 90
0.0854793 0.183146 -0.0329842 163 93 85
0.0686799 0.193967 -0.0262125 255 204 202
0.0698931 0.192445 -0.0271602 255 255 255
0.0795935 0.171278 -0.0488857 163 100 92
0.0720625 0.193953 -0.0275532 255 171 148
0.067349 0.196439 -0.0424 255 150 133
0.0864165 0.194385 -0.0362451 182 0 0
0.0732374 0.194215 -0.0469489 255 129 117
0.0642753 0.177422 -0.0471204 150 83 75
0.0736652 0.150007 -0.0586473 255 138 120
0.0866792 0.189959 -0.0308163 253 159 141
0.0668608 0.195099 -0.0426355 255 151 137
0.0687619 0.19678 -0.0427529 255 157 138
0.0687204 0.182498 -0.0459889 170 101 90
0.076458 0.178769 -0.0507663 131 74 68
0.0726556 0.157948 -0.0379517 19 0 0
0.0861308 0.190869 -0.0403806 231 56 0
0.0595883 0.150481 -0.0384743 21 0 0
0.0832745 0.18744 -0.0393983 71 7 0
0.0655028 0.181804 -0.0516336 219 127 107
0.0860378 0.195976 -0.0320525 121 70 41
0.0633949 0.141221 -0.0344917 58 29 25
0.0623557 0.192706 -0.0386754 0 0 0
0.0877334 0.191915 -0.0288417 253 210 199
0.0925204 0.204466 -0.0337952 250 167 150
0.0643154 0.194501 -0.0375453 135 0 8
0.0634203 0.192111 -0.0358523 255 255 255
0.076509 0.1831 -0.0269171 255 255 255
0.0708265 0.190767 -0.025988 255 193 172
0.0747937 0.194668 -0.0457786 248 138 125
0.0680346 0.192694 -0.045449 255 193 182
0.081432 0.180489 -0.0506959 70 7 1
0.0746548 0.194273 -0.0453417 232 125 109
0.0730248 0.189677 -0.0450523 255 161 138
0.088844 0.191151 -0.026251 255 185 169
0.0828469 0.201785 -0.0370778 255 112 91
0.0851252 0.195279 -0.0431453 255 52 0
0.0852947 0.186233 -0.0233597 255 255 255
0.0662328 0.182937 -0.0457797 175 104 92
0.0666807 0.184448 -0.0314942 173 96 87
0.0618278 0.149253 -0.0398723 52 34 33
0.0646704 0.195542 -0.0313913 228 136 120
0.0790187 0.178581 -0.0470561 169 93 83
0.0614437 0.133818 -0.0387613 120 82 75
0.0779701 0.173088 -0.032728 99 38 19
0.0804818 0.181978 -0.0494079 163 85 79
0.0619108 0.177333 -0.0350148 31 0 0
0.0778566 0.148298 -0.0427507 102 62 56
0.0845858 0.183518 -0.0490139 0 24 19
0.0635377 0.185811 -0.0391753 84 0 0
0.0678798 0.192818 -0.0283088 255 255 255
0.0586401 0.160246 -0.0508964 60 0 0
0.0750846 0.149055 -0.0401684 12 0 0
0.0606928 0.162721 -0.0447024 0 0 0
0.0797367 0.180815 -0.0492442 76 7 1
0.0736564 0.191803 -0.0267991 255 255 255
0.0748563 0.184336 -0.0264271 234 121 114
0.0739476 0.185221 -0.0289662 179 107 97
0.0715914 0.173107 -0.0537409 254 168 154
0.0718649 0.194588 -0.0284253 255 154 131
0.0775276 0.205432 -0.0209868 255 255 255
0.0726627 0.193888 -0.0232139 59 41 31
0.0673255 0.182466 -0.0399077 164 91 80
0.0765443 0.186038 -0.0235096 209 94 83
0.0700912 0.190306 -0.0261038 255 255 255
0.0842643 0.177774 -0.0423 178 91 80
0.0805665 0.165871 -0.044124 102 49 42
0.0872601 0.193924 -0.0358343 106 0 0
0.0774904 0.18395 -0.0281329 147 79 70
0.07432 0.195924 -0.0440212 255 255 255
0.0680935 0.149512 -0.0369893 97 59 58
0.0804889 0.173359 -0.031381 222 161 151
0.0877189 0.18173 -0.0365066 61 0 0
0.068455 0.183233 -0.020457 243 166 155
0.0787386 0.165243 -0.0456947 98 42 34
0.0663331 0.181193 -0.0445049 62 0 0
0.0761039 0.201594 -0.0444588 255 134 117
0.0845677 0.189031 -0.0395244 236 150 132
0.0645333 0.181896 -0.0442187 146 79 71
0.0873063 0.189719 -0.0258894 255 255 255
0.0630458 0.17358 -0.0422822 220 182 165
0.089661 0.193757 -0.0321412 208 121 106
0.0603418 0.156629 -0.0480035 90 55 50
0.0638396 0.17728 -0.0385653 148 85 80
0.0597566 0.117929 -0.0438726 255 173 166
0.0633024 0.188514 -0.04373 98 0 0
0.087544 0.192267 -0.0393328 154 93 80
0.0886715 0.184343 -0.0387773 195 59 0
0.0626917 0.182739 -0.0486896 112 0 0
0.0709578 0.164137 -0.0329853 208 129 125
0.078079 0.167673 -0.0456052 255 255 255
0.0783888 0.178091 -0.0494576 112 55 47
0.0690589 0.17008 -0.03408 139 82 72
0.0741868 0.193629 -0.0450987 229 127 114
0.0788054 0.175878 -0.0333785 185 107 93
0.0869188 0.198156 -0.0391129 255 127 106
0.0656731 0.179755 -0.048118 157 94 86
0.0760214 0.202401 -0.0436329 255 147 131
0.0601316 0.153185 -0.0414644 50 21 19
0.0833731 0.158304 -0.0352303 70 0 0
0.0614863 0.184962 -0.044592 156 91 84
0.0864515 0.184256 -0.0289884 255 235 228
0.0738122 0.200167 -0.0445454 252 124 107
0.0627914 0.177779 -0.0423599 12 10 0
0.0882326 0.176038 -0.0414158 59 0 0
0.0879019 0.172908 -0.0312774 95 41 31
0.0846327 0.186553 -0.0241316 102 10 0
0.0919077 0.180707 -0.0344434 185 0 0
0.0754781 0.196306 -0.0478246 218 106 102
0.0689594 0.198101 -0.0409887 217 95 81
0.0585516 0.160556 -0.0437343 0 0 0
0.0747278 0.204694 -0.0231544 255 246 218
0.0724938 0.158333 -0.0346407 66 7 0
0.0636482 0.19459 -0.0393035 124 0 0
0.0589655 0.156422 -0.0491739 100 65 60
0.0746812 0.203445 -0.0230077 255 255 233
0.0810162 0.203603 -0.020236 255 170 152
0.0712946 0.198271 -0.0435727 231 122 107
0.0762722 0.179222 -0.0278359 223 159 146
0.0748043 0.19657 -0.0475286 194 112 103
0.0700325 0.158705 -0.0560588 62 37 34
0.083846 0.176493 -0.03673 255 226 214
0.0825904 0.189265 -0.0475194 136 65 80
0.0685124 0.183555 -0.0287205 159 95 85
0.0770787 0.187729 -0.0278308 255 217 199
0.0633516 0.17856 -0.0469874 255 255 255
0.08354 0.178735 -0.0417334 142 74 67
0.0720922 0.16583 -0.0327241 255 188 169
0.061244 0.146036 -0.0404032 73 49 50
0.0584228 0.157082 -0.0412461 166 121 101
0.0847746 0.196965 -0.0366985 255 110 87
0.0662856 0.188374 -0.0335698 231 144 133
0.068567 0.178455 -0.0530792 133 73 64
0.0681317 0.190533 -0.0453324 255 255 255
0.0766143 0.195568 -0.0460765 227 111 98
0.085872 0.187488 -0.0257658 255 255 255
0.0763134 0.171635 -0.0585118 167 188 176
0.0787057 0.175125 -0.0330277 95 49 40
0.0776229 0.172741 -0.0435903 124 78 71
0.082247 0.192541 -0.0379795 105 43 36
0.0731052 0.192401 -0.0253502 248 171 152
0.0638986 0.175666 -0.0452066 69 0 0
0.07154 0.195932 -0.0440092 255 133 115
0.0655108 0.19413 -0.0428153 255 154 139
0.0716072 0.191534 -0.0243484 253 165 138
0.0691763 0.194406 -0.0274263 232 147 125
0.0763856 0.186191 -0.0275033 125 62 53
0.0621097 0.157503 -0.0514003 140 92 82
0.066891 0.15029 -0.0384973 139 78 69
0.0803714 0.183862 -0.0495674 168 97 87
0.0781829 0.16257 -0.0508462 161 103 93
0.0765021 0.163711 -0.0334852 167 104 97
0.0748218 0.193499 -0.0280127 255 193 177
0.077945 0.200565 -0.0213118 255 214 192
0.086736 0.178512 -0.0290308 143 81 72
0.0830082 0.191809 -0.046942 255 255 255
0.0752267 0.181155 -0.0290658 210 139 131
0.077915 0.177145 -0.0223639 219 122 110
0.0640801 0.162615 -0.0477555 220 139 132
0.0849618 0.16907 -0.0465064 40 6 0
0.0658383 0.186291 -0.0290479 221 135 122
0.0656769 0.180762 -0.0253761 255 255 255
0.0853932 0.18018 -0.038058 132 67 56
0.0778168 0.18896 -0.02387 251 241 217
0.0738326 0.172249 -0.0259713 119 65 58
0.0642107 0.187383 -0.0311467 153 81 71
0.0836019 0.182648 -0.0500185 101 49 33
0.0655399 0.184687 -0.031609 184 110 99
0.0825807 0.186169 -0.0476006 46 0 0
0.0856586 0.187461 -0.0239045 255 170 158
0.0705986 0.194479 -0.0437069 255 155 137
0.0764174 0.161019 -0.0329118 180 134 128
0.0657575 0.119196 -0.0577525 255 255 255
0.0702066 0.193424 -0.0477225 255 156 137
0.0792283 0.157435 -0.0425412 39 15 12
0.080139 0.160957 -0.0461097 0 0 0
0.065596 0.1797 -0.0427978 90 0 0
0.0703403 0.191535 -0.0440641 255 255 255
0.0829784 0.193498 -0.0468371 134 75 10
0.0833922 0.192314 -0.0377399 126 42 26
0.0614671 0.174711 -0.0470752 185 117 103
0.0680558 0.179496 -0.0480974 255 255 255
0.0786702 0.204353 -0.0199992 255 255 254
0.0750336 0.165256 -0.032818 187 112 97
0.0868175 0.190227 -0.0216906 255 255 255
0.0737131 0.19459 -0.0448337 203 94 80
0.0627187 0.171454 -0.0396892 134 114 102
0.0657655 0.177566 -0.0414675 241 163 150
0.0700376 0.1711 -0.0323799 109 46 35
0.0825287 0.195743 -0.0402535 253 146 131
0.0746576 0.194805 -0.0457828 255 152 138
0.0703029 0.192397 -0.0265585 255 255 255
0.063935 0.19537 -0.0373646 139 17 0
0.0792645 0.178968 -0.0478753 211 143 133
0.0782713 0.169077 -0.0450005 137 87 79
0.0725871 0.199337 -0.045865 255 196 176
0.0856697 0.189709 -0.0334811 255 227 214
0.0626592 0.159595 -0.0522602 203 137 130
0.0705824 0.189167 -0.0261793 173 21 0
0.0631932 0.157993 -0.0481073 203 122 111
0.0818105 0.181361 -0.0393465 104 54 46
0.06087 0.162499 -0.042773 52 32 29
0.0807467 0.176826 -0.0406144 154 97 88
0.0770391 0.203261 -0.0217908 255 184 165
0.0795865 0.15693 -0.0386905 24 0 0
0.0890038 0.20298 -0.0356051 255 193 171
0.0657806 0.185671 -0.0347042 67 8 0
0.0652737 0.184488 -0.0423942 159 87 77
0.0818313 0.177193 -0.0467247 170 102 94
0.0648654 0.172501 -0.0373219 223 145 131
0.0693987 0.15344 -0.0340719 209 122 106
0.0711815 0.186174 -0.0452815 162 91 83
0.0636426 0.189651 -0.0434713 255 255 255
0.0919783 0.197673 -0.0361843 255 243 219
0.0734078 0.197282 -0.0447836 234 123 111
0.0738002 0.175912 -0.0515954 140 74 67
0.0812243 0.193041 -0.0470029 255 169 156
0.0764528 0.200266 -0.0208561 255 109 73
0.0748933 0.195131 -0.0459011 255 167 150
0.0739793 0.199024 -0.0461927 255 158 140
0.0789633 0.171812 -0.0453429 152 95 86
0.0779277 0.167315 -0.0446773 184 113 103
0.0537824 0.139922 -0.0420171 217 184 168
0.0764665 0.187865 -0.0275105 253 162 150
0.0741497 0.191627 -0.0317946 149 85 76
0.0713202 0.150578 -0.0373568 66 11 8
0.0811119 0.178451 -0.0523301 128 52 42
0.0791653 0.172523 -0.0512666 255 255 231
0.0825638 0.185903 -0.0266187 255 255 255
0.0594115 0.192076 -0.0378525 247 141 156
0.0808692 0.18446 -0.051285 152 84 76
0.0679759 0.193712 -0.0446181 255 175 157
0.0669293 0.193553 -0.0440368 255 158 142
0.0828154 0.160932 -0.0408478 0 0 0
0.075505 0.175379 -0.0321394 147 69 60
0.0697188 0.198454 -0.0426032 247 122 105
0.0816899 0.188881 -0.0311128 169 106 95
0.0762447 0.203665 -0.0209452 255 237 212
0.0863378 0.186004 -0.0268376 229 114 96
0.0683011 0.194507 -0.0269524 255 190 177
0.0675385 0.194315 -0.0451453 255 152 131
0.0796863 0.177697 -0.0476892 113 60 49
0.0663633 0.134254 -0.0373902 83 44 40
0.0551027 0.169807 -0.0397555 255 255 255
0.0787961 0.197811 -0.0433137 255 158 145
0.062532 0.176781 -0.0433694 157 79 72
0.0728724 0.193037 -0.0259341 153 38 0
0.0634712 0.195672 -0.0315165 255 255 255
0.0814162 0.175855 -0.0449836 114 63 53
0.0800439 0.154941 -0.032901 222 152 142
0.0617561 0.18423 -0.0299654 255 232 208
0.0769503 0.173988 -0.0315027 199 113 101
0.0631903 0.177912 -0.0339139 200 125 115
0.080622 0.198934 -0.0230561 240 133 109
0.0786206 0.176032 -0.0302231 86 39 31
0.0733759 0.179436 -0.0352438 135 89 84
0.0907302 0.200099 -0.0349625 255 255 255
0.0774166 0.194032 -0.0242893 253 120 99
0.0804551 0.177773 -0.0347306 180 114 103
0.0773503 0.159307 -0.0421646 90 52 48
0.0779766 0.166983 -0.0539111 255 255 230
0.0754116 0.193632 -0.046736 218 100 88
0.0829819 0.181977 -0.0474527 161 93 81
